# .PCD v.7 - Point Cloud Data file format
VERSION .7
FIELDS x y z
SIZE 4 4 4
TYPE F F F
COUNT 1 1 1
WIDTH 1873
HEIGHT 1
VIEWPOINT 0 0 0 1 0 0 0
POINTS 1873
DATA ascii
0.01369 0.01697 -0.06668
-0.00778 0.00383 -0.13649
0.04832 0.00131 -0.09328
-0.00735 0.00646 -0.12923
0.00151 0.00792 -0.12254
-0.03583 0.02259 -0.04892
0.00991 -0.00292 -0.17677
-0.05793 0.00198 -0.04176
0.08690 0.03546 0.01078
0.01534 0.02632 -0.00293
0.00589 0.03090 0.01554
0.03194 0.02959 -0.01767
-0.04575 -0.00598 -0.08753
-0.05815 -0.00039 -0.04613
0.06314 0.01458 -0.03953
0.07158 -0.01848 0.01108
0.03102 -0.02339 0.00667
0.04697 0.00439 -0.09795
0.00548 0.02976 -0.01878
-0.01449 0.02733 -0.01550
0.04751 -0.04716 0.03992
0.05313 -0.01776 0.01189
-0.06280 -0.01727 0.01005
-0.02344 0.01179 0.04662
0.00627 0.01782 0.01836
0.00302 0.00193 -0.13993
-0.06658 0.03369 0.01157
0.00876 -0.05572 0.01273
0.01454 -0.00242 -0.17414
-0.07178 -0.02595 0.00596
0.00312 0.02636 0.05761
0.08203 -0.03298 -0.00382
-0.00508 0.01014 -0.10180
-0.00107 -0.04930 0.00891
0.03748 -0.04385 0.00102
0.05141 -0.04043 0.00990
0.00170 -0.04493 0.01078
0.04375 -0.03049 0.00771
0.04479 -0.02672 0.00868
0.03293 -0.02410 0.00552
-0.05205 -0.02310 0.00574
-0.01864 0.02806 -0.01626
0.04271 0.01823 -0.07424
0.00002 -0.01566 0.02658
-0.03534 -0.01045 -0.06651
-0.06886 -0.00623 0.05249
0.01348 -0.03867 0.00529
0.07339 -0.00755 0.04164
-0.01919 0.00647 -0.12044
0.00317 -0.01991 0.00414
0.02219 -0.02019 0.01122
0.02988 0.00830 0.02359
-0.02708 -0.01846 0.00599
-0.04785 -0.01946 0.00498
0.09200 -0.01338 0.02810
-0.06319 -0.01067 -0.05457
0.00871 0.00813 -0.11534
0.04315 0.01873 0.00302
0.01211 0.01786 -0.08824
-0.13504 0.05730 0.15422
-0.01052 -0.01851 0.01431
-0.06654 -0.00058 0.00123
0.04512 0.03695 0.01313
0.05408 -0.02257 0.00806
-0.03364 0.00791 -0.09253
-0.02002 0.00317 -0.12306
-0.03964 0.02984 -0.00784
-0.01051 0.03037 0.00020
0.01295 0.00550 -0.13342
0.06434 0.01779 -0.03952
0.09179 -0.02254 0.00606
0.04714 0.04611 0.02830
0.05126 -0.02341 0.00703
0.01322 -0.02049 0.00530
-0.00004 -0.02323 0.00660
0.03579 0.00350 -0.00086
0.05463 -0.01003 0.01560
0.17018 -0.01141 0.41256
0.26976 0.09161 0.32602
0.05326 0.02405 0.01623
0.01221 -0.05637 0.01221
0.00546 -0.04464 0.00938
0.03823 -0.01952 0.00807
0.01942 -0.02203 0.00686
-0.02398 -0.01752 0.00469
0.01686 0.02564 -0.01574
-0.00365 -0.00669 -0.07990
-0.02728 0.03166 0.00162
0.01459 0.00379 -0.12089
0.02264 0.01070 -0.12220
-0.00430 0.01815 0.01246
0.08569 -0.02265 0.00914
-0.06554 0.03373 0.01427
0.07922 -0.01976 0.00094
0.07325 0.03351 -0.01716
0.03606 0.01824 -0.05812
0.05718 -0.04156 0.01338
-0.02014 -0.03190 0.00712
0.00966 0.00787 -0.13622
-0.01092 -0.00129 -0.15461
0.06456 0.02531 -0.05918
0.03358 0.03127 -0.04302
-0.01825 -0.00419 -0.15747
-0.01452 -0.01938 0.00649
0.09407 -0.01089 0.01028
-0.06075 -0.02321 0.01895
0.01550 0.00546 -0.13776
-0.02770 0.00334 -0.10742
0.06005 -0.01804 0.00237
-0.00817 -0.00246 -0.17189
-0.01916 -0.00050 -0.15770
-0.01884 -0.00389 -0.17967
0.01775 -0.01822 0.00401
0.07354 -0.01670 0.02650
-0.02408 0.00307 -0.11031
-0.02214 0.02376 -0.00489
-0.01688 0.03559 0.02601
0.09883 0.05724 0.11737
-0.03007 0.03074 -0.00479
-0.00541 0.01845 -0.12484
0.07137 0.00863 0.19433
0.05568 0.01250 0.00384
-0.10576 -0.01654 0.01107
0.00352 0.01325 -0.10933
0.01802 -0.04282 0.00255
-0.03126 -0.00066 -0.09159
-0.02696 -0.00258 -0.10734
0.06151 0.07433 0.20082
0.06020 0.05095 0.14410
-0.03227 -0.00310 -0.09077
0.03474 0.06868 0.00151
-0.02914 0.00033 -0.09628
-0.02210 0.00100 -0.14900
-0.07317 -0.02983 0.11219
-0.00489 -0.00314 -0.17602
0.10753 0.08258 0.19868
-0.00651 0.00671 -0.13396
0.08619 0.07010 0.06836
0.08488 0.03448 0.00103
0.07851 0.01260 0.00490
-0.00685 0.01523 -0.01265
0.00141 0.00115 -0.14182
-0.01338 0.02753 -0.01769
-0.02928 0.01572 -0.10280
0.00987 0.01285 -0.09645
-0.04629 0.02489 -0.02946
0.04421 0.02461 0.01332
-0.02954 0.00325 -0.10786
-0.02852 0.03897 0.02959
-0.02227 0.00798 -0.13717
0.03883 -0.03945 0.02100
-0.01047 -0.04395 0.00813
-0.00653 -0.04427 0.01105
-0.04428 0.00036 -0.09099
-0.09328 0.02769 -0.02203
0.01356 0.00163 -0.14565
-0.08247 0.02419 0.00513
-0.01752 0.00110 -0.14831
0.03355 0.02863 -0.05739
0.09432 -0.00872 0.02640
-0.02839 0.00547 -0.11175
-0.02504 0.00979 -0.10772
-0.00265 -0.04170 0.00694
0.00047 0.01814 -0.09661
-0.00348 -0.01755 0.01048
0.07836 -0.00437 0.01197
-0.08314 -0.00056 0.01970
0.00144 -0.01599 0.03039
0.05113 -0.01001 0.01681
-0.02017 0.03454 0.05906
0.00982 0.00175 -0.15322
0.00086 0.00967 -0.11808
-0.01508 0.00150 -0.15525
-0.05783 0.02959 -0.01798
0.03092 -0.02069 0.01128
-0.05011 -0.02539 0.00789
-0.00201 0.00561 -0.13960
-0.04505 0.00722 -0.10103
0.06074 0.03334 0.00626
-0.01577 0.00144 -0.15696
-0.06215 -0.02336 0.03666
-0.00511 -0.00287 -0.17594
0.06871 0.05112 0.09672
0.03436 -0.04175 0.00691
-0.07266 -0.02921 0.00765
-0.04308 -0.00086 -0.09274
0.02629 0.03714 0.02386
-0.08354 0.02196 0.01516
0.00785 0.00458 -0.15166
0.00146 -0.00094 -0.14404
-0.10565 0.01156 0.05246
0.00114 0.01432 -0.10960
-0.02203 0.02340 0.03894
-0.06365 -0.01267 0.02286
-0.03253 -0.03973 0.01096
0.05269 0.02883 -0.04696
0.03156 -0.05235 0.14262
0.02565 0.04133 0.00113
0.00236 0.00685 -0.14158
-0.02225 -0.04153 0.01336
0.00298 0.00773 -0.14217
0.05229 0.02622 -0.01466
0.06134 -0.01264 -0.06622
-0.00397 -0.00291 -0.14860
0.05368 0.02990 -0.02772
-0.02913 0.00079 -0.10894
0.11127 0.02295 0.03929
-0.09320 0.03744 0.05754
-0.03855 -0.02062 0.01162
0.08589 -0.01762 0.01545
-0.01284 -0.00331 -0.16529
-0.02994 0.00070 -0.10909
-0.00478 -0.00301 -0.17599
-0.02805 -0.01264 -0.07488
-0.01600 -0.00489 -0.15994
-0.03170 -0.00047 -0.08547
0.00633 -0.05537 0.00905
-0.02174 0.02704 0.04952
-0.10920 0.03496 0.03494
0.02099 0.01689 -0.09712
-0.04962 0.02503 0.01154
0.09561 0.00572 0.01318
-0.02807 0.00685 -0.09636
0.02952 0.02932 0.03670
0.07358 0.03429 0.01208
-0.00212 0.00182 -0.15182
0.02658 0.01945 -0.09008
-0.02397 0.01231 -0.11823
-0.00457 0.03165 -0.09456
-0.08807 0.00373 0.04299
-0.01270 -0.00431 -0.12495
0.00670 -0.00358 0.00583
0.03422 -0.02258 0.00880
-0.01774 -0.04004 0.01317
-0.01263 -0.04910 0.01477
-0.01837 -0.04640 0.00067
0.03202 -0.01618 -0.10156
0.06000 -0.03037 0.02066
-0.01191 -0.02332 0.00705
-0.07671 -0.04472 0.19697
0.11216 -0.02142 0.02816
0.11181 -0.01878 0.02529
0.07348 0.03924 0.03087
0.00602 0.00884 -0.12505
0.07147 0.03938 0.00871
-0.02013 0.04165 0.02484
-0.04296 -0.02068 0.00350
-0.00599 0.01509 -0.09827
0.00733 0.00369 -0.15320
0.00471 0.00510 -0.15481
0.10703 -0.01223 0.01255
0.00534 0.00600 -0.14247
-0.00739 -0.00431 -0.17827
-0.04576 -0.00325 -0.09501
-0.02466 -0.02376 0.01375
-0.02835 0.00342 -0.10820
0.00766 0.00514 0.01026
0.01665 -0.03850 0.00543
-0.01498 -0.00457 -0.16508
0.08595 0.00784 0.01778
-0.03322 0.02786 -0.01457
0.04453 0.03173 -0.07673
0.00270 0.01002 -0.12354
0.04508 -0.01766 0.01282
-0.00539 0.00558 0.00766
-0.05187 -0.01905 0.01080
-0.01323 -0.01792 0.02224
-0.01745 0.00193 -0.13408
0.00674 0.00638 -0.15312
-0.00188 -0.00510 -0.16372
0.05858 -0.01582 0.00919
-0.01796 -0.00392 0.05232
-0.01869 -0.04573 0.00732
0.03984 0.01104 0.00526
-0.01738 -0.00765 -0.14071
-0.00015 0.00995 -0.10818
0.00506 0.00343 -0.16144
-0.03516 -0.00236 -0.12811
0.00406 0.00434 -0.13730
-0.02683 0.00676 -0.12934
0.02542 -0.01894 0.00193
-0.08595 0.03061 0.03647
-0.03600 0.00613 -0.12426
0.05361 0.02959 0.00540
-0.03284 -0.03943 -0.00495
-0.01460 0.03445 0.03059
0.03358 -0.05108 -0.02865
-0.01755 -0.01854 -0.13014
0.04182 0.04387 0.01957
-0.03052 0.00221 -0.09018
0.08639 -0.03540 0.00892
0.04426 -0.03016 0.01251
-0.02443 -0.01611 -0.00332
0.02345 0.00626 -0.13837
-0.02945 0.00224 -0.10528
0.00919 0.00513 -0.14727
0.01683 -0.01509 0.00623
-0.02699 -0.04081 0.00613
-0.00573 0.00220 0.00520
0.06512 -0.01766 0.01104
-0.02133 -0.00554 -0.15188
0.08408 -0.01980 0.01006
0.01410 0.00868 -0.13267
-0.03283 -0.00092 -0.09041
-0.06237 -0.00075 0.03216
0.03536 0.01086 -0.09179
0.11936 0.09814 0.29768
-0.01417 0.00401 -0.14521
0.00281 0.00643 -0.14169
-0.00082 -0.01439 -0.13997
0.04075 0.00746 0.00221
-0.00488 -0.00297 -0.17596
-0.00483 -0.00302 -0.17591
0.00136 -0.00285 -0.16364
-0.02608 0.00429 -0.11018
0.02954 0.00430 -0.07632
-0.00536 -0.00151 -0.17020
-0.00592 -0.00165 -0.17065
-0.00901 -0.00580 -0.16309
0.00359 -0.00473 -0.16103
-0.00597 -0.00138 -0.17069
-0.00378 -0.01426 -0.07867
-0.00358 -0.03878 0.00417
-0.02112 0.01030 -0.11004
-0.03209 -0.04400 0.01599
-0.06824 -0.02003 0.00638
-0.01739 -0.00590 0.06107
-0.01084 0.00127 0.00747
0.01839 -0.00027 -0.14250
-0.17280 0.01657 0.21288
0.01783 0.01099 -0.11291
0.02515 0.02219 -0.06828
0.00218 -0.00223 -0.16511
-0.06951 0.03133 -0.00470
0.16974 0.11118 0.33680
-0.02165 -0.03991 0.00669
0.03482 -0.02106 0.01125
-0.01894 -0.00378 -0.17993
0.04553 0.03755 0.01716
-0.06557 -0.01492 0.00945
0.01508 0.00107 0.00452
-0.01301 -0.02155 -0.00477
-0.02603 0.02362 -0.05067
0.03315 0.07083 0.10197
0.07001 -0.01641 -0.04657
0.07307 -0.01072 0.01231
0.03290 0.02211 -0.04617
0.02325 -0.01167 -0.10381
0.05353 -0.01007 0.00600
0.07286 -0.00727 0.00759
0.00640 0.00390 -0.13183
-0.03938 0.00080 -0.09936
-0.01573 -0.00051 -0.13735
0.04202 0.01146 0.00405
-0.01904 -0.00386 -0.18012
-0.03559 -0.00026 -0.09926
0.11569 0.02570 0.02893
0.00343 0.01311 0.02879
-0.04141 -0.00757 -0.11965
0.05089 -0.00769 -0.08968
0.06727 -0.05630 0.45384
-0.04341 -0.01867 0.03118
-0.04980 -0.01522 0.00764
0.00908 0.01381 0.04330
0.09619 -0.01485 0.03001
-0.05601 0.00051 -0.04377
0.02130 -0.01819 -0.00621
0.06167 -0.01258 0.04951
-0.01157 0.00860 -0.11665
-0.00707 -0.01856 0.00695
0.00230 0.01447 -0.09177
-0.00552 -0.04158 0.01417
-0.01378 0.02166 -0.02476
-0.00875 0.00460 -0.13822
0.05392 0.02891 -0.03955
0.01557 0.02867 -0.00773
0.02625 -0.00019 0.01121
-0.01042 0.01596 -0.08088
0.02500 0.03549 0.04071
-0.06709 -0.02166 0.01158
0.01724 0.00919 -0.12955
-0.00760 0.00468 -0.14434
0.04832 0.02873 -0.05385
-0.02379 0.01798 -0.07503
-0.03435 -0.00260 -0.12612
0.00366 0.02860 0.03144
0.00396 0.01158 -0.09518
-0.06301 -0.07332 0.48420
0.00362 -0.00019 -0.16422
-0.01818 -0.00382 -0.17400
0.05751 -0.01823 0.00495
-0.04423 0.00027 -0.11225
-0.02016 -0.02138 0.00897
-0.02491 -0.00475 -0.06507
0.01909 0.02944 0.12508
0.04551 0.02771 -0.01003
-0.00626 -0.00060 -0.16447
-0.00745 0.00753 -0.00737
-0.04189 -0.00115 -0.11404
-0.09440 0.02017 0.02262
0.02222 -0.01652 -0.10201
-0.00546 -0.00607 -0.16699
0.14516 -0.07258 0.38872
0.02239 0.00367 -0.14503
-0.02117 0.00116 -0.13642
-0.00695 -0.02016 -0.08652
0.09867 0.04951 0.02011
-0.04052 -0.02498 0.00760
-0.01785 0.00318 -0.13535
-0.07061 0.02991 -0.01048
0.05321 -0.01435 0.02180
-0.04121 0.01889 -0.07446
-0.08049 -0.03540 0.19852
0.01072 0.01844 -0.06117
0.03158 0.04910 0.05087
-0.05782 0.00466 0.03392
-0.00392 -0.04124 0.00684
-0.05236 0.01530 -0.06252
-0.00526 -0.00043 -0.16285
-0.00562 0.01283 -0.10281
0.01379 0.00606 -0.13370
0.04035 0.04715 0.03093
-0.00704 -0.00277 -0.16620
0.05594 -0.01431 0.00335
-0.01167 -0.01886 0.04721
-0.08138 -0.01322 -0.04715
-0.07875 0.02816 0.00278
-0.04297 0.02885 0.00020
0.09138 -0.04454 0.02678
-0.10216 -0.01101 0.01456
-0.06895 -0.02583 0.00779
0.07272 -0.01659 0.00897
-0.00993 0.00357 0.02518
0.07123 -0.02244 0.00763
0.00505 -0.00655 -0.14910
0.01404 0.00361 -0.08646
-0.01898 -0.00381 -0.18002
0.02045 -0.04449 0.01154
0.01630 0.03503 -0.00244
-0.06737 -0.01555 0.06654
-0.07975 -0.03593 0.00009
0.05882 -0.02290 0.00774
-0.04415 0.00874 -0.00166
0.07329 -0.01857 0.02015
-0.02022 -0.04524 0.00620
0.07222 0.03286 -0.00643
-0.02944 -0.00585 -0.14518
-0.10003 -0.02187 0.02230
0.00965 0.04591 0.04474
-0.07022 0.02940 -0.00366
0.00402 0.01560 -0.09641
0.05912 0.02826 -0.02879
-0.00957 -0.04071 0.00722
0.02881 0.03151 0.04915
0.01288 0.03438 0.00552
0.08096 0.05463 0.16652
0.08608 0.02782 0.17738
-0.07653 -0.04004 0.23752
0.06908 -0.02812 0.01794
0.05270 0.03534 0.00876
-0.00117 0.00545 0.00712
-0.00503 0.00206 -0.15407
-0.01264 -0.01010 -0.11066
-0.00863 0.00426 -0.13959
0.00074 0.00472 -0.13923
-0.01910 -0.03058 0.01132
0.00069 -0.04360 0.02358
0.00330 0.00872 -0.11525
-0.01326 0.00510 0.05982
-0.01835 0.01330 -0.10583
-0.06048 -0.02433 0.02400
-0.00543 0.00370 -0.14610
-0.01373 0.02743 -0.03746
0.01651 0.01539 -0.09967
0.02200 0.01647 -0.07864
0.06287 0.05446 0.18674
0.01762 -0.03717 0.00964
-0.00007 0.01274 -0.11074
-0.01240 -0.04357 0.01036
0.00155 -0.03851 -0.00234
-0.00581 -0.04419 0.00281
0.05745 -0.03685 0.01234
0.00156 -0.04559 0.00101
0.00785 -0.03871 0.00013
0.08096 -0.01660 0.01390
-0.00392 0.00637 -0.13515
-0.12107 0.02494 0.01390
-0.01672 0.01281 -0.10601
0.00739 -0.02031 0.00860
-0.06081 -0.02389 0.00829
-0.12226 -0.02724 0.02983
-0.05474 0.02529 -0.03621
0.00396 -0.00010 -0.16319
-0.01164 -0.01077 -0.10039
-0.07879 0.06098 0.16713
-0.00575 -0.00864 -0.13033
-0.05943 -0.02239 0.02082
-0.12252 -0.02149 0.00704
-0.09204 -0.01779 0.02345
0.04352 0.03249 0.00020
0.12527 -0.04214 0.23756
-0.06819 0.02569 -0.03115
-0.01420 -0.00093 -0.16443
0.01272 0.00492 -0.13430
0.04406 0.05558 0.08495
0.03618 0.02679 0.08314
-0.03512 -0.02067 0.01588
-0.01312 -0.00072 -0.16363
-0.01395 0.03932 0.05459
-0.04685 0.02983 -0.00258
0.04656 0.01395 0.00534
-0.09079 0.01416 -0.02980
-0.01101 0.00944 -0.10684
0.03326 0.04417 0.08225
0.00192 -0.00522 0.00720
0.03708 0.02780 0.00190
-0.06912 -0.03406 0.01071
0.00651 0.01602 -0.08855
-0.04613 0.00940 -0.10079
-0.00982 -0.00259 -0.17351
-0.06531 0.02423 -0.02162
0.01183 0.02932 0.00182
-0.10687 0.05537 0.09970
0.06602 -0.02543 0.00557
0.06278 0.02498 0.00686
0.01196 0.03419 0.00577
0.00031 0.01205 0.02717
0.07865 -0.02067 0.00512
-0.02908 -0.01478 0.00386
-0.01908 -0.00383 -0.17962
-0.10977 0.02575 0.01612
-0.00597 0.00749 -0.00076
0.07707 0.03874 0.01550
-0.05295 0.03023 -0.03739
-0.01328 0.00013 -0.16460
-0.12550 -0.01734 0.02069
-0.06337 0.02974 0.00320
0.00499 0.01155 -0.07475
-0.10398 0.02236 0.01503
-0.01872 0.00146 -0.15368
-0.12610 -0.01903 0.00714
0.01136 -0.01199 0.01496
-0.04354 -0.01669 0.00569
-0.08714 0.03473 0.04795
-0.00906 -0.00884 -0.12728
0.02642 0.01546 -0.07183
-0.12220 0.00447 0.03038
-0.00481 0.01792 -0.07861
0.00006 -0.02470 0.00565
0.02403 -0.00877 -0.09256
0.00530 0.02629 -0.01678
0.02381 -0.04506 0.02153
0.01397 -0.01942 0.00618
-0.00269 0.00386 0.00446
-0.01590 -0.00916 -0.11618
0.02591 0.02588 0.04251
-0.02415 -0.00347 0.01642
-0.01093 -0.00599 -0.15385
0.05064 -0.01860 0.01243
-0.03063 -0.01817 0.00213
0.00257 0.00267 0.01490
0.04374 0.00909 -0.00889
-0.01117 -0.04726 0.00587
-0.10267 0.01796 0.01006
0.02901 0.03173 0.03895
-0.04430 -0.02025 0.00513
0.00034 -0.03965 0.23248
-0.01320 -0.00524 -0.16633
-0.02544 0.00053 -0.14721
-0.11082 0.02343 0.02886
-0.00635 -0.00124 -0.16930
-0.00439 -0.00434 -0.17192
0.03232 -0.01688 0.00894
0.01222 -0.01697 0.00814
0.06855 -0.02741 0.00496
-0.00400 0.01481 0.04142
-0.10621 0.01965 0.01448
-0.01332 0.01152 -0.07993
-0.01202 -0.00749 -0.09702
0.01967 0.02355 0.04093
-0.00977 -0.05353 0.00913
0.02377 -0.04030 0.01219
-0.02438 0.03172 -0.00682
0.08938 -0.02939 0.00900
-0.02070 -0.04085 0.01398
0.00235 -0.03795 0.00572
0.02704 -0.03451 0.00928
0.02493 -0.02945 0.00754
0.03595 -0.02664 0.00744
0.01824 0.02660 -0.01550
0.01243 -0.01275 -0.09604
0.00965 -0.02624 0.00740
-0.00858 -0.00316 -0.11284
0.00860 0.01133 -0.10511
0.07081 0.04409 0.04742
-0.00795 -0.00540 -0.16337
-0.12274 -0.02941 0.02857
-0.01953 0.02507 0.02928
0.00264 -0.04637 0.01008
-0.00450 -0.00323 -0.17685
-0.06680 0.02666 -0.03272
0.04054 0.01502 -0.08849
-0.03654 0.02543 -0.01076
0.00086 0.00862 -0.11608
-0.01903 -0.00385 -0.18013
0.00552 -0.04896 0.00592
-0.01251 0.02124 -0.03912
0.03067 0.03046 0.00164
0.00131 0.00548 -0.13624
-0.00831 -0.01977 0.00657
-0.01652 -0.00354 -0.16160
-0.05596 0.02612 -0.01218
-0.06411 0.02721 -0.01083
-0.02057 0.00159 -0.08059
-0.05248 -0.00823 -0.03576
0.05483 0.00009 0.00173
0.04364 0.03288 0.00409
-0.11715 -0.04050 0.02460
-0.04050 -0.01869 0.01857
0.08541 -0.04013 0.00381
-0.04713 0.02729 -0.00458
-0.00853 -0.00042 -0.16437
0.02791 -0.01483 0.00743
0.01171 0.03501 -0.03369
0.08049 -0.02818 0.00285
-0.19487 0.01455 0.15261
0.04382 -0.00959 -0.07533
0.07879 -0.02233 0.00723
-0.07016 -0.03244 0.01003
0.00798 0.00127 -0.14363
-0.00892 0.02386 -0.00780
-0.01856 0.00048 -0.15702
-0.01017 0.00431 -0.13817
0.00361 0.01239 -0.11587
-0.01175 0.00189 -0.15052
-0.02056 -0.00644 -0.15455
-0.00393 -0.00389 -0.17273
0.01773 0.00492 0.00200
-0.12842 0.00208 0.03872
0.00059 -0.05453 0.01220
0.09321 -0.03057 0.00612
0.00863 -0.05042 0.01221
-0.01377 -0.02141 0.00703
-0.12773 -0.02725 0.02897
0.05744 -0.02221 0.00882
-0.06556 -0.02877 0.00330
-0.01637 -0.00170 -0.16893
0.00857 0.05423 0.51651
-0.01126 -0.00149 -0.08679
-0.01196 0.00020 -0.08898
-0.00249 -0.00029 -0.10342
0.03431 0.03055 0.55937
0.05095 -0.00273 -0.07958
0.01366 -0.04745 0.00966
-0.00186 -0.04492 0.00653
-0.00126 -0.04409 0.01234
0.01853 -0.01947 0.00889
-0.06195 0.02821 -0.04712
-0.05100 -0.03697 -0.00062
-0.00482 0.01226 0.02724
0.08201 0.02720 0.00554
-0.00399 0.01709 -0.08462
-0.05968 -0.02120 0.01094
-0.09434 0.01396 -0.02784
-0.00332 0.01452 0.02724
0.03509 -0.02218 -0.06795
0.08074 -0.02075 0.01119
0.04613 0.00274 -0.09137
-0.03701 0.01713 -0.05465
0.05776 0.01437 0.01234
0.01800 0.03032 0.03180
-0.00264 -0.00619 0.00894
0.08578 0.02211 0.01256
-0.06591 0.02470 -0.04834
-0.06095 0.03120 -0.02210
-0.09608 0.04920 0.05398
-0.06269 0.05580 0.03928
-0.00695 0.03046 -0.02340
-0.07059 0.02810 -0.03060
0.04868 -0.01920 0.01783
-0.01253 0.00062 -0.15662
-0.02139 0.00067 -0.15865
-0.02188 0.00069 -0.15790
-0.01896 0.00005 -0.13698
0.00207 -0.01921 0.00661
-0.01258 -0.00089 -0.16708
-0.00355 -0.04046 -0.00470
-0.01912 0.00052 -0.15695
0.01594 -0.05165 0.01539
0.01054 -0.01700 0.00679
-0.02327 -0.04427 0.00249
-0.01826 -0.00041 -0.16199
-0.02047 0.00141 -0.15903
-0.02444 -0.00346 -0.16263
-0.01710 -0.00226 -0.17155
0.05309 -0.02078 -0.00764
0.01594 0.01546 -0.09837
-0.12551 -0.03811 0.27786
0.07833 -0.00797 -0.05123
0.00852 0.01764 -0.09571
-0.01226 0.02650 -0.06031
-0.00655 0.01051 -0.12388
0.07586 0.02902 -0.00066
0.01410 0.00917 -0.11700
0.02472 0.02503 -0.07389
-0.01717 0.01828 -0.07541
-0.00501 0.03093 -0.02386
0.01833 0.01680 -0.09921
-0.05517 0.01304 -0.08050
0.00548 0.01203 -0.11149
0.01382 0.00895 -0.11626
0.03788 -0.03895 0.00729
-0.07040 -0.02205 0.00589
0.02281 0.03193 -0.05491
0.09086 -0.04052 0.25812
0.01071 0.01818 -0.09693
0.01715 0.03563 -0.04393
-0.08789 0.05559 0.10334
-0.04629 0.00940 -0.08371
-0.01776 0.03117 0.00583
-0.01394 -0.00270 -0.16693
-0.02844 0.00367 -0.14620
0.03737 -0.00691 0.05376
0.06666 0.06595 0.07669
0.00389 -0.00023 -0.06804
0.13863 -0.02319 0.22988
0.01332 -0.03837 0.17266
0.02052 -0.02221 0.06004
-0.02541 -0.07056 0.49009
-0.02279 0.00375 -0.14868
-0.04844 -0.04179 0.21825
0.03234 0.02248 -0.00804
0.09180 0.17944 0.47903
0.00530 0.02229 -0.06842
-0.01806 -0.00383 -0.17349
-0.00940 -0.03114 0.10113
-0.00755 -0.04773 0.01141
-0.01874 0.01164 -0.10234
0.05282 -0.02412 -0.00116
0.00978 -0.05117 0.01236
0.00819 -0.06119 0.02240
-0.06900 -0.05044 0.45181
0.01123 0.01542 -0.08537
0.01247 0.01709 -0.06728
0.00297 -0.00541 -0.16104
-0.05059 0.03910 0.06346
0.08120 -0.04217 0.00923
0.01499 0.03250 -0.03777
0.08137 -0.04181 0.01294
0.01092 -0.02111 0.00339
0.07681 -0.01831 0.00620
-0.00278 0.01224 0.02492
0.00978 -0.02182 0.00448
-0.04552 -0.01599 0.03332
-0.06370 0.02479 -0.00650
0.01051 -0.04239 0.00864
-0.02477 -0.02341 0.00665
-0.04967 -0.01947 0.01571
0.01393 -0.01854 0.00860
0.01932 0.00934 -0.11488
-0.01456 0.02459 -0.08311
0.00071 -0.04749 0.00655
-0.01769 0.06709 0.11549
-0.00319 0.00094 -0.15766
-0.12274 -0.01836 0.00575
-0.01903 -0.00385 -0.18013
0.00188 -0.00123 0.01647
0.01071 -0.02281 0.00259
-0.02318 -0.00078 -0.11889
0.02042 0.00820 0.02679
-0.02795 0.03117 -0.00291
-0.01321 0.00105 -0.15535
-0.02832 0.01186 -0.10578
-0.03814 0.02340 -0.08386
-0.01502 -0.04498 0.01125
0.01869 0.00844 0.01263
0.04599 0.02590 -0.04373
-0.02231 0.02196 -0.05925
-0.04737 0.03754 -0.03902
0.08906 0.06149 0.10577
-0.01533 0.02126 -0.08782
-0.01183 -0.02358 0.00420
-0.10301 0.02779 0.02314
-0.02508 0.03350 0.02508
-0.03769 -0.02204 -0.09867
-0.01473 0.00118 -0.15442
-0.09114 -0.00469 0.02731
-0.02954 0.00233 -0.15274
-0.04735 0.00089 0.01170
-0.00059 0.01765 -0.09250
-0.03964 -0.00965 -0.01481
-0.01911 -0.00335 -0.17742
-0.04180 -0.00825 0.00583
-0.02282 0.01301 -0.10468
0.00887 -0.02134 0.00554
0.02400 0.04240 0.02132
0.07547 -0.02918 0.09245
-0.05971 -0.01788 -0.00798
0.05550 0.07490 0.26426
-0.02424 0.00296 -0.11935
-0.02053 -0.04335 0.00136
-0.01456 0.00278 -0.14525
0.03450 0.00443 -0.13411
0.00639 0.00588 -0.12028
-0.01875 -0.00316 -0.17608
0.00414 0.00541 -0.11571
-0.11878 -0.03984 0.05609
-0.03161 0.02758 -0.00580
0.00994 -0.05222 0.02186
-0.01190 -0.00487 -0.15651
0.00571 0.00541 -0.14464
0.01402 -0.04313 0.01158
-0.01099 -0.01321 -0.03742
-0.06625 -0.01712 0.01258
0.00460 -0.02860 0.20624
-0.11278 0.01008 0.02254
0.04294 0.00210 -0.11689
-0.00980 -0.00254 -0.17108
-0.08612 0.03287 0.00331
-0.28605 0.11576 0.42588
-0.01291 0.05105 0.02583
-0.06362 0.00106 -0.00150
-0.02806 0.00232 -0.11854
-0.08671 0.02183 0.06776
-0.07744 -0.01103 0.00055
-0.01736 -0.00348 -0.17869
-0.03597 0.02482 -0.02133
0.00805 0.02367 -0.01948
-0.06628 -0.01904 0.00851
-0.04201 0.00575 -0.04173
-0.02494 0.00182 -0.11850
-0.06485 0.01798 -0.04439
0.03095 0.00231 -0.14388
-0.02596 -0.00048 -0.16295
-0.02899 0.02951 -0.06926
-0.08207 -0.04315 0.01186
-0.12053 -0.01890 -0.02106
0.02723 -0.04065 0.00783
-0.01133 -0.04194 0.00632
-0.06933 -0.02980 0.00620
-0.12456 -0.02107 0.00526
-0.04113 0.00487 -0.04190
0.05073 0.00475 -0.09526
0.04016 0.01057 -0.10726
-0.02413 0.04638 0.06969
-0.01663 -0.00142 -0.17032
-0.00291 0.01802 -0.10171
0.02397 0.04097 0.01819
-0.01408 -0.01305 -0.08141
0.00322 0.04283 0.06561
0.00785 -0.05060 0.00999
-0.02491 0.00281 -0.11823
0.01649 -0.00167 -0.16937
0.01848 0.03023 0.00886
-0.00671 -0.02139 0.00517
-0.01810 -0.00346 -0.17807
0.03403 -0.04291 0.00785
0.00939 -0.05994 0.01078
0.05973 0.01762 0.00855
0.00459 0.00625 -0.11530
-0.05032 0.01944 -0.08024
0.01163 -0.02355 0.00330
-0.09862 -0.09757 0.13393
0.01586 0.10064 0.23688
-0.01607 -0.00532 -0.16105
0.03241 0.12331 0.42757
0.00084 0.01376 -0.09077
-0.06128 -0.02136 0.00470
0.01111 0.01744 -0.08915
-0.32384 0.11189 0.44606
-0.00855 -0.00274 -0.17587
-0.07155 -0.03987 0.01385
0.05838 -0.01986 0.00947
0.02110 -0.00274 -0.15523
-0.06674 0.02262 -0.02125
0.00811 -0.00489 -0.10049
0.02243 -0.05425 0.03436
0.01158 0.00444 -0.13798
-0.00832 0.00266 -0.15182
0.08184 -0.02052 0.12113
0.05136 -0.00362 -0.09615
-0.04300 0.00394 -0.04246
-0.02523 0.00215 -0.11833
-0.02014 -0.04733 0.00570
-0.01777 0.01379 -0.10031
0.02057 -0.04977 0.02902
0.00693 -0.04424 0.00520
-0.01816 -0.04495 0.00674
-0.24309 -0.05537 0.28862
0.05026 -0.02040 0.00499
-0.07088 -0.02366 0.00936
0.00141 -0.01253 -0.08498
0.01935 -0.04630 0.01417
0.01855 -0.01714 0.01010
-0.06413 -0.01861 0.01619
-0.12345 -0.01822 0.00919
-0.03713 0.00520 -0.05244
-0.02758 0.00279 -0.11849
0.00456 0.02216 0.01891
0.00724 0.00283 -0.13421
-0.01721 -0.00292 -0.17538
-0.00646 -0.00074 -0.16462
0.01337 0.02778 -0.02597
-0.08292 0.05371 0.06875
-0.13022 0.04661 0.02488
-0.03073 0.01669 -0.09040
-0.02586 0.00729 -0.13631
-0.00240 0.01714 -0.10166
-0.01848 -0.00349 -0.17825
0.00893 0.01118 -0.12712
-0.03168 -0.04010 0.00906
0.00690 0.07182 0.22679
-0.06973 -0.06183 -0.00759
0.01350 -0.05620 0.01327
0.01424 -0.05019 0.00864
0.00584 -0.02908 -0.03613
-0.00462 0.00499 -0.10853
0.03964 -0.02079 -0.05423
-0.00133 -0.01446 -0.10200
0.00220 -0.01475 -0.10029
-0.11242 -0.03932 0.05528
0.05192 -0.00594 0.00534
0.02371 -0.02321 0.01112
0.07625 -0.02205 0.00635
0.03595 -0.04330 0.18972
-0.00931 -0.00597 -0.15131
-0.01905 -0.00385 -0.18012
0.00166 -0.00515 -0.16202
0.00867 -0.00589 0.04255
-0.03941 0.00924 0.03572
-0.08061 0.06041 0.07988
-0.01769 0.02079 -0.08521
-0.01102 0.02776 -0.07361
-0.33546 0.20814 0.45360
-0.11871 0.00838 -0.01247
0.04538 0.13557 0.50009
-0.01675 -0.00177 -0.17114
-0.02550 -0.00057 -0.15636
0.04253 -0.04345 0.01474
-0.05495 0.01874 0.02069
-0.02469 0.00121 -0.11868
-0.09436 0.02937 0.02144
-0.05971 -0.00033 -0.00406
-0.00045 0.02452 -0.04677
-0.03010 -0.02130 0.00177
-0.09763 -0.01638 0.03162
-0.03838 0.02040 0.00944
-0.11300 0.03256 -0.02571
-0.01141 -0.04000 0.00878
0.08227 -0.01923 0.02245
-0.02313 0.02675 0.00458
-0.10882 -0.01522 0.03559
-0.01798 0.03214 -0.01178
-0.00680 0.00544 -0.13527
0.07303 -0.01988 0.01055
0.00319 0.07518 0.18178
-0.00338 -0.01015 -0.10146
0.02462 -0.04777 0.00713
-0.04843 0.00945 -0.11039
-0.01785 -0.00276 -0.17503
-0.02457 0.04833 0.06205
-0.00241 0.01660 -0.08439
-0.01888 -0.00383 -0.17961
-0.02681 0.00973 -0.11138
0.00803 0.03144 -0.04017
-0.00151 0.01723 -0.09942
0.00351 -0.01635 -0.09728
-0.02408 -0.04556 0.01219
-0.06558 0.02099 -0.02467
0.00473 0.01817 -0.06697
0.00715 0.02345 -0.04808
-0.00103 0.02103 -0.07483
-0.00264 0.01303 -0.11422
0.00659 0.01310 -0.09383
-0.00466 0.01807 -0.08504
-0.00726 -0.03661 -0.00330
-0.00982 0.02342 -0.08132
0.01726 -0.04662 0.00985
-0.02647 -0.04269 0.02283
-0.12675 -0.02356 0.00444
-0.09293 0.03588 0.01275
-0.01866 -0.00235 -0.17242
-0.01260 0.00116 -0.15741
-0.02647 0.12547 0.30576
-0.03011 0.03280 -0.00178
-0.09405 -0.01891 0.02830
-0.09969 0.07358 0.13414
-0.13783 -0.01898 0.09405
-0.03047 0.02042 -0.08671
-0.16683 0.02603 0.03305
-0.00790 -0.01565 0.01139
-0.00563 -0.01158 -0.10249
-0.06974 -0.02122 -0.00313
-0.01088 -0.01642 -0.00066
-0.03664 0.00363 -0.05716
-0.00416 0.03645 0.01669
-0.08145 0.03230 -0.04171
-0.01029 0.02141 -0.08573
-0.05721 0.00243 -0.00995
-0.00003 -0.05015 -0.00453
-0.01160 -0.00138 -0.01747
-0.00517 -0.00262 -0.17184
0.04602 0.02238 -0.05724
-0.01558 -0.00857 -0.05612
-0.06403 0.02161 -0.00696
0.02818 0.01646 -0.08648
0.00332 -0.05448 0.00743
-0.08486 0.02301 0.01452
-0.01227 0.02334 -0.08347
-0.13623 0.04520 0.03869
-0.00070 0.03193 0.01612
0.01835 0.08108 0.23334
-0.01024 0.00214 -0.15133
0.07541 0.09679 0.24756
-0.00764 0.02379 -0.06556
-0.16640 0.01960 0.01783
0.00158 -0.01534 -0.05388
-0.01698 0.02614 -0.06555
-0.03456 -0.03940 -0.00204
-0.00446 0.05113 0.02775
0.02651 0.01177 -0.11240
-0.00797 0.02506 -0.00318
-0.00231 0.01596 -0.08471
-0.02667 -0.04316 0.00726
0.01679 -0.01727 0.00932
-0.08389 -0.01542 0.02676
0.01147 -0.04500 0.00271
0.01612 -0.04769 0.00997
-0.00704 0.00288 -0.15168
-0.04064 -0.02162 0.00986
-0.01067 -0.04401 0.00409
-0.06036 -0.02645 0.01031
-0.00077 -0.04605 0.00892
-0.01936 -0.04528 0.00964
-0.07749 0.03171 0.00652
0.00251 0.01895 -0.07926
-0.02526 -0.00158 -0.15829
-0.11750 0.03493 -0.01304
-0.12066 -0.02221 0.02616
-0.00329 0.00215 -0.15386
0.01878 0.03048 -0.00040
0.00188 0.01849 -0.05565
0.10192 0.02613 0.64730
0.03352 -0.05113 0.03100
0.01307 -0.04226 0.00491
0.00558 -0.00695 0.00562
-0.00613 -0.00451 -0.17128
-0.09693 0.03208 -0.01658
-0.01303 -0.01285 0.06066
-0.02404 -0.08896 0.07390
-0.12536 -0.01568 0.02816
-0.01727 -0.00216 -0.17381
-0.08655 -0.03571 0.12607
0.02459 -0.04594 0.01293
-0.06640 -0.08103 0.79538
-0.06115 -0.02249 0.00366
-0.01720 -0.00690 -0.12916
-0.02427 -0.00179 -0.12925
0.00614 -0.01893 -0.00711
-0.04066 -0.04109 -0.01180
0.00224 -0.00025 -0.15454
-0.01820 -0.00376 -0.17144
-0.01584 -0.00204 -0.17222
-0.01744 -0.00202 -0.17317
-0.02019 -0.00209 -0.17022
-0.01813 -0.00363 -0.17140
-0.01805 -0.00353 -0.17175
-0.01648 -0.00325 -0.17739
-0.01776 -0.00395 -0.17182
-0.01799 -0.00309 -0.17183
-0.01814 -0.00379 -0.17142
-0.01798 -0.00395 -0.17174
-0.01830 -0.00354 -0.17155
-0.01812 -0.00400 -0.17166
-0.01814 -0.00370 -0.17108
-0.01774 -0.00313 -0.17281
-0.01755 -0.00317 -0.17210
-0.01794 -0.00391 -0.17174
-0.01540 -0.00106 -0.16889
-0.01801 -0.00316 -0.17222
-0.01785 -0.00327 -0.17249
0.00466 -0.00020 -0.15046
-0.05800 -0.02110 0.01145
0.01106 -0.00681 -0.14083
-0.06210 0.03128 0.01449
0.04421 -0.00477 0.00541
0.02425 -0.05571 0.03501
-0.02030 -0.02076 0.01916
0.05270 -0.01970 0.00916
0.00334 -0.00659 -0.14076
-0.00563 -0.00475 -0.14714
-0.02360 0.00892 0.00198
-0.04109 0.02231 -0.01324
-0.20714 0.14991 0.31462
-0.23683 0.10832 0.32936
0.07888 -0.01056 -0.04087
-0.11136 0.05654 0.14981
0.02176 0.01992 -0.06535
-0.09287 -0.04481 0.19329
-0.03848 0.00196 0.15624
0.01517 0.00777 -0.12005
-0.00115 0.01715 -0.11688
0.03640 -0.01514 -0.05537
0.02010 0.01032 -0.11000
0.02092 0.01357 -0.10606
-0.18629 0.12629 0.29434
0.01441 -0.04185 0.01318
0.04010 -0.02254 0.00687
0.03744 -0.04188 0.00919
0.03325 -0.04097 0.00692
0.00704 -0.04306 0.00857
-0.06903 -0.01606 0.00476
0.04360 -0.04700 0.02879
0.01834 -0.03909 0.00995
0.01397 -0.00693 0.00507
-0.08783 0.03247 -0.03512
0.01892 0.01471 -0.10554
0.08587 0.01989 -0.02263
0.02095 0.00929 -0.11964
0.03970 0.00370 -0.11750
0.02139 0.01237 -0.10179
-0.06832 0.09464 0.12087
0.06788 -0.01968 0.00641
0.00589 -0.03651 0.17586
-0.00541 -0.00805 -0.13004
-0.11212 -0.01454 0.05237
-0.08488 -0.02377 0.08682
0.01687 0.01485 -0.12192
-0.02376 0.01937 -0.00653
0.00219 -0.00119 -0.13465
-0.00756 0.00197 -0.15271
0.04152 0.01983 -0.10590
-0.02510 0.05499 0.12970
0.03171 0.01884 -0.11895
0.00560 -0.04095 0.00811
0.08083 -0.02372 0.00948
-0.01644 0.02890 -0.00735
0.04151 0.00874 -0.11867
0.01631 0.00538 -0.14638
0.01966 0.00827 -0.13692
0.02222 -0.01678 -0.06233
0.01330 -0.00632 -0.13474
-0.01806 -0.00466 -0.16615
-0.01776 -0.00328 -0.17243
0.01653 0.01501 -0.01154
0.07206 -0.04233 -0.01633
-0.00645 0.01097 -0.10461
0.00843 0.01817 -0.09811
0.02171 0.02785 0.03051
0.05225 -0.01894 0.00525
0.01863 -0.04179 0.00677
-0.00737 0.02047 -0.05160
0.07616 0.03950 0.03671
0.07719 0.03408 -0.00274
-0.07420 0.02455 0.00128
-0.08825 -0.03238 0.02622
-0.00166 -0.00698 0.01512
-0.02672 0.01929 -0.00212
0.02816 0.04023 -0.01615
0.19248 -0.09429 0.70719
0.00511 0.01314 -0.09484
0.04236 0.01905 -0.08123
0.03573 -0.04544 0.01584
-0.00009 -0.00477 -0.16348
0.04763 -0.00908 -0.08015
-0.06372 -0.01583 0.01833
0.00008 0.01174 -0.11652
0.01579 -0.01163 -0.08897
0.05988 -0.02858 -0.04788
0.01264 0.00202 0.05007
0.00133 0.00476 -0.12588
-0.02478 0.00852 -0.10733
0.04049 0.00972 -0.12251
-0.00918 0.01298 -0.11845
-0.04730 0.00641 0.03616
-0.03613 0.01013 0.00886
0.01702 0.03287 0.00689
0.04172 0.00918 -0.12019
0.08699 -0.02990 0.01682
0.10547 0.04528 0.07971
-0.03090 0.01349 -0.09978
0.00425 0.01828 -0.09164
-0.03424 -0.00174 -0.12703
-0.04347 0.03472 -0.03716
-0.01912 -0.00488 0.03725
0.18817 -0.07250 0.64259
0.01627 -0.01843 0.00587
0.07214 -0.01736 0.01658
0.06582 -0.01340 0.01697
0.01751 -0.06330 0.86146
0.00820 -0.00289 -0.15423
0.00078 0.02487 0.04396
-0.03678 0.00357 -0.07233
-0.03428 0.01206 0.00552
0.07269 0.02998 -0.01063
-0.00891 0.01438 -0.10413
0.02699 0.04648 -0.00058
0.00954 0.01095 -0.13693
-0.00309 0.03485 -0.06229
0.01752 0.01077 -0.12433
-0.01580 -0.00335 -0.08375
0.12541 0.05436 0.04037
-0.02839 -0.02134 0.00005
0.00360 -0.01025 -0.08598
-0.05936 -0.01474 0.00636
0.02279 0.01103 -0.10189
0.11500 -0.01823 0.23469
0.07815 0.03438 0.00902
0.08362 0.02640 -0.05637
0.08099 -0.03763 0.00418
0.03121 -0.01137 -0.09121
0.05043 -0.01996 0.01200
0.09110 -0.01564 0.02973
0.03046 -0.01535 -0.07535
0.01867 0.00871 0.02900
-0.01783 -0.00330 -0.17176
0.00001 0.01591 0.02254
0.05961 0.02443 0.01653
0.01850 0.03319 0.00197
-0.01069 0.03235 0.00552
-0.00269 0.05938 0.11513
-0.01837 0.01853 -0.08265
-0.00887 -0.02588 0.00702
0.04172 0.01645 -0.10783
0.03853 0.01490 -0.11887
0.10285 -0.01038 0.03980
-0.11551 -0.04221 0.01038
0.04424 0.01418 -0.11602
0.02105 0.01271 0.02565
0.01966 0.00608 -0.12117
-0.07293 0.02685 -0.04606
0.04248 0.07663 0.14183
0.01017 0.00153 -0.14224
0.01591 0.02070 -0.01075
-0.00417 0.00995 -0.13249
-0.08299 -0.01268 0.02293
0.07576 -0.01550 -0.04687
0.10628 -0.07051 0.91800
0.03744 0.03909 0.02091
-0.06166 -0.00442 0.03240
0.07776 -0.01511 0.00841
-0.00376 -0.00868 -0.10513
0.01494 0.03025 -0.00156
-0.18446 0.05671 0.15323
-0.00020 0.04445 -0.06325
0.08395 0.02805 -0.05370
0.03824 -0.01319 -0.08478
-0.00624 -0.01953 0.00519
0.07653 -0.05121 0.00166
-0.00392 -0.05425 0.05338
0.00221 0.00867 0.02666
0.00086 0.02394 -0.07224
0.03819 0.01406 -0.11936
-0.11359 -0.01858 0.01806
-0.00013 -0.00989 -0.09972
-0.01594 -0.00145 -0.16958
0.07693 -0.03583 0.00121
0.00654 -0.01840 0.00986
-0.05394 -0.01842 0.00792
-0.10264 0.03150 0.02826
-0.01459 0.00177 -0.15105
0.08303 -0.03703 0.00382
-0.00563 0.00262 -0.15185
-0.00457 -0.00265 -0.17598
-0.01307 0.03761 -0.01758
-0.06707 0.06114 0.02003
-0.02919 -0.02442 0.00642
-0.00930 -0.02391 0.00607
0.05571 -0.01931 0.00117
0.11630 -0.01481 0.02552
-0.01823 0.00363 0.04194
-0.02179 0.00504 0.06442
0.03907 -0.00007 -0.11742
0.04227 0.00984 0.00322
0.06100 0.02372 0.01253
0.01369 0.00320 -0.14318
-0.00301 0.01757 -0.07344
0.02812 0.01428 -0.10428
-0.00634 0.01520 -0.09676
0.03953 0.01075 -0.12167
-0.02696 0.01013 -0.09804
0.07027 -0.02419 0.00428
0.01067 -0.02090 0.00702
0.04226 0.00108 -0.11672
0.02882 0.01142 0.02045
0.08109 0.01968 -0.03454
-0.12457 0.03538 0.01930
0.01139 0.02128 -0.05458
-0.01008 0.02347 -0.04426
-0.00257 0.01175 -0.11790
-0.22134 0.09203 0.17456
-0.00986 0.02036 -0.10480
-0.11996 -0.02615 0.03008
-0.00767 -0.01514 -0.06521
0.01192 0.00939 -0.12647
0.01288 -0.00126 -0.14515
-0.02022 0.05083 0.11221
0.02106 -0.01708 -0.05304
0.02435 -0.01356 -0.08362
-0.00593 -0.02284 0.00589
-0.11031 -0.00577 0.00893
0.01313 -0.05007 0.00705
-0.03648 -0.05075 0.01735
-0.03192 -0.05331 0.04651
0.00911 -0.04067 0.00520
0.04639 -0.03875 0.01122
-0.00850 -0.01912 -0.09421
-0.01006 -0.00975 -0.14645
-0.04957 -0.03283 0.00685
-0.04577 -0.00557 0.00754
-0.00359 -0.02422 0.00706
0.06366 -0.02233 0.01183
-0.04659 -0.03080 0.06388
0.09932 0.02226 0.00547
-0.06987 0.03295 0.07219
0.03065 0.04238 0.02682
0.02982 0.05282 0.06114
0.03345 0.01872 -0.08230
-0.13145 0.07323 0.05877
-0.00659 0.01964 -0.10116
0.07326 -0.04623 0.01710
0.00443 0.00215 -0.14322
0.01469 0.00531 0.00086
-0.13136 -0.01549 0.02617
-0.00750 0.00580 -0.11475
0.03269 -0.00100 -0.16743
-0.00478 0.05884 0.08115
-0.03609 0.02359 -0.09203
0.07607 -0.03205 -0.00304
0.00682 -0.00933 -0.11931
0.06116 0.02183 0.02114
-0.19589 0.10898 0.21093
0.01178 -0.01469 -0.04399
0.03627 0.02238 0.00489
-0.21212 0.07518 0.15825
-0.04388 -0.02822 -0.07323
-0.04719 -0.01560 -0.00028
0.00254 -0.01416 -0.03044
0.02116 0.00835 -0.14156
-0.05070 -0.02192 0.00451
-0.00503 0.02348 -0.09935
0.06575 0.02170 -0.00219
-0.03943 -0.03664 0.25814
0.02164 0.00227 0.01110
0.04060 0.00281 -0.07817
-0.00978 0.00176 -0.15192
0.01156 0.01543 -0.06587
0.03929 0.00267 -0.11704
-0.02532 0.00269 -0.11801
0.01811 -0.04584 0.00700
-0.02255 -0.04477 0.01279
0.07841 -0.01862 0.00526
-0.04410 -0.01962 0.00765
-0.03861 -0.00925 -0.07015
-0.01923 0.00220 -0.07793
-0.06678 0.00908 0.03619
0.01000 0.00143 -0.08962
-0.00402 0.00770 -0.12347
0.01901 0.05610 -0.01628
-0.01058 -0.00784 -0.13298
-0.02345 0.00127 -0.11842
-0.00589 0.00659 -0.12159
-0.11381 0.03478 0.01881
0.07654 -0.04256 0.00169
0.01219 0.03719 -0.07659
0.00010 -0.09537 0.09530
-0.00158 0.00620 0.01246
0.06862 0.04048 0.04469
0.01782 0.01376 -0.09248
0.08123 -0.05690 0.06229
-0.01699 -0.00390 -0.17655
0.01739 0.01332 -0.08143
0.01270 0.03366 -0.07691
0.07601 -0.03883 0.00512
-0.06498 0.02859 -0.00371
-0.00741 0.01728 -0.07992
-0.00412 -0.04236 0.00703
-0.03204 0.01852 -0.08194
0.04659 -0.01520 0.00797
-0.03032 -0.04282 0.00935
-0.01848 -0.01651 0.02267
0.02738 0.02620 0.03563
-0.01183 0.02572 0.02834
-0.02785 0.11602 0.29092
0.05907 0.08247 0.13792
-0.00001 -0.01104 -0.10460
-0.11566 -0.01941 0.02802
0.03230 -0.00254 -0.17422
-0.00101 -0.04775 0.00318
-0.04945 0.01389 -0.07991
0.07316 -0.04287 0.01094
0.08377 -0.04111 0.00449
-0.00084 -0.07687 0.03245
-0.00229 -0.03868 0.00503
0.08662 -0.02844 -0.01017
-0.12284 -0.02681 0.02743
-0.02438 -0.01198 -0.06705
-0.09656 0.02429 0.02920
0.02810 0.02628 0.04576
0.00082 0.00943 -0.11190
-0.02632 -0.04599 0.01176
-0.20753 0.14340 0.52705
0.01455 -0.00287 0.00237
0.07061 -0.02344 0.02053
-0.01682 -0.00387 -0.18026
-0.04730 0.05486 0.14813
-0.03328 0.06916 0.10219
0.00325 0.01451 -0.09557
0.04475 0.01521 -0.10405
0.08011 -0.03896 0.00836
-0.00673 -0.00476 -0.14240
-0.10605 0.02576 0.01328
0.03059 -0.03188 0.00744
0.03712 -0.02187 0.00832
0.00197 -0.04058 0.01088
-0.02593 -0.01793 0.00754
0.06015 -0.02264 0.00741
0.04887 -0.02211 0.00843
0.03015 0.02423 0.03548
0.05516 -0.01926 0.00958
0.01077 0.02020 -0.07135
-0.00721 -0.02079 0.00643
-0.01262 0.01287 -0.10639
0.04061 0.01438 -0.12250
0.01011 -0.00421 0.01694
-0.00289 0.00547 -0.14255
0.00005 0.01392 -0.10853
-0.01992 0.03064 0.04954
-0.02723 0.00069 -0.11793
-0.06071 -0.00589 -0.05708
-0.05563 -0.01982 0.01335
-0.00237 -0.04267 0.00584
-0.03724 -0.02352 0.01165
-0.28249 0.07468 0.40439
0.00579 -0.05839 0.01578
-0.00362 0.01114 -0.11020
-0.08185 0.03166 0.11270
0.00470 0.06815 0.36182
-0.01061 0.01192 0.11211
0.01240 0.02699 -0.01034
0.02929 -0.04354 0.00782
-0.00241 -0.05186 0.01403
0.05439 -0.01453 0.00731
0.02589 -0.04174 0.00276
0.04860 -0.03940 -0.00276
-0.08134 -0.05852 -0.03867
0.03562 -0.04173 0.00852
-0.01885 -0.04373 0.00833
0.03174 -0.03800 0.00719
0.08043 -0.02483 0.00710
-0.00239 0.01173 -0.10454
0.01684 0.01270 -0.00023
-0.13441 -0.06996 0.49797
0.02290 -0.03959 0.00085
-0.01808 -0.01981 0.01482
-0.02517 0.02968 -0.00106
-0.06019 -0.02972 0.00018
-0.01362 -0.04645 0.01032
0.07668 -0.02716 0.00771
-0.02989 -0.03572 -0.02865
-0.19015 0.06383 0.14950
0.03369 -0.00335 -0.17842
-0.01868 0.00989 -0.11449
-0.01271 -0.00256 -0.12193
-0.04307 0.03613 0.00599
0.00529 -0.02236 0.02188
-0.04601 0.01658 -0.07019
0.04259 -0.01159 -0.08290
-0.06723 -0.03792 0.23268
0.00796 -0.01001 -0.10742
-0.01503 -0.01390 -0.04063
0.05089 0.00093 0.04197
0.00648 0.05984 0.93944
-0.02938 0.00953 -0.00559
-0.00443 0.02556 -0.05019
0.03314 -0.00302 -0.17771
0.03241 -0.00499 0.05054
-0.04939 -0.02193 0.01220
-0.03885 0.04864 0.03131
0.11064 -0.01730 0.02730
0.03364 0.00982 -0.06773
0.01706 0.00684 -0.13013
0.02050 0.01348 -0.11175
0.03363 -0.00332 -0.17834
-0.02882 0.02563 -0.07127
0.07543 -0.01989 0.00678
0.02193 0.03014 -0.03603
-0.00396 0.02912 -0.10621
-0.05110 -0.01268 0.00562
0.03352 -0.00320 -0.17771
-0.03655 0.01916 -0.07162
-0.04980 -0.02374 0.00168
0.02230 -0.02311 -0.07506
-0.00319 0.07653 0.14191
-0.04169 -0.01270 0.01676
0.02912 -0.02657 0.08222
-0.00538 0.01979 -0.09203
-0.08579 0.03981 0.08980
-0.01797 -0.00247 -0.17211
0.04158 -0.01683 0.06042
0.01652 0.00708 -0.14096
0.04123 0.02064 -0.05400
0.03352 -0.00309 -0.17762
0.02036 0.00031 -0.16153
-0.03111 0.01664 -0.08968
0.03352 -0.00316 -0.17768
-0.12471 0.03160 0.01772
0.00941 0.05262 0.12665
-0.05079 0.02791 -0.01107
0.18419 0.09288 0.29196
0.01598 -0.04889 0.01041
-0.03527 0.01843 -0.06079
-0.10725 0.02697 -0.01541
-0.05128 0.03046 -0.00175
-0.11201 0.02992 0.01856
-0.00799 0.00627 -0.12468
0.03353 -0.00313 -0.17767
-0.00118 0.04399 -0.06912
0.01631 -0.04328 0.00937
-0.06400 0.03858 -0.00710
-0.08953 0.09515 0.20753
0.10090 -0.01469 0.04580
0.02938 -0.00268 0.01024
-0.10771 -0.00733 0.01737
-0.00792 -0.00177 -0.16848
0.10639 0.02914 0.02046
-0.17752 -0.05818 0.64911
-0.06404 -0.03053 0.00559
0.00813 -0.01522 0.03224
0.09115 -0.01089 0.01230
-0.01221 0.02534 0.01512
0.03343 -0.00259 -0.17459
0.02083 0.00986 -0.11423
0.01734 0.02873 -0.05910
0.00427 0.02619 -0.11445
0.06231 0.00651 0.03227
-0.00516 0.01793 -0.10949
-0.03212 -0.02013 0.00414
-0.01907 -0.00383 -0.18004
0.00989 -0.01097 -0.09182
0.07339 -0.01599 0.00435
0.06678 -0.00777 -0.06616
-0.06446 -0.01650 0.01744
-0.01573 -0.00035 -0.10052
0.00233 0.01325 0.02323
-0.02570 0.01647 -0.02331
-0.06395 0.28400 0.52088
0.11490 -0.00648 0.03316
0.11635 -0.00671 0.03264
-0.01751 -0.00345 -0.16976
-0.01671 0.03390 0.00481
0.02113 -0.01165 -0.08592
0.03038 -0.01967 0.00748
-0.03070 -0.01406 -0.06501
-0.11068 -0.01742 0.02549
-0.03190 0.02044 -0.00925
0.01761 0.02897 0.00505
0.25305 0.12694 0.50766
0.03365 -0.00333 -0.17837
0.02081 0.06998 0.11680
0.01626 0.02494 0.00283
0.17855 0.00037 0.15360
0.02377 0.00235 -0.14741
-0.07431 0.02764 -0.00373
0.03368 -0.00330 -0.17817
0.05795 0.12425 0.37670
-0.02529 -0.04299 0.00804
-0.02114 0.03434 -0.06372
-0.00099 0.00044 -0.15931
-0.02083 -0.02080 0.01523
0.00084 -0.01134 -0.09639
-0.02452 -0.02091 -0.00384
-0.11922 -0.03436 0.02566
-0.07429 0.00545 -0.01176
0.03906 -0.00011 -0.16061
0.10213 0.08306 0.14424
-0.02728 -0.02013 0.00874
0.00647 -0.01176 0.00361
0.00782 0.05953 0.10990
-0.06894 0.03418 -0.02259
0.03367 -0.00334 -0.17841
-0.00727 -0.00163 -0.16783
-0.22758 0.07543 0.23734
0.10750 -0.01372 0.03246
0.00267 0.01636 -0.09506
0.02589 0.02381 -0.05286
0.00102 0.01772 -0.13028
0.03612 0.00370 -0.14653
0.03365 -0.00318 -0.17806
0.07360 -0.01020 -0.03988
-0.03682 -0.05605 0.05248
-0.06191 -0.01930 0.00946
-0.12345 -0.01732 0.03273
-0.15008 0.00828 0.06781
-0.00066 0.01602 0.03946
-0.06242 0.02541 0.03660
0.02471 0.02840 0.03443
0.07159 -0.02181 0.01158
0.06869 -0.02636 0.28604
0.06162 0.00191 0.04692
0.02120 0.01098 0.02326
0.00808 0.00300 -0.10764
-0.00048 0.02602 0.04962
-0.05648 -0.02910 0.00441
-0.09306 0.02399 0.00626
-0.03064 0.00694 -0.12225
-0.05766 0.02978 -0.03219
-0.02674 0.01484 -0.10192
0.01045 0.04241 -0.01159
-0.04908 -0.01348 -0.08368
0.07473 -0.01573 0.00790
0.00789 -0.04700 0.00556
0.03365 -0.00334 -0.17837
0.05902 0.09448 0.23690
0.03274 -0.00296 -0.17728
0.02144 -0.01301 -0.12496
-0.02740 -0.01836 -0.03756
0.08936 -0.01696 0.01252
0.01242 -0.05130 0.01035
-0.01891 -0.03841 0.01018
0.18875 -0.04714 0.17714
0.17414 -0.04221 0.15943
0.17159 -0.04014 0.14280
0.04979 -0.02421 0.00682
-0.04906 -0.02625 0.00718
-0.05369 -0.07890 0.51687
-0.11913 -0.02656 0.00984
-0.12881 -0.02418 0.01561
-0.10106 -0.01869 0.02615
-0.06934 0.03140 0.00517
-0.01410 -0.00865 -0.14842
-0.03247 -0.00058 -0.09920
0.00607 0.02587 -0.02691
-0.05099 0.01182 -0.06259
0.02076 0.02116 -0.04944
-0.00850 0.02760 -0.03256
-0.00333 0.02880 -0.06145
-0.02634 -0.03056 0.01164
0.02338 -0.00444 -0.14622
-0.02214 0.01587 -0.08179
0.06662 0.05109 0.05652
0.02191 -0.00128 0.02245
0.04324 0.00435 -0.11103
0.04217 -0.00114 -0.10976
-0.06294 0.03322 0.00466
0.03360 -0.00328 -0.17824
0.10198 0.03540 0.01527
0.01965 0.02120 -0.07552
-0.00559 0.02685 -0.00126
-0.00687 0.02897 -0.00414
0.12920 -0.04209 0.04049
-0.00081 -0.00097 -0.15837
-0.18220 0.04544 0.08429
0.25045 0.13757 0.56736
0.01243 0.02773 -0.04566
0.00529 -0.00358 -0.12175
0.02783 0.00501 0.01737
0.00407 0.02460 -0.09862
-0.01583 -0.00465 -0.17292
-0.10312 -0.02117 0.02583
0.02030 0.01741 -0.12649
-0.06506 0.03397 -0.02464
0.03375 -0.00336 -0.17850
-0.12089 -0.04324 0.02865
0.01703 0.00024 -0.12918
-0.01023 0.00086 -0.11845
-0.19837 0.04419 0.16847
0.00806 0.01113 -0.12181
0.01890 0.02454 -0.07882
0.17292 -0.02652 0.14888
0.03345 -0.00321 -0.17816
0.00471 0.02034 -0.12149
-0.13380 -0.03553 0.01644
-0.09635 -0.01895 0.03238
-0.00006 0.00807 -0.00794
0.02475 0.00799 -0.13098
0.10395 -0.00454 0.02307
-0.04260 -0.01432 0.01664
-0.00299 -0.00506 -0.16181
0.00598 -0.01144 -0.14612
0.03031 -0.03957 0.01492
0.03814 0.00851 0.00236
0.03191 -0.04430 0.03793
-0.06899 -0.02038 0.00610
-0.03282 -0.04767 0.52670
0.02725 0.00973 0.15127
-0.01645 -0.00240 -0.17514
-0.04716 -0.01842 0.00701
0.01470 -0.04262 0.00910
0.01011 -0.03758 0.00075
0.03393 -0.00326 -0.17805
0.03395 -0.00321 -0.17811
0.03396 -0.00318 -0.17806
0.03394 -0.00320 -0.17802
0.03395 -0.00321 -0.17806
-0.03431 -0.03977 0.01293
-0.06468 -0.01983 0.00908
0.08663 -0.03443 0.00604
0.06390 -0.02258 0.00570
0.03330 -0.00285 -0.17680
0.03365 -0.00318 -0.17808
0.02188 0.00749 -0.12934
0.05905 -0.00381 0.01862
0.03362 -0.00331 -0.17833
-0.01905 -0.00382 -0.18008
0.03749 0.03666 0.04232
0.03366 -0.00319 -0.17810
0.08801 -0.01109 0.01185
0.18510 -0.03180 0.17396
0.01133 0.00502 -0.14485
-0.04524 0.00394 -0.05036
-0.02712 0.02832 0.00053
-0.01151 0.01330 -0.11885
0.03366 -0.00319 -0.17814
0.03367 -0.00318 -0.17809
-0.06604 0.03145 -0.03687
0.04443 0.00309 -0.11363
0.03166 -0.00340 -0.17567
0.03428 -0.00295 -0.17322
0.03316 -0.00328 -0.17584
0.00876 0.02897 -0.03786
0.02406 0.00314 0.14542
-0.12548 0.02790 0.00155
-0.10501 0.03406 0.00499
-0.17456 -0.01598 0.13894
0.00819 0.04285 -0.01911
0.01201 -0.02487 0.00496
0.00782 0.00456 -0.10870
0.10144 -0.02924 0.22960
-0.03243 0.01454 0.00127
-0.03521 0.00853 -0.00277
-0.01652 -0.00673 -0.10728
0.03449 -0.00278 -0.17262
0.03424 -0.00300 -0.17169
0.03436 -0.00321 -0.17190
0.03462 -0.00285 -0.17150
0.03420 -0.00294 -0.17191
0.03316 -0.00314 -0.17750
0.03474 -0.00271 -0.17150
0.03437 -0.00338 -0.17193
0.03324 -0.00294 -0.17636
0.03018 -0.00403 -0.17363
0.03327 -0.00284 -0.17595
0.03353 -0.00292 -0.17128
0.03203 -0.00377 -0.17252
0.03445 -0.00279 -0.17192
0.03340 -0.00305 -0.17696
0.03412 -0.00313 -0.17201
-0.02034 -0.00936 -0.10564
-0.20027 0.14733 0.64979
0.20739 -0.02556 0.21520
-0.04044 -0.02338 0.00805
0.07310 -0.02368 -0.00300
-0.06097 0.02532 -0.00908
-0.02956 0.02845 -0.02085
-0.06946 -0.02775 0.00904
0.08458 -0.03272 0.01579
-0.06675 -0.02013 0.00690
0.08343 -0.03062 0.10778
0.02882 0.00345 -0.11630
0.00463 0.00486 -0.11462
0.02300 -0.00262 -0.11286
-0.00995 0.00646 -0.12907
-0.00981 -0.03721 -0.00026
-0.00479 -0.00355 -0.17734
-0.01943 -0.00070 -0.11521
0.06284 -0.02000 0.00329
0.01322 0.00090 -0.14925
0.06161 0.04652 0.00099
0.05159 -0.00705 0.01529
0.01985 -0.00377 -0.07688
0.02946 0.02390 -0.07744
0.01866 -0.01784 -0.10015
0.04941 0.00711 -0.08366
-0.00419 0.02761 -0.00083
0.02292 0.00930 -0.11747
0.00931 -0.05857 0.00046
0.04190 -0.03985 0.00720
0.01476 -0.03927 -0.00126
0.02913 -0.00383 -0.17186
-0.00180 0.00227 0.00183
0.03756 -0.00051 -0.15690
0.02066 0.02750 0.03594
-0.06925 -0.01498 0.02931
0.00557 0.02186 -0.07355
-0.01896 -0.00376 -0.17978
0.04477 0.02478 -0.00471
-0.02271 -0.04731 0.00942
-0.05690 0.12197 0.39866
-0.04571 0.02764 -0.02909
0.04176 0.05901 0.10693
0.12934 0.05157 0.08959
0.00545 0.01833 -0.04037
-0.03642 0.02533 -0.05626
0.04860 0.03819 0.01405
0.01329 -0.01972 -0.02877
0.01084 -0.00597 -0.14777
0.00721 0.00486 -0.14464
-0.00015 0.03394 -0.05500
0.00080 0.01054 -0.12026
-0.06429 0.00940 -0.00488
0.02939 0.03961 0.05563
0.11414 0.02746 0.02220
0.00643 0.00048 -0.15283
0.03179 -0.02004 0.00326
0.05156 -0.03196 -0.03368
0.01300 -0.00428 -0.12258
0.01475 -0.00532 0.00049
0.06057 0.04582 0.00380
-0.10665 0.00346 0.03647
-0.01584 0.01211 -0.11927
0.00759 -0.00751 -0.11478
-0.02879 0.01410 -0.09965
-0.07066 -0.04208 0.01595
0.02056 0.01253 -0.12107
-0.01265 -0.01011 -0.10087
0.10046 -0.02900 0.14060
-0.15453 0.03788 0.06994
0.02074 0.02759 -0.03652
-0.02151 0.00024 -0.16197
0.06053 -0.01571 -0.06892
0.00742 -0.00116 0.00827
0.05201 0.01359 -0.06939
-0.08985 0.04619 0.07896
0.04116 -0.04066 0.01203
-0.01683 -0.00385 -0.18030
-0.08194 -0.00985 0.02558
0.02253 0.00808 -0.12023
-0.06543 0.03357 -0.00883
-0.01117 -0.00807 -0.12348
-0.11953 -0.03066 0.02512
-0.05940 -0.01701 -0.01912
-0.04031 -0.01997 0.02519
0.03373 -0.01831 0.00565
-0.03463 0.00817 -0.06568
0.02699 0.00429 -0.12179
0.05534 0.00739 -0.11406
-0.08225 0.02789 0.02427
-0.03474 0.01846 -0.08011
-0.08455 0.03664 0.03213
0.00144 0.03601 -0.05182
-0.00367 0.02755 -0.03536
-0.01764 -0.00547 -0.16115
0.02099 0.04386 0.04402
-0.01755 -0.00315 -0.17736
-0.03588 -0.03985 0.00694
-0.19464 -0.02977 0.20185
-0.03479 0.01968 0.00898
-0.08557 0.01899 -0.00875
-0.06315 0.02566 0.03275
-0.08632 0.02841 0.00131
-0.01350 0.01449 -0.06335
-0.02646 0.00040 -0.15340
-0.02292 0.03388 0.01163
-0.01423 0.01218 -0.12317
-0.05941 0.00858 0.00096
0.05531 0.03135 0.00327
0.02221 0.00692 -0.12237
-0.20601 0.12718 0.54159
0.00533 0.01743 -0.05343
0.00331 -0.05867 0.01149
-0.03923 0.02824 -0.00870
-0.10102 -0.01157 0.02129
-0.02765 0.05547 0.10296
0.02783 0.07182 0.17965
0.02273 0.01873 -0.07663
-0.01486 0.01083 -0.11027
-0.01212 -0.00433 0.01991
0.10718 0.03098 0.01149
-0.00017 -0.04210 0.01086
0.09171 0.08110 0.10590
0.03193 -0.01648 0.01300
0.06679 0.00496 0.00619
