# .PCD v.7 - Point Cloud Data file format
VERSION .7
FIELDS x y z
SIZE 4 4 4
TYPE F F F
COUNT 1 1 1
WIDTH 1871
HEIGHT 1
VIEWPOINT 0 0 0 1 0 0 0
POINTS 1871
DATA ascii
0.01724 -0.02865 0.00411
0.10557 -0.00381 -0.01264
0.09619 0.02399 -0.03179
0.02405 0.02459 -0.06358
0.01683 -0.02783 0.00661
-0.00980 -0.02845 0.02731
-0.02952 -0.05164 -0.00209
0.01366 -0.00158 0.01341
0.16144 0.03214 -0.03684
-0.03741 -0.00786 0.01985
0.02819 0.00122 0.01781
0.00685 -0.03980 -0.01316
-0.01287 -0.04940 0.02011
-0.03297 -0.03991 -0.00606
-0.03322 -0.05517 -0.00494
0.09623 0.02503 -0.02775
0.00844 -0.04218 0.00334
-0.06945 -0.01511 0.04113
-0.06461 -0.06256 0.00091
0.04265 -0.02014 0.00066
-0.07392 -0.01764 0.00951
0.06880 0.01952 -0.00877
-0.01936 -0.02644 0.04065
0.05260 -0.02639 -0.01339
-0.01494 -0.05281 0.01762
0.03327 -0.01121 0.01178
-0.01485 -0.02578 0.01024
-0.01501 -0.05046 0.01573
0.01047 -0.04094 -0.00147
0.01592 -0.02776 0.00977
-0.03404 -0.05152 -0.00542
-0.03534 -0.06486 0.01524
0.01779 -0.01760 0.00007
-0.05106 -0.01426 0.03302
0.12773 0.02003 -0.02799
0.09091 -0.01326 -0.01498
0.01460 -0.03550 0.00964
0.15440 0.03639 -0.02571
0.05271 -0.00962 -0.00561
0.00528 -0.03251 0.01197
0.13108 0.02707 -0.03891
-0.03691 -0.05651 0.02537
-0.01572 -0.05694 0.01836
0.07020 -0.00440 -0.01496
0.08417 0.02178 -0.01965
-0.03259 -0.01235 -0.02204
0.13113 0.02949 -0.03429
-0.00809 -0.00649 0.02007
0.00123 -0.02548 0.02545
0.16521 0.02891 -0.02676
-0.36772 -0.06718 0.05397
-0.28229 -0.00961 -0.06220
-0.08443 -0.04243 0.01119
0.02811 0.00049 0.01684
-0.10058 -0.01348 0.09046
-0.07074 -0.01461 -0.00455
0.04122 -0.00931 0.00761
0.25731 0.04242 -0.05419
-0.01602 -0.00205 0.01899
-0.00282 -0.03632 0.02078
-0.03053 -0.05440 -0.00202
0.09870 0.02530 -0.03279
0.17654 0.03056 -0.02651
0.12603 0.02046 -0.01792
-0.02238 -0.04202 0.03408
0.00047 -0.02477 0.02451
0.01071 -0.03766 0.01309
-0.00482 0.03948 -0.03860
0.00641 -0.02993 -0.00999
-0.02340 -0.02549 -0.00476
-0.15012 -0.05750 0.01278
0.01910 0.00247 0.01380
0.07427 0.01230 -0.00285
0.16822 0.03273 -0.03450
0.09440 0.02283 -0.02193
-0.23987 -0.03773 0.03076
-0.26772 -0.07542 0.04934
-0.01307 -0.05487 0.01856
-0.06226 -0.02464 -0.00814
-0.01087 -0.00414 0.02643
0.13137 0.01949 -0.02427
0.04515 0.00676 0.00327
0.07865 0.02234 -0.01580
0.06210 -0.00885 0.00660
-0.00735 -0.04129 -0.01068
0.19642 0.03319 -0.04364
-0.03075 -0.07913 0.00620
-0.02130 -0.00377 0.03382
0.09173 0.00318 -0.01610
0.09358 0.01265 -0.01180
-0.07307 0.02073 0.02240
-0.05571 -0.01517 0.01660
-0.01190 -0.05455 0.01719
0.08085 0.02082 -0.01741
0.00072 -0.03245 0.01641
-0.06441 -0.01411 0.03748
-0.03418 -0.05980 -0.00393
-0.07927 -0.01422 0.04476
-0.00282 -0.04943 0.01545
-0.10674 -0.04759 0.01045
-0.01370 -0.05027 -0.01198
0.03298 0.00228 0.02152
0.06377 0.01131 -0.00876
-0.04389 0.02838 -0.03325
-0.00048 -0.03594 0.02018
0.08238 0.02137 -0.01871
0.02494 0.00093 0.02217
0.11209 0.01811 -0.02985
-0.03164 -0.01132 -0.02199
-0.00087 -0.00483 0.03019
0.13101 0.03080 -0.03924
-0.83147 -0.13681 0.15842
-0.01304 -0.05733 0.01657
0.05920 -0.01543 -0.01115
0.16949 0.02878 -0.03440
-0.03274 -0.03689 -0.01710
-0.07558 -0.01045 -0.00880
0.24104 0.04159 -0.05898
0.02114 0.00449 -0.00013
-0.03403 -0.00991 0.00287
-0.12444 0.00883 0.05102
0.02212 -0.01856 0.01749
0.06696 0.02038 -0.00738
-0.01653 -0.05659 0.01441
0.08894 0.02437 -0.02375
-0.26519 -0.10549 0.11205
-0.01200 -0.03686 0.02870
-0.04734 -0.01304 0.02765
0.02452 0.03721 -0.02980
0.00824 -0.03305 0.00900
0.12038 0.01874 -0.01797
0.02732 -0.01893 0.00707
0.05567 0.00703 0.00718
-0.38678 -0.05253 0.03735
0.02022 -0.03597 0.00567
0.08251 0.01383 -0.00863
0.10754 0.01524 -0.01420
0.01054 -0.02174 -0.00266
0.10922 0.00724 -0.01754
-0.07200 0.01135 -0.01838
-0.05550 -0.02999 -0.00768
-0.05728 -0.00603 0.07115
-0.06009 -0.02819 0.03496
-0.04977 -0.02082 -0.01570
0.03260 -0.01260 0.01999
0.03711 0.00416 0.01755
-0.02989 -0.01789 -0.01575
0.03123 -0.00141 0.00825
-0.03749 -0.03879 -0.00845
-0.00164 -0.04156 -0.00734
-0.01517 -0.05050 0.01362
0.05145 0.03650 -0.05453
0.08025 0.02331 -0.01962
0.08065 -0.01113 0.00019
-0.01313 -0.05015 0.01453
-0.03945 -0.00445 0.02450
0.11175 0.01511 -0.01539
0.02041 0.02403 0.02877
0.00462 -0.03248 0.00769
-0.02842 -0.06222 -0.00349
-0.00639 -0.03524 0.00713
0.00419 -0.00591 0.01101
-0.07811 -0.00788 0.06467
-0.03429 -0.05751 -0.00361
-0.00692 -0.04071 0.02444
-0.05222 -0.00375 0.05358
-0.03279 -0.01335 -0.02084
-0.01719 -0.05230 0.02437
-0.06262 -0.08168 0.01835
-0.03017 -0.07198 0.00718
-0.01924 -0.07612 0.00378
0.02139 0.03276 -0.01630
0.02860 -0.02381 -0.00897
-0.14423 -0.05137 0.01622
0.01617 -0.02982 0.00594
-0.04487 -0.06089 0.03235
-0.01410 -0.06401 0.00548
-0.01380 -0.05171 0.02172
-0.02220 -0.06448 0.00445
-0.02902 -0.04899 0.00450
0.10417 0.02568 -0.05105
-0.01763 -0.04849 0.02567
0.00472 -0.03339 0.01091
-0.05262 -0.04037 0.02540
0.00625 -0.02067 0.02274
0.00554 -0.03316 0.00920
0.04640 -0.01099 0.00638
0.00530 -0.03245 0.01070
0.02735 -0.02265 0.00717
-0.02207 -0.06750 0.00054
-0.01548 -0.07353 0.00254
-0.02999 -0.00458 -0.01162
0.12952 0.00901 -0.01559
-0.00481 -0.04200 0.01508
0.06446 -0.00553 -0.00647
-0.03300 -0.08352 -0.00123
-0.02975 -0.08327 0.01042
0.01075 0.02708 -0.05257
-0.04812 0.01373 -0.05134
-0.01927 -0.03993 0.03291
-0.01046 -0.04533 0.02129
-0.01761 0.02728 -0.01040
0.00675 -0.06709 -0.00037
0.02668 -0.01558 0.01170
0.04825 0.01857 0.01187
0.08750 0.02615 -0.05032
0.01387 0.02732 -0.07234
0.10351 0.03672 -0.04943
0.19174 0.03762 -0.03663
0.01035 -0.04934 0.00418
-0.01453 -0.06144 0.00911
-0.10148 -0.05678 0.00262
0.04473 -0.02066 -0.00158
-0.02765 -0.05406 -0.00225
-0.01317 -0.03537 0.02911
-0.00684 -0.04730 -0.01086
-0.02178 -0.05879 -0.00639
-0.04699 -0.03557 0.00136
0.04637 -0.00852 0.00751
-0.03382 -0.05596 -0.00510
-0.02350 -0.06675 0.00069
-0.01517 -0.06335 0.00811
-0.04321 -0.01972 -0.01593
0.08513 0.00166 -0.01238
0.14129 0.03576 0.01501
0.00752 -0.03333 0.02164
-0.01219 0.02250 0.02568
-0.00285 -0.03100 0.01952
-0.09021 -0.05615 0.01521
-0.06620 0.01002 -0.05960
-0.01054 -0.05319 0.01618
0.01654 -0.01569 0.01625
-0.28337 -0.02776 0.09195
-0.05975 -0.04992 0.01884
-0.03118 -0.07427 0.00798
-0.03772 0.02760 -0.02461
0.05525 -0.00560 -0.00293
-0.05216 -0.06529 0.01105
-0.20519 -0.15378 0.03142
-0.01391 -0.01917 -0.01041
-0.01180 -0.05430 0.02070
-0.03303 -0.04637 -0.01182
0.11557 0.02547 0.00678
0.01719 -0.01730 -0.00254
-0.01080 -0.05774 0.01311
-0.00046 -0.03152 0.01597
0.00239 -0.04918 -0.00342
0.00448 -0.02018 0.01935
-0.02841 -0.02431 0.01377
0.01086 0.03063 -0.05812
-0.01711 -0.03096 -0.00247
0.04687 -0.01968 -0.00416
0.08525 -0.00001 0.00502
-0.01735 -0.04759 0.02465
0.17980 0.03290 -0.00436
-0.00160 -0.03137 -0.00142
-0.03085 -0.02928 0.03078
0.07787 0.00000 -0.00522
-0.00734 -0.04070 0.02046
-0.02965 -0.08259 0.00925
-0.02251 -0.07754 0.00905
0.00988 -0.03238 0.00716
-0.02211 -0.07812 0.00835
0.15930 0.03247 -0.03760
0.14023 0.02873 -0.01903
0.00656 -0.02990 0.00989
-0.13959 0.01159 -0.06712
-0.01147 -0.05470 0.01123
-0.03582 -0.04886 -0.00930
-0.03081 -0.04871 -0.00248
-0.10672 -0.06205 0.00177
-0.03303 -0.08317 0.01177
-0.02711 -0.07672 0.00810
-0.00209 -0.04854 -0.00657
-0.04100 -0.05753 0.00022
0.01211 -0.03956 -0.00255
-0.08763 -0.08653 0.02568
-0.06325 -0.06032 -0.01064
0.00362 -0.03205 0.00955
-0.02996 -0.06550 0.00970
-0.02154 -0.04908 0.02858
-0.04697 -0.07283 0.01563
0.01333 0.02894 -0.04383
-0.00779 -0.03402 0.02581
0.04252 -0.01793 0.00272
-0.42709 -0.01938 -0.07571
0.02476 -0.02287 0.00890
-0.02630 -0.08157 0.00751
-0.01120 -0.02467 0.03175
-0.01884 0.02657 0.02901
-0.03864 -0.03888 -0.01098
-0.01566 -0.03727 0.03119
-0.02226 -0.06583 0.01283
-0.04441 -0.05593 0.01245
-0.00988 -0.04840 0.01733
-0.03373 -0.08145 0.00781
0.09079 0.02472 -0.03194
-0.04355 -0.03591 0.02402
0.00910 0.03008 -0.06936
-0.02931 -0.00394 -0.01363
-0.02729 -0.04927 -0.01324
0.04278 -0.01631 0.00678
-0.07299 -0.09551 0.01526
0.23633 0.03995 -0.04805
0.00376 -0.02984 -0.01203
-0.05980 -0.00617 -0.01746
-0.19641 0.03301 -0.00691
0.11643 0.01710 -0.01526
0.02281 -0.02459 0.01252
0.00977 -0.02213 0.01272
-0.06457 -0.06369 -0.00394
-0.96762 -0.30450 0.16062
-0.02414 -0.05935 -0.00597
-0.21652 -0.01906 0.00045
-0.02141 -0.05907 -0.00254
0.23743 0.03864 -0.02523
-0.04039 -0.04327 -0.00580
-0.24486 -0.01492 0.06943
-0.18626 -0.13877 0.02864
-0.00122 -0.04093 0.01636
0.12304 0.01782 -0.01590
-0.16722 -0.06951 0.01555
0.03874 -0.01864 0.00399
0.12777 0.01829 -0.01332
-0.09680 0.01423 0.06381
-0.01132 -0.04973 0.01956
-0.03101 -0.08587 0.00825
-0.18741 -0.02538 0.06667
-0.03629 -0.04838 -0.00826
-0.02295 -0.02260 -0.00830
-0.03530 -0.01368 0.02454
-0.03423 -0.03342 -0.01845
-0.01350 -0.02259 -0.00267
-0.05572 -0.01126 -0.00973
-0.02733 -0.04214 0.00943
0.01246 0.01936 -0.06534
-0.03427 -0.05506 -0.00682
-0.00094 -0.03139 0.01518
-0.05111 -0.05436 -0.00595
-0.09355 0.00102 0.08496
-0.02023 0.02510 -0.02898
-0.01841 -0.07301 0.00108
-0.05024 -0.03693 -0.01215
-0.00541 -0.04452 0.01404
0.00785 -0.01717 0.01056
0.05589 -0.02688 -0.01135
-0.03805 -0.04852 0.00055
-0.04626 -0.05618 0.00154
0.07832 0.03330 -0.02641
-0.02583 -0.07243 0.00957
-0.03098 -0.01291 0.03510
0.02872 -0.03974 0.00494
-0.25213 -0.06575 0.02040
-0.52346 -0.02709 0.13829
-0.03778 -0.02185 -0.01826
-0.00833 -0.03792 0.01994
-0.02627 -0.04773 -0.00122
-0.01858 -0.02572 0.03723
-0.02421 -0.04138 -0.00420
-0.03095 -0.01606 -0.02142
-0.02189 -0.05903 0.00890
-0.02604 -0.05181 0.02902
-0.01866 0.02091 0.02563
-0.02693 -0.02370 -0.00074
0.16593 0.03748 -0.03351
0.08746 0.00984 0.00140
0.01213 0.01913 -0.07192
0.01836 -0.01396 0.00198
0.04058 0.01810 0.04605
-0.03719 -0.03225 -0.00141
-0.11773 -0.03348 0.03488
-0.16772 0.02496 0.08815
0.10943 0.00548 0.00294
-0.12697 -0.00995 -0.00144
-0.14693 -0.01809 0.10091
-0.01430 -0.03628 0.03066
-0.03496 -0.03239 -0.01753
-0.03945 0.01274 -0.05012
0.03415 0.00051 0.00881
-0.00526 -0.04868 0.01422
0.04010 -0.00946 0.00246
-0.01976 -0.03630 0.03430
-0.02107 -0.05684 0.01442
-0.06149 -0.05986 -0.00954
0.04726 -0.00537 -0.00706
-0.02413 -0.05396 0.02763
-0.09275 -0.00841 0.08299
-0.09620 0.00747 -0.04587
0.01271 0.03137 -0.05933
0.01291 -0.01464 0.00229
0.01042 0.01787 -0.06325
0.00424 -0.03290 0.01322
-0.05440 -0.03227 0.00314
0.08164 0.00203 -0.01594
-0.03198 0.02390 -0.02339
0.13522 0.01130 -0.02007
0.16649 0.03958 -0.03958
-0.02096 0.02694 -0.03880
-0.00206 -0.00420 0.00643
-0.01585 -0.02181 0.03882
0.09219 0.03944 -0.03460
-0.04233 -0.00957 -0.01714
0.00279 -0.02945 0.01001
-0.13227 0.00236 0.03779
-0.00657 -0.00888 0.03000
0.25403 0.03788 -0.02337
-0.09376 0.02103 -0.04789
0.02028 0.03405 -0.01683
0.02945 -0.01210 0.01588
0.12371 0.00886 -0.01924
0.07079 -0.01092 -0.00943
-0.07814 -0.00456 0.05984
0.07919 -0.00968 0.00205
0.25654 0.03893 -0.02343
0.17734 0.04018 -0.02682
-0.00360 -0.03319 0.01014
0.20893 0.03549 -0.00529
0.25148 0.03897 -0.02431
0.14048 0.04156 -0.03818
-0.04981 -0.03290 -0.01067
0.16316 0.01912 -0.00977
-0.12604 0.00706 0.04137
0.19318 0.02955 0.00556
0.04788 0.03418 -0.04422
-0.39845 -0.02087 0.17507
-0.03973 -0.02744 0.03037
0.07893 -0.00066 0.00785
-0.03433 -0.00663 0.00925
-0.04433 -0.03845 -0.01259
-0.09374 -0.01293 0.08301
-0.03491 -0.01065 0.00854
0.08535 0.00387 -0.00630
0.01017 0.03075 -0.06625
-0.06095 -0.01872 0.03737
0.01345 0.03548 -0.00378
0.09109 0.00313 0.00419
-0.05824 -0.00844 -0.01436
-0.00315 0.02157 0.02791
0.01725 0.01516 -0.02060
-0.01677 -0.02147 0.00991
-0.08679 -0.05549 0.00722
-0.03782 -0.05661 -0.00361
-0.00305 -0.02357 0.01934
-0.00540 -0.01850 0.01493
-0.02700 -0.06489 -0.00139
-0.03501 -0.03876 -0.01672
0.06487 -0.00587 -0.00231
0.07193 -0.02674 0.00268
-0.08758 -0.01276 0.08673
-0.03862 -0.01299 0.00075
-0.09843 -0.02010 0.00792
0.06686 0.02922 0.00228
-0.07413 -0.08067 0.01575
-0.00885 -0.00470 -0.00149
-0.03883 -0.04123 -0.01638
-0.12710 -0.05493 0.02263
-0.08985 -0.00648 0.06845
-0.00227 -0.02052 0.02652
0.19983 0.03756 -0.02637
0.14773 0.01465 -0.00162
0.19316 0.03249 -0.02435
-0.48145 -0.04869 0.15040
0.18970 0.03862 -0.02839
0.20369 0.03643 -0.02826
-0.01055 -0.02069 0.03414
-0.01810 -0.03564 0.03265
-0.02208 -0.05393 0.02686
-0.03138 -0.06735 0.01694
-0.02116 -0.05093 0.02643
-0.02374 -0.06801 0.00923
-0.06519 -0.04327 -0.00026
-0.04270 -0.02579 -0.01112
-0.00764 -0.04115 0.02285
-0.02362 -0.04824 0.02798
-0.02921 -0.06599 0.00904
-0.04262 -0.02440 -0.01946
-0.01924 -0.04330 0.03208
-0.12426 -0.06525 0.01770
-0.00365 -0.02711 0.02275
-0.09400 -0.00405 0.06566
-0.03072 -0.03728 -0.01348
-0.00358 0.03065 -0.04504
-0.09383 -0.00405 0.08239
-0.02153 0.02228 -0.03775
0.01033 0.02159 -0.06386
-0.10797 -0.00655 -0.01325
-0.02929 0.01481 -0.03010
0.05548 0.03470 -0.04874
-0.00835 -0.02114 0.03387
0.10498 0.03282 -0.04636
0.14054 0.04189 -0.04394
-0.02622 -0.02760 0.00910
-0.02259 0.01572 -0.04690
0.01443 0.02535 -0.06826
0.08735 0.03546 -0.04864
-0.04737 -0.03617 -0.01369
0.04569 0.03516 -0.04190
-0.03388 0.02047 -0.02627
-0.29458 -0.08861 0.03658
-0.02443 0.02587 -0.04281
0.03763 0.04007 -0.03917
0.04668 0.03658 -0.04179
-0.04078 -0.02507 -0.01220
-0.02346 0.02239 -0.04285
-0.09510 -0.00505 0.07264
-0.22221 0.01905 -0.05354
0.00349 0.02313 -0.06671
-0.03774 -0.04334 -0.01372
0.05679 0.02576 -0.05196
0.04716 0.03077 -0.04005
0.26003 0.03928 -0.02395
0.01401 0.02986 -0.05360
-0.09747 -0.02116 0.02026
0.01302 0.02264 -0.07081
0.08840 0.03559 -0.04796
0.25976 0.03930 -0.02391
-0.07188 -0.09401 0.01068
-0.03001 0.02702 -0.02694
-0.05066 -0.03722 -0.01116
-0.06075 -0.04887 0.00438
-0.00637 -0.03522 0.02440
-0.00472 -0.03383 0.02418
0.21652 0.03653 -0.03465
-0.01130 0.01790 0.05733
-0.03559 -0.06139 -0.00329
-0.04313 -0.02479 -0.01368
0.19209 0.03273 -0.02434
0.00736 0.02814 -0.04997
0.18344 0.03776 -0.03237
0.00745 0.02237 -0.05779
-0.03999 -0.01817 -0.01777
-0.04507 -0.02302 -0.01275
0.11606 -0.00062 -0.00977
0.00864 0.02773 -0.06843
0.00710 -0.01846 0.02146
-0.05814 -0.01204 0.07308
0.25984 0.03931 -0.02389
-0.03916 -0.02828 -0.01335
0.19645 0.03866 -0.03165
-0.02196 -0.03527 -0.00408
0.26028 0.03926 -0.02416
0.10956 0.03995 -0.04601
0.25510 0.03916 -0.02478
-0.03505 -0.06224 -0.00063
0.10410 0.03556 -0.04728
-0.21594 -0.09098 0.01580
-0.03198 -0.07772 0.00110
0.01048 0.02491 -0.05576
0.01160 0.01995 -0.06939
0.09038 0.02760 -0.05895
0.02208 -0.02550 0.00434
-0.05475 -0.00896 -0.00628
0.22315 0.03761 -0.03462
-0.05991 -0.03231 0.01795
-0.02600 -0.08352 0.00782
0.22319 0.03784 -0.03462
0.04843 0.03736 -0.04674
-0.20543 -0.07784 0.01898
-0.03865 -0.04520 -0.01125
0.21293 0.03348 -0.00270
-0.02118 0.02922 0.03101
-0.00283 0.01529 0.00675
0.04606 0.00593 0.00103
0.01327 -0.01574 0.00703
-0.03711 -0.03078 -0.01154
0.08642 0.02208 -0.01129
-0.00650 -0.02037 0.03424
-0.00143 0.00104 0.00569
0.06136 -0.03312 -0.00536
0.01396 0.02752 -0.07329
-0.03220 -0.03424 -0.01182
-0.08558 -0.08133 0.01170
-0.07104 -0.00063 0.05785
0.01197 0.02409 -0.05074
-0.03977 -0.03010 -0.00914
-0.05100 0.00995 -0.05828
-0.06443 -0.00078 0.06013
-0.01392 -0.02494 0.03327
0.17007 0.02447 0.00806
0.10335 0.03708 -0.04996
-0.02824 -0.01751 -0.01919
0.00422 -0.01903 0.01322
0.07539 0.03658 -0.05538
0.00954 -0.01924 -0.00831
0.04797 -0.01222 -0.00310
-0.09296 0.00600 0.08267
0.00628 0.03459 -0.04538
-0.01480 0.02187 -0.00852
-0.03850 -0.00637 0.03287
0.00916 0.03246 -0.05207
0.08591 0.04053 -0.04618
-0.02620 -0.02772 0.02542
-0.03876 -0.03264 -0.01600
-0.06541 -0.03835 0.01215
0.09860 0.01822 -0.01952
-0.03010 -0.00066 -0.00890
-0.02678 -0.06272 -0.00138
0.01754 0.00076 0.02662
-0.02340 -0.07779 0.00737
0.00640 0.02776 -0.06586
-0.08885 -0.00918 0.07629
-0.03930 -0.02276 -0.01118
0.00225 -0.04058 0.01008
-0.03057 -0.06457 0.00066
-0.00571 -0.03062 0.01770
0.23788 0.04004 -0.04721
0.00827 0.02325 -0.07356
-0.00784 -0.01957 0.03485
-0.02482 -0.04761 -0.00489
0.07396 0.02991 0.00225
-0.03294 -0.04574 -0.01094
0.01160 -0.02135 0.00698
-0.01847 -0.04742 -0.00176
-0.07427 -0.01203 0.02680
-0.05796 -0.00592 0.05279
-0.03698 -0.03345 -0.01528
0.19489 0.03211 -0.02306
0.16602 0.03760 -0.03448
-0.03700 -0.08305 0.00168
-0.08929 0.00572 0.07195
0.20795 0.03357 -0.00213
0.16796 0.03900 -0.02931
0.01137 0.03294 -0.05851
0.17169 0.03014 -0.02289
-0.00991 -0.02046 0.01437
0.02778 -0.03079 0.00449
0.07535 0.04198 -0.05343
-0.10187 -0.01191 0.06514
-0.00139 0.03660 -0.05141
-0.15294 0.01332 0.08984
0.05922 0.01581 -0.02779
-0.01078 -0.01809 0.03665
-0.02887 -0.06237 -0.00225
-0.00157 -0.05885 0.00283
-0.03375 -0.04797 -0.01130
0.03959 0.00562 0.00185
-0.03225 -0.01922 -0.02146
0.02199 -0.00001 0.02135
-0.00157 -0.03091 0.01181
-0.03423 -0.03291 -0.00684
0.08152 -0.01453 -0.00350
-0.12575 -0.02077 -0.00531
-0.01921 -0.05991 0.00668
0.01332 -0.01471 -0.00052
0.04076 -0.02402 0.00586
-0.00656 -0.03076 0.02381
0.08097 0.01723 -0.03078
0.00600 -0.01775 0.02403
-0.02701 -0.02908 -0.00529
0.01059 -0.01967 0.02476
0.25149 0.03823 -0.01335
0.01059 0.02450 -0.04671
-0.03479 -0.04308 -0.00751
-0.00102 -0.01197 0.03640
-0.00123 -0.03414 0.01973
0.06144 -0.01236 -0.01222
0.24370 0.03851 -0.02594
-0.12240 -0.01601 0.09252
-0.04386 -0.02634 -0.01005
-0.01624 -0.05573 0.02091
0.00517 -0.02236 0.02275
-0.00812 -0.05458 0.01172
-0.01398 -0.04207 0.02822
-0.01953 -0.02413 0.03541
0.13898 0.02688 0.01762
0.02407 0.01195 0.03421
-0.03242 -0.03862 -0.00897
-0.01156 -0.05291 0.01850
-0.04831 -0.02838 0.01661
0.25346 0.03895 -0.02505
-0.03672 -0.03116 0.02732
-0.03078 -0.03065 -0.01170
-0.52250 0.01366 0.02826
0.15431 0.02653 0.00682
-0.06304 -0.02088 0.02717
0.02058 -0.02062 0.00626
0.12992 0.03368 0.01211
0.03121 -0.01527 0.01119
0.13795 0.02344 0.01160
0.02398 0.01300 0.03433
0.00954 0.02761 -0.06643
0.23713 0.03816 -0.02647
0.12903 0.03100 0.01110
0.13503 0.02280 0.01187
-0.01938 -0.02006 0.04278
0.15251 0.02898 0.00932
0.20842 0.03681 -0.03586
-0.06616 0.00578 0.08296
-0.03360 -0.01462 -0.01175
0.15981 0.03137 -0.03770
0.01122 0.02438 -0.06346
-0.02967 0.02163 -0.02742
0.06532 -0.00634 -0.00389
0.20558 0.03457 0.00081
0.13576 0.02879 0.02236
-0.06058 0.01122 0.07002
0.16974 0.02930 0.01332
0.20623 0.03681 0.00182
0.13648 0.02645 0.01310
0.00959 -0.00397 0.06505
0.00714 0.02933 -0.04761
0.22009 0.03548 -0.00559
0.00548 0.02752 -0.06023
0.16219 0.03269 -0.03677
0.13381 0.02891 0.01229
-0.00316 -0.02512 0.02891
0.00578 0.02836 -0.06098
0.16104 0.03295 -0.03718
0.20402 0.03155 0.00197
-0.03535 0.01069 -0.02155
0.15788 0.03422 0.00499
-0.06259 0.00922 0.06727
0.16265 0.02963 0.01805
0.13987 0.02338 0.01333
0.25996 0.03937 -0.02394
0.13691 0.02493 0.01956
0.00203 0.02367 -0.04930
0.16307 0.02643 0.01774
-0.02774 -0.03758 0.03587
0.03974 0.01903 0.05124
-0.00735 -0.04588 0.01595
0.17701 0.03366 0.01010
-0.03050 -0.08375 -0.00200
-0.21955 0.01680 0.09805
0.07866 0.02969 -0.05840
0.16082 0.02642 0.01746
-0.04394 -0.04371 -0.01242
-0.02796 -0.01621 -0.00778
0.24274 0.03866 -0.02400
-0.02897 -0.05002 0.03043
0.12932 0.04096 -0.04288
-0.02248 0.03264 -0.02429
-0.02718 0.01799 -0.02497
0.13025 0.02719 0.01123
-0.18434 0.00754 -0.06447
-0.00177 0.02364 0.00913
-0.02643 0.02575 -0.02731
0.16738 0.03488 0.01075
0.00174 -0.00589 0.00664
0.15889 0.03370 -0.04082
0.09800 0.02344 -0.02238
0.17979 0.02890 0.00952
0.19404 0.04043 -0.03447
0.20294 0.03763 -0.03107
0.13536 0.02839 0.02298
0.25364 0.03888 -0.02510
0.10623 0.02767 0.03554
-0.07247 0.02429 -0.05596
0.10826 0.03575 -0.04911
-0.00696 -0.03502 0.02629
0.20470 0.02993 -0.00040
-0.03763 -0.02654 -0.01637
0.14285 0.03118 0.02688
0.20269 0.03050 0.00098
-0.02876 -0.08099 0.00764
0.22106 0.03742 -0.00482
-0.07128 0.00282 0.08405
0.14955 0.02580 0.01157
0.01055 0.01463 0.02146
-0.02533 0.03212 -0.02036
0.23765 0.03955 -0.01207
-0.05815 0.01776 0.06965
0.20617 0.03687 0.00090
0.17108 0.03819 -0.03454
0.22094 0.03683 -0.03553
0.20610 0.03639 0.00093
0.00620 0.02721 -0.04755
0.13206 0.03428 0.01393
0.25984 0.03934 -0.02387
0.22009 0.03648 -0.00511
-0.20757 -0.03722 0.12454
0.21873 0.03501 -0.00549
0.24763 0.03778 -0.01954
-0.05868 0.01809 0.07087
0.10652 0.02670 -0.04749
0.19616 0.02895 0.00473
-0.09535 -0.00705 0.08889
-0.00126 0.01903 -0.03400
0.02540 0.00754 0.03639
0.12842 0.03268 0.01207
-0.07754 0.02109 0.07848
0.23739 0.03949 -0.01164
0.20296 0.03114 0.00218
-0.03939 -0.02941 -0.01100
0.02736 0.01503 0.03471
0.21353 0.03184 -0.00159
0.17299 0.03949 -0.03771
0.11423 0.01764 0.02892
0.13031 0.02809 -0.03918
0.19830 0.03843 -0.03089
0.00691 0.02027 -0.04780
-0.02387 -0.06839 0.00209
0.10385 0.01608 0.03321
0.20570 0.03087 0.00129
-0.02274 -0.05702 0.02404
-0.01516 -0.04087 0.02996
0.20352 0.02991 0.00047
0.00107 0.02932 -0.05117
-0.01822 -0.06032 0.01805
0.10482 0.02650 0.03592
-0.05026 -0.07562 0.01330
0.19477 0.02993 0.00383
-0.01486 0.03070 -0.00924
-0.03614 -0.05987 -0.00998
0.09509 0.00394 0.00103
-0.03741 -0.05055 -0.00915
0.00643 -0.04087 0.01252
-0.03894 -0.01952 -0.01769
-0.04025 -0.02486 -0.01812
-0.01513 -0.02562 0.03695
0.05524 0.03488 -0.05476
0.19690 0.02996 0.00231
-0.04340 -0.08859 0.00878
0.17270 0.03839 -0.03305
0.16643 0.03407 0.01149
-0.60317 -0.02207 -0.08174
-0.03737 -0.03534 -0.00890
0.00625 0.02507 -0.05232
0.16029 0.03328 0.01696
0.20591 0.03163 0.00007
-0.03378 -0.05719 -0.00691
-0.01295 -0.05969 0.00634
0.17554 0.03095 0.01166
-0.04017 -0.03802 -0.01163
-0.00235 0.02213 -0.05142
-0.02313 -0.06868 0.00495
-0.04399 -0.02957 -0.00601
0.04739 0.01240 0.04676
-0.00029 0.03058 0.04825
0.23065 0.03481 -0.00956
0.13861 0.03418 0.03095
0.13038 0.03188 0.01079
-0.03833 -0.07032 0.01281
0.01062 -0.00602 0.06636
0.10766 0.03387 -0.04740
-0.12783 -0.00118 0.09147
0.15835 0.02855 0.01969
0.19851 0.03144 0.00156
-0.02424 -0.03693 -0.00324
-0.14659 0.02143 0.08229
-0.08429 -0.00746 0.09358
-0.03428 -0.00218 -0.01339
-0.03698 -0.04388 0.02555
-0.21017 -0.02924 0.01664
0.19423 0.03931 -0.02865
0.15472 0.03078 0.00509
0.08765 0.03682 -0.04616
0.15788 0.03618 0.01931
-0.02982 -0.00650 0.07312
-0.01902 -0.05565 0.02410
0.00153 -0.03342 0.01734
-0.01883 -0.06597 0.00824
-0.03047 -0.08619 -0.00004
-0.04167 -0.02382 -0.01539
-0.01387 -0.00905 0.07198
-0.02593 -0.02122 0.03694
0.20305 0.03084 0.00225
-0.02258 0.03165 -0.03144
0.20429 0.03817 -0.02829
-0.04114 -0.00152 0.00361
0.24589 0.03816 -0.02565
-0.05573 -0.07810 0.00918
-0.04453 -0.09032 0.00326
-0.04293 -0.07157 0.00931
-0.01002 0.02190 -0.05343
-0.05463 -0.06636 0.02458
-0.07051 0.01827 0.06676
-0.02540 -0.06984 0.00676
-0.03019 -0.07842 0.00416
0.15628 0.03569 0.01990
0.04695 0.03240 -0.06059
0.18223 0.03734 -0.02404
-0.01465 0.01645 -0.00917
-0.02795 0.01672 -0.03139
0.13934 0.02017 0.01832
-0.02741 -0.06826 -0.00224
-0.04185 -0.02237 -0.01012
-0.10251 -0.00545 0.08766
-0.02270 0.03194 -0.01484
0.03928 -0.00028 0.05759
-0.02462 -0.06910 0.01239
0.17188 0.02711 0.00198
0.01907 0.00299 0.02819
-0.00505 -0.04503 0.01227
-0.02991 -0.07364 0.00679
0.00358 -0.03091 0.00012
-0.30407 0.00153 -0.06520
0.19275 0.03011 0.00294
-0.02532 -0.04185 0.03520
-0.04644 -0.01046 0.07085
-0.03540 -0.03350 -0.01624
-0.05407 -0.08455 0.00812
-0.01547 -0.05585 0.00974
0.04001 -0.02204 0.00169
-0.03060 0.03242 -0.03159
-0.03184 -0.07257 0.00938
-0.03122 -0.03510 -0.00897
-0.03374 -0.04088 -0.01419
-0.09368 -0.07977 0.01000
0.18143 0.02182 -0.03273
-0.02492 -0.06948 0.00529
-0.02914 -0.06713 -0.00331
-0.02382 -0.07336 0.00577
0.18541 0.04050 -0.03175
0.07194 0.03306 0.00660
-0.02608 -0.06961 0.00388
0.04104 -0.03712 0.00736
0.18342 0.03487 0.00918
-0.06168 -0.08062 0.00639
0.13914 0.04042 -0.04517
-0.06200 -0.08463 0.01525
-0.03957 -0.06995 0.00571
0.16992 0.03862 -0.03536
0.00741 -0.02334 0.01770
-0.24028 -0.09907 0.04169
-0.04334 -0.08512 0.00654
0.16771 0.02575 0.00444
0.02945 0.00180 0.05890
0.00646 0.03149 -0.05269
0.19317 0.03648 -0.00038
-0.06687 -0.08112 0.01889
-0.13639 0.00852 -0.06690
0.10670 0.02841 0.03407
0.24515 0.03768 -0.01772
-0.01357 -0.02625 0.03730
-0.01351 -0.00493 0.06793
-0.04092 0.00568 0.05244
-0.00641 -0.05972 0.00367
-0.03708 -0.03270 -0.01517
0.13926 0.03620 -0.03143
0.04015 -0.02216 -0.00733
0.06930 -0.01601 -0.00019
-0.02871 -0.08273 -0.00114
-0.06633 -0.07195 0.00502
0.00137 -0.05076 0.00496
-0.04866 -0.06687 0.00197
0.11759 -0.00139 -0.00905
-0.03460 -0.07359 -0.00020
0.00363 0.01225 0.01071
-0.03306 -0.08864 0.00795
-0.01682 -0.06000 0.01173
-0.02852 -0.04238 0.00796
-0.02942 -0.06782 0.00541
0.11946 -0.00597 -0.01039
0.00326 0.00228 0.01580
0.24936 0.03825 -0.02093
-0.00273 0.00539 -0.01442
0.07807 -0.00928 -0.00973
-0.09997 -0.08725 0.01224
0.09136 -0.00790 0.00401
-0.07727 -0.09850 0.00361
0.13237 0.02816 0.01276
0.10089 0.01538 0.03614
0.15686 0.02443 0.00520
-0.04534 -0.09444 0.00172
-0.02468 0.02991 -0.02916
0.00156 -0.04042 0.00676
-0.01228 -0.05351 0.01764
-0.02055 -0.04196 0.03195
-0.03804 -0.04896 0.00722
0.10016 0.01536 0.03565
-0.02861 -0.05254 0.02855
-0.00566 -0.04456 0.02137
-0.03009 -0.06660 0.00379
-0.03925 0.02779 -0.01578
-0.04999 -0.00919 0.06803
0.02653 -0.04192 0.01148
0.17763 0.02643 0.00878
0.24283 0.03703 -0.01722
0.23093 0.03882 -0.01209
0.20631 0.03029 0.00084
0.13861 0.00257 -0.00520
-0.02462 0.01812 -0.03265
-0.07550 -0.07762 0.00768
-0.03070 -0.08670 0.00817
-0.38487 -0.12218 0.07746
0.22547 0.03479 -0.00724
-0.00932 -0.03992 0.01892
0.04934 -0.01623 -0.01022
-0.01351 0.01142 -0.01160
-0.02817 -0.04446 -0.00272
-0.00747 -0.04566 0.01721
0.20120 0.03017 0.00067
0.22764 0.03943 -0.00978
0.22565 0.03482 -0.00756
-0.01800 -0.03107 -0.01697
0.05840 -0.03047 -0.00848
0.20761 0.03524 -0.03353
-0.04125 -0.01646 -0.01983
0.08441 0.03522 -0.01294
-0.02244 -0.06121 0.01800
0.20307 0.03047 0.00268
0.01089 -0.03045 0.00727
-0.03091 -0.00600 -0.01238
-0.02920 -0.04081 0.01172
0.13223 0.03216 0.00936
0.25374 0.03871 -0.02504
0.05565 0.02996 -0.01340
-0.02507 -0.06432 0.01154
0.14106 0.02504 0.01318
0.26054 0.04028 -0.02182
-0.04310 -0.07797 0.00078
0.25361 0.03885 -0.02514
-0.00414 -0.06282 0.00213
-0.02676 -0.06715 -0.00120
-0.02015 -0.05565 0.00448
0.02910 -0.02495 0.00220
-0.03104 -0.08470 0.00992
0.01023 -0.01476 -0.00007
-0.05845 -0.07468 0.00358
0.02919 0.02100 0.03788
-0.00060 -0.04253 0.01187
0.00089 -0.04443 0.01064
-0.05616 -0.01353 0.07551
0.10218 -0.01241 -0.01573
-0.03436 -0.06629 0.01662
0.12210 -0.00350 -0.01096
-0.04440 -0.07845 0.00503
0.13068 0.00032 -0.00293
-0.10094 -0.08887 0.01948
0.01709 -0.03900 0.00556
0.03244 -0.01670 -0.00234
0.25656 0.03893 -0.02342
0.20114 0.03848 -0.03045
0.14229 0.02175 0.01336
0.13192 0.03131 0.00972
0.21198 0.03727 -0.00102
-0.07640 -0.05767 0.03715
0.01931 0.01146 0.02707
-0.07760 -0.09781 0.00959
0.08981 0.03978 -0.04812
-0.07283 -0.07461 0.01732
0.13752 0.02839 0.01492
0.06588 -0.01316 -0.01349
0.19194 0.03382 0.00215
0.08141 0.03482 -0.01149
0.14016 0.03024 0.01392
-0.02889 -0.08835 0.00238
0.02023 0.02870 0.03138
-0.02907 -0.04546 -0.00271
-0.03444 0.02145 -0.02188
0.20043 0.03368 -0.00344
0.12580 0.02699 0.01025
-0.02431 -0.06760 -0.00168
-0.04466 -0.06497 0.02873
-0.02134 -0.05532 0.00088
0.02489 0.01299 0.03509
0.05442 0.03001 -0.00993
0.13314 0.02283 0.01669
0.02403 0.01429 0.03248
-0.06337 -0.03871 0.00549
0.18734 0.02949 0.00792
-0.04212 -0.08048 0.00321
-0.04141 -0.06744 0.01901
0.01121 -0.02775 -0.00054
0.05627 0.03160 -0.01284
-0.02068 -0.08319 0.00322
0.14718 0.03092 0.01729
0.01856 -0.01440 0.00680
-0.08042 -0.05390 0.03324
0.12797 0.02245 0.00892
-0.04881 -0.00911 0.06140
-0.05068 -0.05069 0.00897
0.03548 -0.03552 -0.00659
-0.02389 -0.06306 -0.00448
-0.03098 -0.04156 -0.01227
0.08557 -0.00863 -0.00280
-0.02318 -0.02995 0.03128
-0.02331 0.01102 0.05527
-0.11167 -0.07707 0.01533
0.21326 0.03679 -0.00634
0.06800 -0.01715 -0.00007
0.02891 0.03118 0.03991
-0.01430 -0.07233 0.00452
0.13877 0.04103 -0.04561
0.25327 0.03872 -0.02513
-0.11977 -0.07816 0.01665
-0.03861 -0.00389 -0.01367
-0.01990 -0.03551 0.01327
-0.04101 -0.08144 0.00296
0.19507 0.03777 -0.03144
0.01800 0.01173 0.02606
-0.03167 -0.08968 0.00399
0.25112 0.03863 -0.02513
-0.03092 0.03120 0.03191
0.21756 0.03572 -0.00718
-0.16819 -0.07869 0.01917
-0.02518 -0.05550 0.00113
-0.04422 -0.07049 0.00645
0.23199 0.03794 -0.02966
-0.01460 0.01356 -0.01181
-0.00019 -0.03833 0.01231
0.16371 0.01251 -0.01664
-0.03126 0.02481 -0.02467
-0.03145 -0.03246 0.00460
0.24377 0.03792 -0.02536
0.04433 -0.02478 -0.00732
0.01237 -0.01541 0.02926
0.10801 0.00242 -0.01348
0.01071 0.02375 -0.06769
0.05152 -0.01715 0.00090
0.14553 0.03478 -0.02603
0.02523 -0.01552 0.01023
-0.03051 -0.02869 0.01965
-0.00157 0.01520 0.00864
-0.00319 -0.03157 0.02840
-0.01536 0.02796 -0.01814
-0.17727 -0.07520 0.01981
-0.05666 -0.06237 0.00003
0.21911 0.03594 -0.00804
-0.04041 -0.10530 0.00471
0.04958 0.03320 -0.06284
0.21283 0.03627 -0.03564
-0.00929 -0.02820 0.01573
0.07907 -0.00517 0.00428
-0.03652 0.02548 -0.02143
-0.23972 -0.00421 0.06484
0.01044 -0.01625 0.00663
-0.02756 -0.03774 -0.01042
0.07755 -0.00531 -0.00855
0.01602 0.03346 -0.01091
-0.02124 0.02989 -0.01637
-0.04740 -0.03284 0.00795
-0.21734 -0.06865 0.03905
0.01457 -0.02122 0.01294
0.13726 0.02173 0.01206
-0.13954 -0.01323 0.09668
0.06763 0.01040 0.04286
0.03018 0.02598 0.01415
0.12740 0.03024 0.01170
0.15210 0.02947 0.00947
0.04008 -0.01330 -0.01181
-0.02296 0.02406 -0.01901
-0.01144 -0.03421 0.02943
-0.06177 -0.03716 0.02539
0.00969 0.02875 -0.06969
0.11673 0.00591 -0.01914
-0.20659 -0.08293 0.01962
0.02281 0.01620 0.03654
0.08123 -0.00644 0.00676
-0.02465 -0.06675 0.01308
0.25984 0.03934 -0.02387
0.01957 0.01295 0.02587
-0.03287 -0.06999 0.00781
0.01912 0.01063 0.02915
0.18011 0.02885 0.00118
-0.01921 0.01965 -0.02499
0.09693 -0.00089 0.00124
0.02831 -0.02116 0.00862
0.15579 0.02583 0.00526
0.13022 0.02847 -0.02386
0.20804 0.03265 0.00175
0.01300 -0.02023 0.01218
0.01266 -0.02710 0.01821
0.10865 0.00645 -0.00333
0.00909 -0.01834 -0.00199
-0.02811 -0.02765 0.00256
0.10852 -0.00113 -0.00590
0.02079 -0.01574 -0.00019
-0.05252 -0.10069 0.00688
0.01145 -0.03040 -0.00374
0.02538 -0.01660 0.01141
-0.08263 -0.04627 -0.00960
0.07295 -0.01841 -0.00342
0.22021 0.03528 -0.00440
0.08333 -0.00602 -0.00194
-0.03689 -0.03879 0.02240
0.22062 0.03755 -0.00981
0.07985 0.03077 -0.00601
0.00584 -0.01849 -0.00022
-0.04629 -0.01915 -0.01774
0.04605 -0.01304 0.00392
0.00250 -0.00755 0.07120
0.00457 -0.04985 0.00543
0.12521 0.03112 0.00949
-0.01476 -0.04591 0.02476
-0.00062 0.00078 0.00659
0.20652 0.03634 0.00163
-0.08529 -0.00017 -0.04981
0.17165 0.03379 0.01059
0.25987 0.03998 -0.02195
0.22714 0.03897 -0.00800
0.22524 0.03812 -0.00756
0.00265 -0.00655 0.07266
-0.05195 0.00398 -0.05626
-0.07250 -0.01752 0.09287
0.13218 0.03263 0.03368
0.20052 0.02964 0.00349
0.24011 0.03939 -0.01370
-0.00195 -0.02381 0.02858
-0.13148 -0.01051 0.10814
0.17366 0.03268 0.01054
-0.02793 0.00859 -0.05253
0.00654 0.03090 -0.05160
-0.03975 -0.04291 -0.01501
0.20591 0.03536 0.00189
-0.04951 0.00236 -0.05304
-0.00325 -0.00378 0.06587
-0.02101 0.00868 -0.05151
-0.05969 -0.05391 0.00778
-0.02055 0.01680 -0.05106
0.23197 0.03559 -0.01350
-0.06030 -0.01195 0.07099
-0.02698 -0.08360 0.00229
-0.07319 -0.09531 0.00410
-0.05207 0.00291 -0.05623
-0.15593 -0.03087 0.08910
0.16229 0.02610 0.01493
-0.04628 -0.07434 0.01066
0.19498 0.03045 0.00168
-0.03734 -0.04949 -0.00228
-0.04359 -0.05431 0.02527
0.17880 0.03772 0.01135
-0.04366 -0.10939 0.00171
0.25974 0.03926 -0.02391
0.00982 -0.00134 0.05266
-0.08461 -0.08082 0.00780
-0.15859 -0.10506 0.00997
0.19845 0.03502 0.00000
-0.04910 -0.11225 0.00420
0.22823 0.03594 -0.01031
0.06335 -0.02800 -0.00317
-0.03862 0.01977 -0.01918
-0.04351 -0.09854 0.00200
-0.03049 -0.07449 0.00061
-0.04123 -0.11081 0.00223
0.22174 0.03541 -0.00574
0.17664 0.02522 0.01084
0.04335 -0.02344 -0.00474
-0.07259 -0.05952 0.01671
-0.04099 -0.08018 0.00101
-0.04666 -0.10799 0.00149
0.05864 -0.03251 -0.00161
-0.03931 -0.10277 0.00080
0.10620 0.02664 0.03406
-0.03468 -0.05098 -0.00655
0.06242 -0.02391 -0.00816
0.15475 0.02125 0.01004
-0.04038 -0.10137 0.00157
-0.04307 -0.10310 0.00501
-0.19686 0.00110 0.06810
0.05016 -0.01001 0.01213
-0.06381 -0.10019 0.00427
0.11206 0.01596 0.01888
0.02594 0.00092 0.00906
0.06722 -0.01230 -0.00149
-0.02328 -0.03214 -0.00732
0.00185 0.02271 0.01395
-0.05428 -0.10369 0.00678
0.02887 -0.02155 0.01568
0.02388 -0.01676 0.01581
0.02609 -0.01549 0.00705
0.00313 -0.02408 0.02330
0.14268 0.02877 -0.02210
-0.03131 -0.07642 0.00304
0.16078 0.02388 0.00654
-0.01497 -0.04177 0.03011
0.25655 0.03892 -0.02340
-0.02331 0.01287 -0.03708
-0.01165 -0.06670 0.00140
0.03907 0.00452 0.00892
-0.04232 -0.01162 0.00654
0.01994 0.02309 0.02683
-0.06551 -0.03251 -0.00478
0.05600 -0.01738 -0.00944
0.00479 -0.02118 0.01939
0.07635 0.02007 0.01056
0.05289 0.02546 -0.01091
-0.13236 0.01829 -0.04122
-0.00729 -0.03915 0.02553
0.11217 0.03214 -0.01178
-0.07525 -0.04862 0.00080
0.15015 0.04143 -0.03965
-0.05381 -0.07639 0.00807
0.19059 0.03725 -0.02572
-0.00082 -0.01694 0.02953
-0.01830 0.02441 -0.01319
0.00315 -0.03510 0.01234
0.24443 0.03767 -0.01745
0.10000 0.02937 -0.03404
0.02053 -0.01645 0.00502
0.01384 0.02300 -0.07327
0.15758 0.03536 0.01938
-0.31676 0.02206 0.00505
0.00293 0.01926 0.01461
0.00892 0.01901 0.01621
-0.02322 -0.06483 0.00059
0.20557 0.03088 0.00107
0.08174 0.04048 -0.03922
-0.03580 -0.04072 -0.00917
-0.00430 -0.03303 0.02270
0.01129 0.02229 -0.05471
0.12143 0.01689 0.02498
0.16737 0.03934 -0.03110
-0.02792 -0.01081 0.01798
-0.06237 -0.00061 -0.01480
0.03507 0.00197 0.00386
0.00087 0.01810 -0.02977
0.01285 0.02076 -0.04879
-0.02328 0.01922 -0.02321
-0.13139 0.03052 -0.03942
-0.06965 -0.04103 0.00093
0.08736 0.03562 -0.04630
-0.58902 -0.02482 0.11343
0.06382 -0.01673 0.00173
0.00646 -0.01767 0.01412
-0.02441 -0.01948 -0.00875
-0.01797 -0.02694 0.03689
-0.01556 0.01495 -0.01461
-0.07801 -0.08119 0.02721
0.01047 -0.03268 0.00535
-0.01757 0.02555 -0.00793
0.08742 0.01012 0.00137
0.02199 0.01646 0.03043
-0.02854 0.03338 -0.02713
-0.02410 0.02527 -0.01757
-0.04627 -0.03283 0.00065
-0.04188 -0.02790 -0.01302
-0.03465 -0.03082 -0.01714
0.25973 0.03931 -0.02388
-0.00032 0.01437 0.03129
0.05320 0.03077 0.00986
0.06298 0.00076 -0.01636
-0.04747 -0.07161 0.02097
0.03386 -0.01093 -0.01180
0.16792 0.02591 -0.02059
-0.04842 -0.05754 -0.00838
0.08286 -0.00132 -0.00885
-0.00961 0.01966 0.01908
-0.04242 -0.05700 -0.00610
0.11241 0.02477 -0.01182
-0.01608 0.02772 -0.00085
-0.19349 0.00726 0.06782
0.08775 0.02808 -0.04987
0.14042 0.03656 0.00769
0.06466 0.01085 -0.00095
0.06238 0.02191 -0.04991
0.13071 0.03514 0.01021
0.13462 0.02966 -0.05871
-0.01441 -0.03500 0.00046
-0.03236 0.01738 -0.02564
0.01025 0.02144 0.02289
-0.30439 -0.08995 0.04634
0.14045 0.04033 -0.04642
-0.02359 -0.06748 -0.00009
-0.02208 0.00637 0.05292
-0.01910 -0.01466 -0.01977
0.08153 0.00822 0.00201
0.01769 0.01182 0.02482
-0.42014 -0.06366 0.09267
-0.02585 -0.00462 -0.00842
-0.02064 0.02408 -0.01619
0.01883 0.01590 0.02974
-0.01083 -0.03787 0.02936
0.16936 0.02639 0.00183
-0.06341 0.01113 -0.06766
0.02036 0.01034 0.02756
-0.00824 -0.05534 0.00949
-0.11388 0.02202 0.07689
-0.03118 -0.04491 -0.00446
-0.19624 0.00428 0.03964
0.09547 0.01144 0.00090
-0.01667 0.00995 -0.01767
-0.00961 -0.03366 -0.01789
0.03624 0.03870 -0.03949
-0.01528 0.02206 -0.00759
0.18820 0.03999 -0.00099
0.21312 0.03576 -0.00990
0.17531 0.03995 -0.03615
0.25797 0.03914 -0.02421
0.00787 -0.01583 0.01960
-0.04689 -0.07177 0.00078
-0.02412 0.01288 -0.02180
-0.02957 -0.00883 -0.00646
0.13956 0.04000 -0.04620
-0.05418 -0.03256 -0.01468
0.16178 0.03285 -0.00360
0.13727 0.03603 -0.01336
0.00084 -0.02587 0.01630
0.11305 0.02802 -0.01067
-0.07416 0.01787 0.06931
0.00244 -0.01673 0.00023
-0.04898 -0.07786 0.00449
-0.04506 -0.01213 0.01839
-0.01952 -0.03981 0.03472
0.22819 0.03698 -0.01411
-0.01561 -0.05354 0.02294
-0.02242 0.02781 -0.03484
-0.02329 -0.06910 0.00912
-0.03534 -0.02194 -0.01695
-0.21896 0.01246 0.09717
-0.05682 0.01503 -0.05332
0.21633 0.03541 -0.00758
-0.02600 -0.00951 0.07410
0.25999 0.03928 -0.02397
0.18207 0.03859 -0.02450
0.14082 0.02543 0.01191
0.07776 0.01801 0.03120
0.13984 0.02194 0.01319
0.26000 0.03938 -0.02397
0.13216 0.02965 0.01114
0.25970 0.03931 -0.02380
-0.04566 0.02491 -0.03314
0.18208 0.03638 -0.02409
0.18234 0.03899 -0.02310
-0.02786 -0.06190 -0.00060
0.14114 0.03916 -0.04364
0.15619 0.02422 0.00632
0.02473 0.00648 0.03698
-0.01715 0.02700 -0.01239
0.12382 0.03104 0.00907
-0.02569 -0.02665 -0.00455
-0.02974 0.01808 -0.02976
0.04981 0.02448 -0.02931
0.22082 0.03792 -0.00747
0.20212 0.03833 -0.03206
-0.03027 0.02704 -0.02202
0.19027 0.03285 -0.02605
-0.02294 0.02450 0.05859
0.12930 0.03351 0.01522
0.13158 0.03083 0.01263
-0.00885 -0.05666 0.01078
0.20095 0.03558 -0.00610
-0.04228 -0.06017 -0.01057
-0.01849 0.02870 -0.01589
-0.02343 0.01208 -0.01973
-0.00070 0.02766 -0.01906
-0.03374 0.02175 -0.02482
-0.03095 -0.07414 0.00549
-0.00557 0.01095 -0.00208
0.25994 0.03928 -0.02391
-0.11588 0.01141 0.05406
0.00130 -0.02931 0.01645
0.06344 0.03209 0.00100
0.23806 0.03805 -0.02527
-0.00742 0.01136 0.03347
0.08538 -0.00890 -0.00666
0.20444 0.03543 -0.00552
-0.01719 0.01660 -0.01435
0.20708 0.03662 -0.04205
0.16355 0.02905 -0.02069
0.17016 0.03035 0.01328
0.14598 0.03436 -0.02016
-0.02243 0.02695 -0.04020
-0.00122 -0.03395 0.02914
-0.01948 -0.00539 0.01386
-0.01847 0.02548 -0.01305
-0.35501 -0.00565 0.12355
-0.03295 -0.04018 -0.01559
-0.03005 -0.00098 -0.02001
-0.82367 -0.22700 0.14932
-0.17890 0.02139 0.09115
-0.02018 0.02894 -0.01329
0.22120 0.03718 -0.01285
0.11333 0.02958 0.01246
0.12579 0.03215 0.01163
0.23939 0.03742 -0.01463
-0.01393 -0.04915 -0.01241
0.16447 0.03403 -0.00546
0.02904 0.01151 0.04101
0.03273 -0.02319 0.00876
0.07491 -0.01972 -0.00371
-0.03631 -0.05251 -0.00703
0.00382 -0.04741 0.01611
0.05471 -0.01027 0.00257
0.11522 0.03115 0.00693
-0.03953 -0.03108 -0.00698
0.21809 0.03574 -0.01328
-0.01376 0.01356 -0.01327
-0.04823 -0.00866 0.04848
-0.02537 -0.02456 -0.00932
0.07921 -0.01604 -0.00024
0.24951 0.03860 -0.02521
0.19312 0.03148 0.00556
0.12306 0.02889 0.00932
0.05455 0.03467 -0.01240
-0.01550 0.02577 -0.01191
-0.03952 0.03123 -0.02458
0.18990 0.03306 -0.02620
-0.02293 -0.06771 0.01033
0.06830 0.03090 0.00139
-0.02281 0.02867 -0.01178
-0.06561 0.01849 0.05801
-0.03546 -0.06332 0.00840
0.05821 0.03086 0.01125
0.07620 0.02936 -0.03753
0.13128 0.03089 0.01146
-0.02614 0.01469 -0.02393
-0.06223 -0.07808 0.00133
0.07555 0.02884 -0.03788
0.00838 0.02878 -0.05371
0.03457 0.00167 0.01169
-0.01555 -0.02683 0.00846
0.03212 0.00409 0.00885
-0.03226 -0.00979 0.07352
-0.03618 0.01528 -0.05548
-0.02006 -0.01928 0.03864
-0.04137 0.02906 -0.01016
0.06914 -0.01844 0.00695
-0.06753 -0.08360 0.00926
-0.01440 0.00029 0.01467
0.07678 0.02635 -0.03699
0.07828 0.02588 -0.03642
-0.02780 -0.08223 0.00322
-0.01502 -0.02766 0.01173
0.07682 0.02839 -0.03941
-0.01589 0.02783 -0.01430
-0.03804 -0.04053 -0.00455
-0.07507 -0.09713 0.01099
-0.00021 0.01762 -0.03198
0.02136 -0.01749 0.00477
0.10383 0.01634 -0.01393
-0.28370 -0.03929 0.00820
-0.03479 -0.05521 0.02588
-0.02643 -0.00920 0.07265
0.12927 0.01924 0.01978
-0.01868 0.02173 -0.03756
0.03214 -0.02343 -0.00387
-0.03716 -0.00468 -0.01437
-0.00559 0.01132 -0.03264
0.17119 0.03412 -0.04024
-0.03156 -0.01080 0.07301
0.08671 0.02482 -0.04981
-0.01150 0.00386 0.04640
0.15920 0.03652 -0.03798
0.00124 -0.03264 0.01535
0.08561 -0.00376 0.00470
-0.07705 0.02520 0.02020
0.23595 0.03692 -0.01285
-0.02924 -0.02471 -0.01034
-0.01748 -0.03779 0.03306
0.23056 0.03692 -0.00815
0.04588 0.00690 0.01454
0.01902 0.00243 -0.00147
0.07257 -0.00214 0.00019
-0.00164 -0.03615 0.02175
0.01454 0.03054 -0.05422
0.17427 0.03733 -0.03962
-0.00207 0.01226 -0.03053
-0.01269 -0.05596 0.01303
-0.03839 0.02682 -0.01651
0.00375 0.01144 -0.03089
0.04032 -0.02113 -0.00664
0.16791 0.03291 -0.03975
-0.01409 -0.06056 0.00837
-0.01724 -0.07742 0.00425
-0.04099 -0.03083 -0.01093
0.17319 0.03424 -0.03923
0.01258 -0.03534 0.01336
-0.01072 -0.00795 0.03391
0.03519 0.00572 0.00157
-0.04447 -0.07516 0.00843
-0.01964 0.02422 -0.03483
-0.02760 -0.03572 -0.00710
0.15930 0.03667 -0.03852
0.02682 0.01414 -0.02506
0.24218 0.03783 -0.02598
-0.02357 -0.06421 -0.00072
-0.04055 -0.03274 -0.00269
-0.13212 0.03235 -0.03127
0.01070 0.01774 -0.03398
0.01654 -0.01683 0.00180
0.04749 0.02266 -0.03060
0.16667 0.03260 -0.03988
-0.03664 -0.04192 0.02810
-0.03089 -0.02232 -0.01834
-0.01982 -0.04748 0.02740
0.07831 -0.00295 -0.01070
0.24693 0.03606 -0.02289
-0.02630 -0.01172 0.07322
-0.09506 -0.01480 0.02089
-0.02586 0.01493 -0.02518
0.00047 -0.05796 0.00004
0.02917 -0.03532 0.00852
0.01505 -0.01682 -0.00002
-0.13995 -0.02354 0.00423
0.02053 -0.00308 0.02297
-0.00493 0.01684 -0.02436
-0.10526 0.03039 0.00276
0.00793 0.02083 -0.05379
-0.13798 -0.04722 0.00423
-0.08649 -0.05511 0.02619
-0.00631 -0.02743 0.02526
-0.00706 -0.00278 0.00961
-0.03976 -0.00474 -0.00625
0.06214 0.02177 -0.04896
0.05071 0.00998 0.02961
-0.00039 0.01816 -0.03085
0.00235 -0.03328 0.01053
-0.06936 0.00346 0.08057
0.25233 0.03849 -0.02132
-0.01390 -0.04728 0.02300
-0.07009 -0.00341 0.01518
0.07115 0.03203 -0.03843
0.04821 0.01192 -0.02236
0.00664 0.02002 -0.06088
0.01356 0.02476 -0.07302
-0.01264 0.01989 0.02593
-0.00575 0.01863 -0.03151
-0.00504 -0.01833 -0.01656
0.06928 -0.00675 -0.00341
0.03621 0.00502 0.00816
-0.00834 -0.05944 0.00581
0.07736 0.02630 -0.03585
-0.15938 -0.03065 0.06080
0.18250 0.03925 -0.02737
-0.10155 -0.00891 0.08032
-0.04095 -0.02762 -0.01005
-0.00869 0.01869 -0.05333
0.21104 0.03451 -0.03590
0.20092 0.03480 -0.02141
0.00124 -0.05556 0.00174
0.00344 -0.05467 -0.00454
-0.02800 -0.03704 -0.00697
-0.00058 0.01524 -0.03420
0.25996 0.03931 -0.02396
-0.00298 0.01398 -0.03114
-0.09916 -0.01158 0.07626
-0.00464 0.00070 0.00641
-0.03012 -0.04458 0.03167
0.08411 0.02118 -0.01962
0.03285 0.01917 -0.03434
0.02812 0.01135 0.03288
-0.02410 0.02504 -0.03722
-0.00761 -0.03722 0.03025
-0.03121 -0.08619 0.01001
0.10545 0.01428 -0.01154
0.09832 0.00338 -0.00976
0.07064 0.03031 -0.03807
0.00776 0.02910 -0.06623
-0.00696 -0.02043 0.03157
0.14181 0.02284 0.01177
0.01681 0.02808 -0.02164
0.05154 -0.01247 -0.00115
-0.00086 -0.04301 -0.00430
0.07852 0.03038 -0.03906
0.00520 0.02211 -0.05542
0.04588 0.00470 -0.00903
-0.00649 -0.03365 0.00423
0.01385 -0.04827 -0.00235
0.10853 0.02688 -0.03555
-0.00829 -0.05452 0.00879
-0.05069 -0.04258 -0.01134
-0.04189 -0.01200 0.02450
-0.00193 -0.05651 0.00167
-0.03646 -0.01574 -0.01963
0.03899 0.01290 0.04353
-0.07556 -0.04853 -0.00284
-0.00745 -0.05320 0.01317
0.07453 0.01223 -0.02329
-0.09401 -0.00559 0.02399
0.03013 0.01814 -0.03186
-0.00248 -0.06519 -0.00063
-0.00267 0.02063 -0.03007
0.12224 0.02960 0.00956
-0.01935 0.01816 0.05466
0.01481 0.01925 -0.03469
0.01334 0.01849 -0.03129
0.10197 0.01080 0.00128
-0.03272 -0.01065 0.02737
0.00174 -0.02437 0.02470
-0.03284 -0.04474 0.02381
-0.00364 -0.05286 0.00960
-0.00400 0.03430 -0.04194
-0.07185 -0.01358 0.04012
-0.01257 -0.06188 0.00192
0.03948 0.00350 0.00936
-0.03294 -0.08635 0.00504
0.14652 0.02955 -0.03653
-0.02731 -0.03977 -0.00511
0.25649 0.03892 -0.02337
0.09774 0.03172 -0.04345
0.03739 0.00811 0.01866
0.20255 0.03630 -0.03996
0.07367 0.02764 -0.03742
0.21237 0.03771 -0.04001
-0.10784 -0.02644 0.04204
-0.03064 -0.02290 0.04272
-0.08295 -0.01931 0.09300
0.25652 0.03892 -0.02338
0.02286 0.00048 -0.00026
-0.03321 -0.06853 0.00196
-0.02741 -0.03569 0.03760
0.25652 0.03892 -0.02338
-0.02379 -0.01794 0.04197
-0.03325 -0.04081 -0.01642
-0.10597 -0.08836 0.01308
-0.08065 -0.03439 0.05125
0.00608 -0.02997 0.01917
-0.01437 -0.04958 0.01581
0.02763 -0.03540 -0.00557
-0.01965 0.02870 -0.01084
-0.02515 -0.04238 0.02972
-0.01071 -0.04783 0.01912
-0.06035 0.00173 0.01150
0.00642 -0.00448 0.00292
0.00563 -0.01732 0.00375
0.00411 0.01926 -0.04081
0.01378 -0.03131 0.01065
0.25651 0.03892 -0.02338
-0.00984 -0.03028 0.02025
-0.04737 -0.00814 0.07681
-0.00709 -0.05645 -0.00680
-0.00922 -0.05260 0.01513
-0.04752 -0.04184 -0.00841
-0.12984 0.01584 -0.03261
-0.01511 -0.03583 -0.00156
-0.02714 -0.00660 0.07428
-0.04210 -0.06494 0.02703
0.03713 0.00133 0.00524
0.05048 0.01969 -0.04761
0.25639 0.03891 -0.02334
0.15426 0.03304 -0.03930
-0.15714 0.00294 -0.06684
-0.03614 -0.02488 0.02108
-0.00628 0.01903 -0.03317
0.25637 0.03890 -0.02333
-0.00970 -0.03572 0.02776
-0.04653 -0.03625 0.00095
0.25220 0.03876 -0.02155
-0.04614 -0.07620 0.00919
-0.08935 -0.03752 -0.00437
-0.03108 -0.05800 0.02876
-0.01453 -0.05348 0.02123
-0.08016 -0.01345 0.04451
0.25639 0.03892 -0.02334
-0.03324 -0.07304 0.01267
-0.00660 0.01187 -0.01175
-0.02924 -0.02314 -0.01282
-0.03722 -0.00924 -0.01877
-0.04636 -0.02194 -0.01570
0.00105 -0.01847 0.02812
-0.03804 0.01906 -0.01420
-0.02639 -0.03787 -0.00935
-0.10756 -0.05008 0.01924
0.25651 0.03892 -0.02338
-0.03069 -0.06795 0.01474
-0.03541 -0.03936 -0.01155
0.12009 0.02724 -0.03003
0.00374 -0.02144 0.02064
0.02843 -0.01505 0.01034
0.00466 -0.00271 0.02138
-0.03641 0.02671 -0.01056
-0.00817 -0.03420 -0.01307
0.16491 0.03138 -0.03823
0.06344 -0.01657 -0.00021
0.01175 -0.04523 0.01198
0.01718 0.01006 0.02294
0.03175 0.01788 -0.03359
-0.04983 -0.00807 0.07630
0.00227 -0.03413 0.01575
-0.05643 -0.00203 0.07882
0.05039 0.02099 -0.02733
0.07505 -0.00183 -0.01136
-0.02998 -0.01203 0.01226
-0.02780 -0.05925 0.02021
-0.02681 -0.00002 -0.01096
-0.02451 -0.05887 -0.00372
-0.00858 -0.04975 -0.01114
0.00085 -0.00598 0.02070
-0.06465 -0.04900 0.00124
-0.00313 -0.04257 -0.01022
0.21882 0.03679 -0.03400
0.15866 0.02477 0.00755
0.13978 0.04097 -0.04468
-0.02283 -0.06846 -0.00174
0.04624 -0.02467 -0.00416
-0.06790 -0.00219 0.06230
-0.03038 0.01925 -0.02656
-0.03307 -0.03217 -0.01691
-0.01435 -0.05033 0.01368
-0.10968 -0.02016 0.03092
-0.03276 -0.02677 -0.01642
-0.02814 -0.06485 0.01868
-0.04647 -0.04613 -0.00942
-0.03223 -0.04372 -0.00496
-0.03951 -0.05416 -0.01155
-0.05912 0.01752 0.06864
-0.01045 -0.02096 0.01941
-0.00991 -0.05473 0.01608
0.12701 0.02331 -0.00456
-0.36062 -0.05680 0.07994
0.11961 0.02551 -0.02613
-0.05255 -0.01623 0.01882
-0.21836 -0.08101 0.02813
0.04540 -0.01145 0.01505
-0.11482 -0.05899 0.00496
-0.03704 -0.00080 -0.00772
0.03618 -0.04218 -0.00771
-0.03252 0.02616 -0.03168
-0.03792 -0.03969 -0.01208
-0.02439 0.01178 -0.03519
0.16812 0.03271 -0.04025
0.00924 -0.02235 0.01748
-0.07034 -0.09378 0.00591
-0.03129 0.00580 0.05115
0.14688 0.02964 -0.03756
-0.04091 -0.01075 0.00424
-0.02432 -0.05582 -0.00767
-0.04425 -0.03168 0.00118
0.13626 0.01193 -0.02008
-0.06991 0.00295 0.08205
-0.00958 -0.05501 0.01331
-0.01777 -0.07394 0.00093
0.02339 -0.03776 -0.00811
0.15315 0.02981 -0.03242
-0.00535 0.02080 -0.03150
-0.04038 -0.03377 -0.01140
-0.04135 -0.02377 -0.01898
-0.00396 -0.04042 0.01876
0.01063 0.02400 -0.06866
-0.00716 -0.03045 0.02109
-0.04536 -0.09729 0.00239
0.12201 0.01510 -0.00224
0.03130 -0.00231 0.00475
0.01058 -0.01281 0.02603
-0.01604 -0.03709 0.03068
-0.02503 -0.02026 -0.00603
0.00278 -0.03856 0.01582
-0.01050 -0.04675 0.01959
-0.02639 -0.02129 -0.00359
-0.00999 -0.03381 0.03050
-0.03397 -0.06080 -0.00108
0.10900 0.02648 -0.01377
0.01393 0.01493 -0.02278
-0.00773 -0.05529 0.01225
-0.00872 -0.00405 -0.00008
-0.00848 -0.00318 -0.00536
0.00266 0.01680 -0.03198
-0.14285 -0.00134 0.05343
0.14000 0.01091 -0.01222
-0.03189 -0.06583 0.01328
0.22238 0.03477 -0.01209
-0.06845 -0.00042 0.07995
-0.02403 -0.00504 -0.01271
-0.07625 -0.01245 -0.01147
-0.08374 -0.02158 0.03119
0.00623 -0.05042 -0.00056
0.08349 0.02299 -0.04036
-0.12362 -0.05579 0.00827
-0.02113 -0.03645 0.03500
0.17340 0.04029 -0.02851
0.00884 -0.05226 -0.00329
0.16392 0.03137 -0.03595
-0.10213 -0.02214 0.02969
-0.09500 -0.01462 -0.00683
0.02688 -0.01387 0.00949
-0.05904 0.01253 -0.02291
0.10127 0.02392 -0.01525
-0.00851 -0.03166 0.02130
0.05773 0.01394 0.04129
-0.00835 -0.02338 0.03655
-0.02177 -0.02402 -0.01160
0.03922 -0.02681 0.00807
0.03910 0.00666 0.01609
-0.11369 -0.06361 0.01220
0.13502 0.01859 -0.00251
0.13883 0.02265 0.01608
-0.01479 -0.05426 -0.00916
0.24745 0.03830 -0.02015
0.01308 -0.01837 0.01088
-0.00573 -0.06121 0.00088
-0.01243 -0.04222 0.01198
-0.10298 -0.01827 0.00460
-0.03236 -0.05029 -0.00982
-0.06965 -0.03992 0.00172
-0.03303 -0.06278 -0.00296
-0.07233 -0.08421 0.01833
-0.02918 -0.08079 0.00363
-0.05301 -0.06974 0.02798
-0.04164 -0.05137 0.00325
