# .PCD v.7 - Point Cloud Data file format
VERSION .7
FIELDS x y z
SIZE 4 4 4
TYPE F F F
COUNT 1 1 1
WIDTH 1874
HEIGHT 1
VIEWPOINT 0 0 0 1 0 0 0
POINTS 1874
DATA ascii
-0.01649 0.00510 -0.00121
-0.08889 -0.05243 0.13011
0.01300 -0.01390 -0.04537
-0.02228 -0.03303 0.04478
0.01844 -0.02891 0.00157
0.01450 -0.02204 -0.02990
-0.01141 -0.00701 -0.08609
0.02747 0.02280 0.25393
0.04394 0.00067 -0.07665
-0.00094 -0.00482 -0.02513
0.01628 -0.05995 0.12621
0.00412 -0.00504 -0.04275
-0.04665 0.02727 0.04856
0.03884 -0.00671 -0.04976
0.01721 -0.05989 0.12750
0.04840 0.00265 -0.03900
-0.10424 0.02447 0.12729
0.01107 -0.01255 -0.04445
0.02114 -0.01178 -0.01062
0.00255 -0.01428 -0.01944
0.06290 0.01374 -0.00548
-0.00607 -0.02171 -0.03027
0.06823 -0.05975 0.21568
-0.00790 -0.03036 -0.00849
0.01017 -0.00428 -0.01820
-0.01168 -0.00039 -0.03013
-0.01305 -0.02553 -0.02069
0.00898 -0.00421 -0.06099
-0.00438 -0.09993 0.22798
0.02771 0.00079 0.03678
-0.00330 0.00313 0.09729
0.05272 0.01389 0.10668
0.04625 0.00698 0.06950
-0.00966 -0.00775 0.03827
0.06183 -0.01423 0.07966
0.00545 -0.00482 0.02867
0.04053 0.00785 0.04010
-0.01798 -0.00925 0.03804
0.02255 0.00286 0.08517
0.04313 -0.02614 0.09123
0.04647 -0.02452 0.08954
0.04839 -0.02379 0.08894
0.02385 0.05171 0.13632
-0.01254 -0.00073 0.03698
-0.01619 0.00313 -0.00179
0.06146 -0.01902 0.08250
0.05588 0.00824 0.06283
0.03610 0.00562 0.11101
0.02213 -0.00904 0.00364
0.01707 0.00265 -0.00420
0.04055 -0.02761 0.09220
0.00388 -0.00520 0.03843
0.04540 -0.02741 0.09157
0.04059 -0.01531 0.08492
-0.04124 -0.04180 0.11431
0.04406 -0.02786 0.09199
0.05262 0.00801 0.06521
0.04101 -0.00788 0.08244
0.04932 -0.02372 0.08857
-0.02431 -0.00487 -0.01933
0.04518 -0.02539 0.09040
-0.01768 -0.00083 -0.03229
0.04394 0.00066 -0.07689
0.04394 0.00058 -0.07692
0.04397 0.00064 -0.07668
0.04395 0.00063 -0.07694
0.04390 0.00061 -0.07677
0.04405 0.00066 -0.07661
0.04393 0.00063 -0.07691
-0.00285 0.00385 -0.02040
0.04387 0.00061 -0.07673
0.04388 0.00065 -0.07534
-0.01063 -0.00516 0.04073
0.01862 -0.01631 0.05924
-0.02593 -0.00871 -0.01069
0.00059 -0.01941 -0.01633
0.04431 0.00054 -0.07612
0.04429 0.00079 -0.07623
0.04395 0.00066 -0.07599
0.04406 0.00093 -0.07586
0.04427 0.00065 -0.07618
0.04427 0.00074 -0.07598
0.04438 0.00077 -0.07498
0.04431 0.00059 -0.07620
0.04388 0.00065 -0.07534
0.04373 0.00108 -0.07268
0.04457 0.00120 -0.07275
0.04381 0.00064 -0.07487
0.04423 0.00073 -0.07617
0.04433 0.00075 -0.07553
0.04387 0.00066 -0.07533
0.04388 0.00078 -0.07250
0.04513 0.00118 -0.07207
0.04440 0.00082 -0.07501
0.04418 0.00084 -0.07586
0.04418 0.00089 -0.07551
0.04411 0.00068 -0.07600
0.04426 0.00073 -0.07628
0.04402 0.00087 -0.07559
-0.00966 -0.01325 -0.00201
0.04435 0.00134 -0.07261
0.04374 0.00094 -0.07499
0.04448 0.00089 -0.07563
0.05440 0.01849 0.07134
0.02497 0.01422 0.06752
0.01720 0.01231 0.05885
0.03557 0.00346 0.06904
0.03312 0.01101 0.03098
0.00594 -0.00359 0.03604
0.03824 0.03710 0.07950
0.06608 0.00958 0.06574
0.06074 0.01586 0.06344
0.06112 0.00855 0.06593
0.04116 0.00852 0.06707
-0.01975 -0.04490 0.00989
0.04885 0.00698 0.06669
0.06424 0.01333 0.03073
0.03657 0.00546 0.07855
0.06976 0.01568 0.07023
0.00061 0.00018 0.03466
0.07633 0.04905 0.14688
0.10949 0.02175 0.18015
0.05892 0.01194 0.06500
0.09842 0.03063 0.20981
0.04027 0.02451 0.06291
0.06243 0.02802 0.05764
0.07702 0.02164 0.13407
0.01888 0.03312 0.08528
0.02940 0.02020 0.02244
0.05906 0.00895 0.06642
0.05222 0.01548 0.03858
0.04973 0.06455 0.26841
0.04890 0.02270 0.06203
0.05424 0.01509 0.03450
0.04742 0.01210 0.06543
0.03424 0.02289 0.03347
0.05943 0.01053 0.10567
0.03659 0.00994 0.06680
0.02240 0.00874 0.08075
0.06487 0.01154 0.10281
0.01014 0.02449 0.04785
0.06180 0.00951 0.06647
-0.00489 0.00831 0.02467
-0.00182 0.02641 0.04764
0.06874 0.01074 0.06559
0.04163 0.01793 0.03511
0.03643 0.00629 0.15899
-0.01058 -0.03988 0.02516
0.00356 -0.00682 -0.05772
-0.04883 -0.01283 0.09289
-0.03993 -0.01234 0.01596
-0.00882 -0.03852 0.01434
-0.00880 -0.03851 0.01423
-0.02894 -0.01231 -0.00236
-0.01884 -0.00912 -0.00739
-0.00609 -0.00689 -0.01470
0.00392 -0.00471 -0.01725
-0.00658 -0.03889 0.01519
-0.00574 -0.01082 -0.08293
-0.02575 -0.00245 -0.04755
-0.00027 -0.00744 -0.03669
-0.00566 -0.00734 0.01849
-0.01733 -0.01052 -0.01929
-0.01174 -0.00882 0.00610
-0.03516 -0.01355 0.01519
-0.01168 -0.03452 0.01175
-0.02548 -0.00984 -0.01138
-0.02420 -0.00931 0.02059
-0.00743 -0.04025 0.01489
-0.03428 0.00099 -0.01258
-0.00794 -0.00510 -0.02633
-0.00657 -0.00042 -0.03869
-0.00345 -0.00412 -0.02301
-0.02554 -0.00061 -0.03714
0.03214 0.00143 0.05883
0.04267 0.00077 -0.07459
-0.01528 0.00033 -0.02594
-0.03109 -0.00112 -0.02420
-0.00277 -0.00843 -0.06223
-0.05446 -0.00826 0.05300
0.00287 -0.01250 -0.03864
0.04106 0.00097 -0.07236
-0.01594 -0.00092 0.06269
-0.00369 -0.00840 -0.10385
-0.04894 0.00648 0.02896
-0.04846 -0.00727 0.05167
-0.00290 -0.00924 -0.09318
-0.06693 -0.00717 0.10290
-0.06793 -0.00014 0.04240
-0.02176 0.00278 -0.00968
-0.02518 -0.01034 -0.02761
-0.00478 -0.00950 -0.10577
-0.00924 -0.00948 -0.03647
-0.01366 -0.00625 -0.07606
-0.00919 -0.00368 0.00106
-0.04251 0.05096 0.40969
0.00307 -0.00354 0.01268
-0.01912 -0.01146 -0.07371
-0.02641 0.00453 0.01883
-0.02434 0.00027 -0.01182
-0.01910 -0.00982 -0.03739
-0.02488 -0.00692 0.06716
0.04001 -0.00463 0.27678
0.03292 -0.00646 0.00985
-0.01655 -0.00606 -0.01777
0.00595 -0.00426 -0.05610
-0.00218 -0.00147 -0.05038
0.00736 -0.00018 -0.04467
0.00356 -0.00613 -0.02268
-0.00426 0.00699 0.01953
0.02135 0.01706 0.07672
0.00441 0.00099 -0.03314
-0.02310 -0.00937 -0.01566
-0.00415 -0.00848 -0.10401
0.00765 -0.00037 0.03387
-0.01912 -0.00318 -0.02965
-0.04709 -0.01051 0.00111
-0.00729 -0.00037 -0.04719
-0.01679 0.00065 -0.04559
-0.00325 -0.00446 0.05254
-0.01327 -0.01950 -0.02475
-0.00301 -0.00571 -0.06198
-0.01757 -0.00792 0.05246
-0.00308 -0.00959 -0.11040
-0.07640 -0.01784 0.08477
-0.00792 -0.01006 -0.09521
-0.03693 -0.01210 0.03428
-0.00699 -0.00999 -0.09919
-0.00821 -0.01023 -0.09930
0.02030 -0.00117 -0.01102
0.02050 -0.00202 -0.00501
-0.02091 -0.00200 0.06635
-0.01017 -0.00343 0.00896
0.04386 0.00064 -0.07590
-0.00377 -0.00946 -0.10469
-0.04240 -0.01575 0.00818
-0.00614 -0.01003 -0.10113
-0.03682 -0.00988 0.04148
-0.01927 -0.01086 -0.06898
0.03029 0.03360 0.23698
-0.00416 -0.00479 -0.02608
0.01598 -0.00388 -0.04201
0.01279 -0.00546 -0.05215
-0.02789 -0.01066 0.10047
-0.03653 -0.00687 0.19976
0.03310 0.00116 0.01260
0.01957 -0.00325 -0.04342
0.02581 0.01881 -0.00146
0.02013 -0.00221 -0.01102
0.08395 0.02391 0.16217
-0.00418 -0.00903 -0.09120
-0.00660 -0.00904 -0.08007
-0.00637 -0.00947 -0.10171
0.01641 -0.00388 -0.04165
0.02456 0.00678 0.07244
0.01721 -0.00432 -0.04655
0.02657 -0.00086 -0.02981
0.01939 -0.00298 -0.04996
0.03398 0.00124 -0.01144
0.02957 -0.00073 -0.02468
-0.00426 -0.00948 -0.09902
-0.02393 -0.00910 0.04334
0.02636 -0.00029 -0.01508
0.05591 0.00638 -0.01919
-0.00073 -0.00828 -0.09583
0.05021 0.00490 0.03121
0.01390 -0.00381 -0.02630
-0.10567 0.01282 0.12552
-0.04178 0.01328 0.06936
-0.02587 0.01740 0.31055
-0.00814 -0.00765 -0.00944
-0.00922 0.01957 0.03668
-0.01045 -0.01046 -0.08286
0.08586 0.01865 0.09036
-0.04993 -0.00541 0.07164
-0.03450 0.00730 0.07634
-0.05161 -0.00016 0.43345
0.05165 0.00993 -0.00861
-0.05986 0.01194 0.07000
0.00635 -0.00572 -0.05761
-0.01090 -0.00861 -0.02201
-0.06265 -0.01306 0.12978
-0.00708 -0.00988 -0.09777
-0.07399 -0.01361 0.02570
0.04366 0.00070 -0.07500
-0.00046 0.09007 0.24977
-0.04286 0.01799 0.10213
-0.03939 -0.01365 0.05164
-0.02886 -0.00686 0.00234
0.02591 0.00302 0.12047
0.05932 0.01275 0.16302
-0.01174 -0.00951 -0.08736
0.04210 0.00054 -0.07316
0.04392 0.00075 -0.07587
-0.00495 -0.00960 -0.10159
0.04106 0.00115 -0.07040
-0.01363 -0.00960 -0.05106
-0.03840 0.00761 0.06207
-0.00346 -0.00928 -0.10934
-0.01427 -0.00656 -0.07512
0.00851 -0.00048 0.17929
-0.05037 -0.00332 0.02145
0.00625 0.00732 0.03209
-0.00387 -0.00441 -0.06474
0.02009 -0.00172 -0.05049
-0.00616 -0.00982 -0.10090
-0.00555 0.00260 0.02024
0.00727 0.00142 0.01217
0.02745 0.00009 0.04080
-0.00990 -0.00585 0.03760
-0.04718 0.00735 0.05200
-0.00130 -0.00761 -0.03437
-0.00760 0.01307 0.12683
-0.02446 0.00318 -0.00691
-0.04097 0.00500 0.01108
-0.01305 0.00094 -0.03026
0.04427 0.00077 -0.07461
-0.01290 -0.00721 -0.08442
-0.04288 0.00953 0.07070
0.05079 0.00515 0.03144
0.04276 0.00052 -0.07361
0.01146 0.01857 0.11348
0.04442 0.00073 -0.07664
0.00381 -0.00459 0.04254
0.03691 0.00222 -0.05829
-0.00514 -0.00906 -0.10608
-0.00622 -0.00840 -0.09654
-0.01038 0.00006 0.17792
0.00505 0.03187 0.04071
-0.00641 -0.00869 -0.10180
0.00848 -0.00376 0.04790
0.00633 -0.00580 -0.01199
-0.00880 0.00052 -0.02691
0.04438 0.00072 -0.07668
-0.05506 -0.01378 0.04556
0.03728 0.00331 0.03226
-0.01023 -0.00571 0.10656
0.02745 0.00559 -0.05337
-0.00138 0.00850 0.03156
-0.00945 -0.00731 -0.08770
0.04440 0.00072 -0.07669
-0.04449 -0.01057 0.23727
-0.00360 -0.00935 -0.10231
-0.01049 -0.00832 0.01663
-0.02055 -0.00931 0.08349
-0.00664 -0.00780 -0.09457
-0.00979 -0.00972 -0.09609
0.05641 0.01778 0.30930
0.01033 -0.00484 -0.01830
0.01538 0.00030 -0.02179
-0.00117 -0.00603 -0.01367
-0.00650 -0.00954 -0.10170
-0.05664 -0.01273 0.07152
-0.00024 -0.00413 -0.05488
-0.41208 -0.04160 0.41512
-0.00520 -0.02840 0.22010
0.01041 0.01690 0.08504
-0.01979 0.00868 0.05199
0.04372 -0.00512 -0.02385
0.08269 0.02684 0.13484
0.01841 -0.01308 -0.02855
0.02962 0.00104 0.00792
-0.01553 -0.00928 -0.04062
0.03828 0.00132 -0.04703
0.02524 0.00665 -0.04309
-0.01790 0.01655 0.10751
0.01727 -0.00069 -0.02491
0.00856 0.01399 0.00116
-0.00509 -0.00930 -0.10315
0.01969 0.01305 -0.00142
0.00069 0.00037 -0.03737
0.02546 -0.00143 -0.00694
-0.06205 -0.01258 0.09123
0.03783 0.00883 0.07303
0.01823 -0.01119 -0.02916
-0.01001 -0.00248 0.02087
-0.00921 -0.02956 0.02579
0.02803 -0.00067 -0.06839
-0.00597 -0.00996 -0.10084
-0.00597 -0.00996 -0.10084
0.00561 -0.00766 -0.09879
-0.00506 -0.00860 -0.10250
-0.00297 -0.00512 -0.09168
-0.00674 -0.00751 -0.09231
-0.01899 0.01054 -0.00896
0.01296 -0.00429 -0.07046
0.00278 0.01656 0.01278
0.04441 0.00072 -0.07671
0.01317 -0.00353 -0.03388
0.01045 -0.00497 -0.04290
0.02177 0.01106 0.13037
-0.00695 -0.00962 -0.09410
-0.00705 -0.00828 -0.10010
-0.00561 -0.00848 -0.10260
-0.00543 -0.00971 -0.10219
-0.00563 -0.00857 -0.10078
-0.00515 -0.00886 -0.10245
-0.00722 -0.00889 -0.10345
-0.00959 -0.01043 -0.09109
-0.00345 -0.00858 -0.10338
-0.00708 -0.00988 -0.09777
-0.00550 -0.00852 -0.10143
-0.00580 -0.00861 -0.10179
-0.00466 -0.00949 -0.10036
-0.01061 -0.00931 -0.00684
-0.01363 -0.00060 0.07268
-0.00544 -0.00094 0.02669
0.02656 0.01069 0.11405
-0.01604 0.00157 -0.01532
-0.04108 -0.00854 0.00898
0.05447 0.01308 0.40661
-0.01347 -0.00789 -0.06172
-0.00466 -0.00960 -0.10039
-0.00752 -0.00865 -0.10066
-0.00842 -0.00811 -0.09760
-0.00457 -0.00971 -0.10307
-0.00875 -0.00839 -0.09758
-0.00491 -0.00848 -0.10330
-0.00682 -0.00843 -0.09937
-0.00189 -0.00922 -0.10629
-0.00951 -0.01037 -0.08765
-0.00194 -0.00918 -0.10068
-0.00225 -0.00799 -0.09989
-0.00380 -0.00741 -0.09478
-0.00159 -0.00609 -0.09319
-0.00984 -0.00701 -0.08433
-0.00804 -0.01006 -0.09936
-0.00419 -0.00927 -0.10390
-0.00485 -0.00889 -0.09552
-0.11634 -0.00867 0.23756
-0.22190 0.00528 0.24593
0.01257 0.00368 0.15303
0.01114 -0.00366 -0.05691
0.02823 0.00306 0.06984
0.00122 -0.00038 -0.00318
0.03496 0.00934 0.08849
-0.04589 0.01234 0.07334
-0.03984 -0.00970 0.06914
-0.11452 -0.02323 0.14589
-0.04081 -0.01366 0.00757
-0.00511 -0.00841 -0.10253
-0.01410 0.02979 0.16516
-0.08463 -0.01550 0.14062
-0.05245 -0.01426 0.06674
-0.02734 -0.01124 -0.00185
0.00021 0.00354 -0.02372
-0.03780 -0.01227 -0.01324
-0.00101 -0.00409 0.02243
-0.01961 0.00433 0.00843
-0.01091 0.00368 -0.00344
-0.04413 -0.01437 0.00656
-0.02132 -0.00744 0.03273
0.00511 0.00948 0.01222
0.02334 -0.00138 -0.02761
0.03936 0.00057 -0.05661
0.00983 0.00997 0.01204
-0.03197 -0.00989 0.07835
0.01853 0.01832 0.06224
0.00094 0.01005 0.01858
-0.07743 -0.01605 0.10832
-0.00243 0.00468 0.03678
-0.05090 -0.00504 0.00463
0.01972 0.01888 0.06466
-0.07556 -0.01467 0.10496
-0.00436 -0.00694 -0.09105
-0.03822 -0.01081 0.09551
0.04373 0.00063 -0.07493
-0.01882 -0.00946 -0.01566
0.00578 -0.00588 -0.04055
-0.05331 -0.01248 0.15128
0.04436 0.00071 -0.07663
0.01907 -0.00286 -0.02543
0.02397 0.00231 0.01873
0.03692 0.00086 -0.06840
0.00721 0.02273 0.10131
-0.00453 -0.00876 -0.10463
0.01403 0.00076 0.01776
0.03785 0.00490 0.01479
-0.00722 -0.00702 0.01007
0.02486 -0.00227 -0.04553
-0.04962 0.00225 0.08012
-0.01219 -0.00911 -0.04195
0.03195 0.00016 -0.01262
-0.01375 0.01114 0.05588
-0.04230 -0.00134 -0.01708
-0.03845 -0.01150 0.11650
-0.07446 0.00870 0.08732
0.00962 0.00057 0.11106
-0.01440 0.00542 0.01249
-0.02453 0.00627 0.02834
0.00041 -0.00669 0.00536
-0.03372 -0.01171 -0.00265
0.02670 0.00798 0.01091
-0.01756 0.00758 0.02829
-0.04916 -0.01307 0.05098
-0.00796 -0.00767 0.01054
-0.01258 -0.00957 -0.03001
0.00645 -0.00094 0.12234
-0.03591 -0.01245 -0.01386
-0.02265 -0.01049 -0.02450
-0.01189 0.00252 0.11067
-0.07520 -0.01859 0.10281
-0.04471 -0.00591 0.06790
0.02302 -0.00197 0.01035
-0.00420 -0.00690 -0.01153
-0.02248 0.00892 0.04229
-0.00276 -0.00661 0.04234
0.00002 -0.00208 0.00141
0.01691 0.00147 0.01511
-0.05169 -0.01346 0.05192
-0.01664 -0.00141 -0.03439
-0.01865 0.00627 0.01900
-0.01628 0.00614 0.01527
-0.03007 -0.01196 -0.02594
-0.00387 0.00168 -0.03004
-0.00579 0.01882 0.18786
0.02764 0.00639 0.00666
-0.00861 -0.00715 0.08013
0.00221 -0.00505 -0.00727
-0.01087 -0.00659 0.02183
0.01716 -0.00435 -0.05437
-0.00669 -0.01010 -0.10110
0.02860 -0.00150 -0.02618
-0.00792 -0.01010 -0.09206
-0.02726 -0.00931 0.03255
-0.07765 -0.01645 0.10761
0.03145 -0.00167 -0.06516
-0.00481 0.00291 0.09550
-0.01317 -0.00629 -0.03101
-0.00263 -0.00940 -0.10435
-0.04995 -0.01037 0.13570
-0.03590 -0.01184 0.08802
-0.00461 -0.00847 -0.04379
-0.06723 -0.01793 0.05785
0.03886 0.00005 -0.06571
-0.00606 -0.00984 -0.09571
0.04251 0.00063 -0.07292
-0.01647 0.04076 0.28494
0.00448 0.02669 0.15757
-0.01365 0.02103 0.17569
-0.01410 0.00150 0.00323
-0.01130 0.00015 -0.03020
0.03636 0.00977 0.09059
-0.02139 0.00032 -0.02055
-0.04581 -0.01562 0.01890
-0.04334 -0.00091 0.10223
-0.03304 -0.00833 -0.00474
-0.05399 -0.00144 0.00486
-0.06074 -0.01712 0.06902
0.02692 -0.00119 -0.00391
0.02692 -0.00119 -0.00391
-0.01182 -0.00943 -0.08329
-0.01026 -0.00933 -0.08814
-0.01666 -0.00660 -0.02700
-0.03298 -0.01256 0.02854
-0.00407 0.00381 0.00032
-0.09000 0.01542 0.13600
0.02325 -0.00249 -0.02826
-0.00096 0.00890 0.03738
0.00771 0.03526 0.25725
0.07410 0.04777 0.28025
-0.00026 -0.00311 -0.01513
-0.24830 -0.02679 0.27501
-0.03028 -0.00677 0.00838
0.00101 -0.00016 -0.03006
0.01522 0.00724 0.00835
-0.03054 -0.00129 0.05021
-0.39300 -0.04975 0.30189
0.01181 0.00196 0.13613
0.00320 0.01392 0.04610
-0.00598 -0.00756 -0.09219
-0.01152 -0.00242 0.00556
0.00912 -0.00098 -0.02383
-0.04259 -0.00032 0.00546
0.01804 -0.00290 -0.06062
0.00318 -0.00194 -0.00618
0.03032 0.00212 -0.01829
-0.01138 0.02237 0.16803
0.02000 0.00260 -0.03558
0.04261 0.00060 -0.07072
0.00300 0.00046 -0.03414
-0.23797 -0.03412 0.13564
0.00753 0.00141 -0.03152
-0.02478 0.00203 0.03049
-0.00721 -0.00497 -0.04429
-0.01091 -0.00194 -0.04174
0.00118 -0.00301 0.24391
-0.02244 -0.00943 -0.01076
-0.00888 -0.00747 -0.08744
-0.02448 0.00007 -0.00815
0.01924 0.01475 0.06847
0.00096 0.00703 0.02565
-0.03385 0.00023 0.09935
-0.01421 -0.00638 -0.03864
-0.01050 -0.00590 -0.04105
-0.01120 0.00268 -0.00045
0.00528 -0.00177 -0.05542
-0.02095 -0.00828 -0.04285
-0.03464 0.00955 0.08731
-0.00479 -0.00014 0.00583
-0.04293 -0.00110 0.06919
0.01593 0.00543 -0.00548
-0.00311 -0.00762 -0.08050
0.00829 0.00666 0.07995
-0.01203 -0.00233 0.00012
-0.01839 0.00000 -0.04930
-0.00628 -0.01484 -0.03366
0.02242 0.01897 0.20199
0.01349 -0.00365 -0.03596
-0.02886 -0.00939 0.02340
0.03698 -0.00059 -0.06871
-0.00711 0.00585 0.02532
-0.02172 -0.00588 -0.02787
0.01237 0.02245 0.02897
-0.00818 -0.00099 0.00861
-0.01647 0.00533 0.01881
-0.00594 -0.00451 0.03796
0.02022 -0.00141 0.04246
-0.00966 -0.03549 0.01304
-0.01057 -0.03652 0.01336
-0.01072 -0.03955 0.01225
-0.01119 -0.03275 0.00310
-0.02022 0.00924 0.05025
-0.00784 -0.00047 0.00879
-0.04402 0.01657 0.13467
0.00767 -0.00003 -0.04375
0.02718 0.00824 0.00216
0.00995 -0.00019 -0.01861
-0.00583 -0.00766 -0.09426
-0.01199 -0.00698 0.00576
-0.03701 0.00620 0.00142
0.00788 -0.00560 0.00478
0.04099 0.00064 -0.07399
-0.00860 0.00397 0.26295
-0.03639 0.01099 0.07994
-0.01277 -0.00141 0.02070
-0.00170 -0.00676 0.01249
-0.02016 -0.01025 -0.04202
-0.03422 -0.00539 -0.00381
-0.03354 -0.00543 -0.00617
0.02117 -0.00916 0.00066
0.02577 -0.00591 -0.04855
0.00780 0.01076 0.03696
0.01915 0.00600 0.08062
-0.01854 -0.00620 0.11006
0.00418 -0.00244 -0.02666
0.02973 0.00796 0.00103
0.02320 0.00862 0.01331
-0.09051 -0.05508 0.29995
-0.01997 0.00472 0.02229
-0.12523 -0.02490 0.07463
-0.03273 -0.01155 -0.02790
-0.01236 -0.02899 0.01090
-0.00803 -0.00026 0.00787
-0.02074 -0.07482 0.10532
0.00376 -0.00673 -0.04265
-0.00636 0.00265 -0.00695
-0.03517 -0.01321 0.04282
-0.03379 -0.00486 0.02994
0.00244 -0.00166 -0.01880
0.02378 0.01033 0.01875
-0.05170 -0.01566 0.04277
-0.01141 -0.04033 0.00571
0.01893 -0.00241 0.03274
-0.03855 -0.00614 0.11537
0.01373 -0.00895 -0.04726
-0.03050 -0.01242 0.02517
-0.01121 -0.04245 0.01510
-0.01121 -0.04245 0.01510
-0.02291 0.03637 0.22014
-0.05785 -0.00289 0.11257
-0.03142 -0.00973 -0.01249
-0.02053 -0.00810 -0.01981
-0.00416 -0.00873 -0.04749
-0.00147 -0.00819 -0.04920
-0.04969 0.01172 0.09222
-0.04969 0.01172 0.09222
0.02765 0.00114 0.07953
-0.02013 -0.01216 -0.03155
-0.01171 -0.01978 -0.04253
-0.02448 -0.00320 0.32477
-0.01015 -0.02578 -0.00047
-0.00431 -0.00240 0.00191
0.00639 -0.00228 -0.04741
0.00277 -0.00359 -0.04670
-0.06299 -0.01005 0.03388
-0.01125 -0.03647 0.01327
-0.00900 -0.06818 0.11526
0.04271 0.00047 -0.07546
-0.00172 -0.00797 0.01250
-0.10035 0.01687 0.18943
-0.08522 -0.00094 0.16722
-0.01222 -0.00553 0.04740
0.04252 0.00096 -0.07512
0.04387 0.00067 -0.07533
0.02071 -0.00171 -0.07167
0.00015 0.00210 0.03145
0.02339 0.00352 -0.00349
-0.01474 -0.00837 -0.04728
-0.00411 -0.00462 0.00060
-0.01996 -0.00718 -0.00351
-0.00747 -0.01284 -0.08189
-0.05762 -0.00830 0.10414
0.01364 -0.03092 0.00076
-0.02577 -0.03017 0.07211
-0.00115 -0.00989 -0.10373
0.04175 0.00030 -0.07488
-0.02942 -0.00956 -0.00071
-0.00747 -0.00653 -0.03059
0.02326 -0.01235 0.06646
0.01526 0.00009 0.01208
-0.01045 -0.00586 0.30361
-0.01135 -0.03939 0.01277
-0.04963 -0.00827 0.04369
0.04186 0.00062 -0.07197
-0.03896 -0.00651 -0.00753
-0.00723 -0.00781 -0.03514
0.00117 -0.00553 -0.02209
0.01158 -0.03572 0.02380
0.03918 -0.00238 -0.04563
-0.02758 -0.00711 0.03771
-0.00993 -0.00509 0.00894
0.03696 -0.00033 -0.06866
0.04440 0.00072 -0.07670
0.04027 0.00007 -0.07381
0.04029 0.00048 -0.05875
-0.04929 -0.01081 0.00022
-0.01415 -0.00251 -0.00875
0.01279 -0.00108 0.01888
-0.03145 -0.00752 0.10220
-0.04139 -0.01065 0.05850
-0.00015 0.01086 0.11938
-0.01671 -0.01896 -0.02413
-0.01671 -0.01896 -0.02413
0.01538 0.01697 0.06288
0.03631 0.00021 -0.05887
-0.01157 -0.03683 0.01231
-0.03519 -0.00146 0.00665
-0.00095 -0.00773 -0.09682
-0.01420 -0.00478 -0.06656
-0.00764 0.00007 0.00215
-0.03135 -0.01119 -0.02400
-0.04122 -0.01471 -0.00815
-0.00906 -0.00457 0.00924
-0.04211 0.03776 0.26339
-0.05697 -0.01943 0.08450
-0.05797 -0.01089 0.07014
-0.00157 -0.00410 -0.04617
-0.00175 -0.00751 -0.09911
-0.00518 0.00503 0.16994
-0.02386 0.00995 0.06360
-0.02158 0.00094 -0.02814
-0.05572 0.00905 0.07940
-0.00049 0.00609 0.00220
-0.07425 -0.05357 0.10915
-0.01663 -0.03562 0.00888
-0.01067 0.02807 0.18394
0.00290 0.01906 0.10734
0.01755 -0.04246 0.06339
-0.01465 -0.03533 0.01063
-0.01284 0.00456 0.07248
-0.11186 -0.02035 0.31889
-0.03545 -0.00166 -0.04905
-0.03711 0.07849 0.26577
0.02652 -0.00076 -0.00687
-0.03933 -0.00119 -0.01301
-0.01633 0.00416 -0.01589
0.04756 0.00992 0.05723
0.00028 0.02488 0.17678
-0.04479 -0.01251 0.02862
-0.03380 -0.00716 0.00931
-0.07040 0.01009 0.13318
0.00847 -0.00362 -0.02946
0.01580 0.00029 -0.05073
-0.04333 0.06214 0.26175
-0.03887 0.01773 0.02253
0.03271 0.00099 -0.06128
-0.05958 0.02251 0.49106
0.00679 -0.00609 -0.04207
0.02892 -0.00570 -0.05193
0.02100 -0.00749 -0.05806
0.03751 0.00320 -0.04916
-0.15920 -0.07761 0.25375
0.03570 0.00189 -0.04925
-0.18568 -0.01370 0.13042
0.01415 -0.00070 -0.01708
-0.04367 0.03365 0.08014
0.03464 0.01851 0.10476
-0.15756 -0.02645 0.23449
0.02661 0.03167 0.08007
0.04027 0.00352 0.01982
-0.02336 0.01424 0.00342
-0.02501 0.01856 0.03390
0.00364 -0.00029 -0.02104
-0.02438 0.03665 0.08352
0.00296 0.00459 -0.00513
-0.05252 -0.00919 0.13765
0.04293 0.00061 -0.07229
0.00754 -0.00320 0.03662
0.05301 0.00936 0.10470
0.02757 0.00742 0.17441
0.04347 0.00069 -0.07301
0.00576 -0.00475 0.00191
-0.05043 -0.01245 0.10422
0.06262 0.01262 0.14191
-0.03337 -0.01063 0.05207
0.04242 0.00052 -0.06995
-0.00345 -0.00870 -0.08612
0.04440 0.00072 -0.07670
-0.02178 -0.01062 -0.05169
0.01466 -0.00333 -0.01628
0.04189 0.00079 -0.05706
-0.04892 0.04100 0.27241
-0.01672 0.00207 -0.02394
-0.01957 -0.01148 -0.06819
-0.00757 -0.01011 -0.09917
-0.02495 0.01081 0.04247
-0.00632 -0.00865 -0.10197
-0.04489 -0.00114 0.30523
-0.00358 -0.00849 -0.10456
0.04118 0.00061 -0.06960
0.03142 0.00005 -0.01034
0.04373 0.00083 -0.06821
-0.00557 -0.00977 -0.10051
0.00950 0.01024 0.07899
0.03551 0.00130 0.00294
-0.01678 -0.00052 -0.02948
-0.00359 0.00322 -0.01326
0.03145 0.00451 0.02861
-0.03323 -0.01093 -0.00251
0.04314 0.00059 -0.07228
0.11071 0.03199 0.22762
0.02071 0.00337 0.10274
0.01048 0.01103 0.02069
-0.00536 0.00139 0.08154
0.04302 0.00467 0.06817
-0.01236 -0.00856 -0.01106
0.04133 0.00071 -0.05599
0.04382 0.00071 -0.07273
0.03717 0.00267 0.03341
-0.03432 -0.00906 0.11564
-0.06640 0.00231 0.20501
-0.00202 -0.00775 -0.08459
-0.00256 -0.00826 -0.09160
-0.04023 -0.01271 -0.00649
0.03054 0.01571 0.20523
0.01658 0.01952 0.07209
-0.04911 -0.01498 0.11800
0.04409 0.00103 -0.06364
0.01451 0.01373 0.03398
-0.09082 0.01864 0.15403
-0.00872 0.01507 0.06119
0.02263 -0.00249 -0.00938
-0.00052 -0.00482 -0.08182
-0.00134 -0.00246 0.00193
0.02000 -0.00310 -0.01234
-0.00349 -0.00229 0.00773
-0.05285 0.00923 0.05892
-0.07343 0.01116 0.08813
-0.04573 0.00874 0.04877
-0.08533 -0.01678 0.32461
-0.00497 -0.00501 0.15070
0.04255 0.00049 -0.06997
0.04258 0.00049 -0.07030
0.03246 0.00238 -0.05578
0.04370 0.00075 -0.07411
0.05729 0.01818 0.08333
0.00528 -0.00545 -0.03815
-0.00192 -0.00809 -0.09168
0.04386 0.00078 -0.07095
-0.01726 -0.00399 0.13057
0.04400 0.00088 -0.06328
0.02286 -0.00095 0.02121
0.02887 0.00248 -0.00934
0.00247 0.00752 0.10018
-0.03478 -0.00969 0.05332
0.03809 -0.00005 -0.06403
0.04200 0.00028 -0.07471
-0.00584 -0.00975 -0.09175
0.03570 -0.00033 -0.06963
0.04311 0.00127 -0.07072
-0.02480 -0.00539 0.01719
0.03599 0.00193 -0.05984
0.04361 0.00076 -0.07398
0.02848 0.01128 0.03932
0.00504 0.00474 0.01099
-0.06406 -0.01172 0.02131
0.00251 -0.00723 -0.04406
-0.01455 -0.01106 -0.06856
0.04540 0.00139 -0.05478
-0.08091 -0.01533 0.15365
-0.02658 -0.00747 0.08704
-0.08153 -0.00131 0.23539
0.04441 0.00072 -0.07670
0.03306 0.01524 0.06751
0.01931 0.00190 -0.00187
-0.00381 -0.00840 -0.10373
0.00812 0.01065 0.13243
0.02596 -0.00178 -0.01362
0.02318 0.00088 0.03640
0.03966 0.00181 -0.06212
0.04306 0.00105 -0.06928
0.03095 0.00400 0.01069
0.03812 0.00008 -0.04861
0.04318 0.00055 -0.07293
0.04311 0.00066 -0.06721
0.04475 0.00116 -0.07469
0.04060 0.00148 -0.05404
0.04247 0.00043 -0.07224
0.04357 0.00066 -0.07380
0.01686 -0.00113 0.02272
0.03938 0.00012 -0.07248
0.00350 0.01182 0.01502
0.01946 -0.00406 -0.06353
-0.02649 -0.01053 -0.00913
-0.03220 -0.01244 -0.02418
-0.09715 -0.01786 0.16972
-0.00794 -0.00768 0.01034
0.01270 0.01949 0.23963
-0.01124 -0.00931 -0.01577
-0.00336 -0.00558 -0.04741
0.02062 -0.00124 -0.00717
0.05089 0.00442 -0.01101
0.04378 0.00105 -0.07489
0.01864 0.00908 0.02228
0.02893 0.00153 0.09583
0.05757 0.00565 0.03349
0.03120 0.00310 0.06603
0.01603 0.00480 0.17712
-0.00285 -0.00874 -0.10543
0.02748 -0.00075 0.00775
0.00609 -0.00412 -0.01170
0.04370 0.00074 -0.07266
-0.01931 0.00109 0.24160
0.04352 0.00064 -0.07409
-0.01886 -0.00998 -0.04292
-0.00022 -0.00401 0.06041
0.01900 0.00346 0.13513
-0.06057 0.01492 0.10404
-0.02550 0.00521 0.01980
0.06196 0.01001 0.03283
0.03869 0.00316 -0.04934
0.04131 0.00456 0.05376
0.03188 0.00421 -0.05529
-0.03715 -0.00515 0.05154
0.03725 0.00285 0.01885
0.04363 0.00162 -0.06196
-0.00294 -0.00930 -0.11032
0.00554 0.00736 0.00849
0.05910 0.00870 0.09948
0.03618 0.00128 -0.05133
-0.00941 -0.00712 -0.00607
-0.02474 -0.01048 -0.01660
0.00892 0.00435 -0.00565
0.00156 -0.00178 -0.05787
0.04652 0.00454 -0.02682
0.04748 0.01573 0.04077
-0.00403 -0.00900 -0.10765
0.04376 0.00164 -0.06640
-0.00173 -0.00451 0.01160
0.01788 0.01436 0.03776
-0.02494 -0.00948 -0.00868
-0.00517 -0.00526 0.00363
0.00548 -0.00475 -0.01245
0.04302 0.00057 -0.07341
-0.00628 0.00410 0.00042
0.00100 0.00813 0.01962
0.01035 -0.00340 0.03816
0.03030 0.00501 0.09712
0.04093 0.01482 -0.01740
0.00850 0.01722 0.08190
-0.01096 -0.00887 -0.00525
0.05856 0.01499 0.04275
0.04439 0.00072 -0.07667
0.03320 0.00166 0.00014
0.03010 0.00649 -0.01316
-0.01448 -0.00752 0.00021
0.04435 0.00218 -0.05856
0.04396 0.00067 -0.07561
-0.03150 -0.00378 0.19332
0.04743 0.00726 0.08916
0.05670 0.01389 0.04502
0.03517 0.00051 0.00106
0.02267 0.01131 0.15333
0.03443 0.00501 0.01345
0.04291 0.00089 -0.07145
0.02326 -0.00016 0.00901
0.05360 0.00864 0.09403
0.00135 -0.00504 0.04621
0.04297 0.00098 -0.07296
0.04337 0.00080 -0.07250
0.03403 0.00456 0.01529
0.04335 0.00099 -0.07403
-0.00229 -0.00894 -0.10484
-0.00390 -0.00907 -0.09241
-0.03501 -0.00705 0.12371
0.04407 0.00153 -0.06316
0.00651 0.00672 0.00766
0.04414 0.00069 -0.07569
-0.00428 -0.00896 -0.10153
-0.01637 -0.00702 -0.08001
-0.04100 0.01911 0.14133
-0.03724 -0.00943 -0.01567
-0.02865 0.00507 0.02917
0.01030 0.00537 0.31135
-0.00078 0.01485 0.05410
0.03998 0.00016 -0.05764
0.04499 0.00099 -0.06802
-0.00784 0.00606 0.01943
0.04496 0.00125 -0.06688
-0.06439 0.01032 0.10812
-0.03358 -0.00136 0.01232
0.01558 0.00192 -0.03916
0.04368 0.00065 -0.07493
0.02668 0.00245 0.05650
0.04085 0.00304 0.00246
-0.00091 0.01287 0.05740
0.00192 -0.00065 -0.06052
-0.02270 -0.00351 -0.04745
0.05742 0.00845 0.06121
0.04169 0.01893 -0.00936
-0.02332 -0.00921 0.00202
0.02215 0.01170 0.01576
0.03939 0.00036 -0.06985
-0.00220 -0.00909 -0.10929
0.04348 0.00065 -0.07457
0.03234 0.02218 0.05894
0.04013 0.03800 0.20972
-0.01893 0.00147 0.01830
0.00555 -0.00501 -0.00339
0.05533 0.00833 0.06318
0.04318 0.00129 -0.07191
0.04423 0.00074 -0.07601
0.02863 0.00565 0.00398
0.02670 0.00212 0.15800
0.03157 0.00102 -0.04170
0.04184 0.00722 -0.02336
-0.01990 0.02180 0.08084
0.01210 0.01749 0.00895
-0.00780 -0.00077 0.00882
-0.11796 0.05848 0.38515
0.05189 0.01535 0.07989
0.04297 0.00048 -0.07382
-0.00024 -0.00414 -0.04096
0.04416 0.00095 -0.07510
-0.03597 0.01743 0.01580
0.04426 0.00077 -0.07508
0.04367 0.00072 -0.07383
0.04368 0.00066 -0.07504
0.04532 0.00112 -0.07148
0.02280 0.00791 0.00277
-0.00484 -0.00059 0.00512
0.03008 -0.00180 -0.05145
-0.02444 0.01269 0.08874
0.01869 0.02463 0.12840
-0.00560 -0.00153 -0.04831
0.01653 -0.00006 0.01758
0.02323 0.01343 0.01256
0.03003 0.00130 -0.04924
-0.00640 -0.02035 0.01085
0.02514 -0.00039 0.00786
0.00557 -0.00511 -0.05468
-0.03224 -0.01908 0.05602
0.00910 -0.00489 0.01466
0.02106 0.00506 0.08036
0.04411 0.00136 -0.06357
0.04383 0.00162 -0.06268
-0.05846 -0.00557 0.07130
-0.00453 -0.00475 -0.04512
0.03519 0.00294 -0.05870
-0.01173 0.00844 0.00753
0.04184 0.00317 -0.06518
0.04089 0.00297 -0.05535
-0.02569 -0.00679 -0.00520
0.01585 -0.00030 0.01770
0.05487 0.01438 0.03093
0.04326 0.00098 -0.07032
-0.00938 -0.00262 0.02187
0.04441 0.00073 -0.07668
-0.00523 0.02851 0.10385
-0.01820 0.02432 0.08794
0.00354 -0.02515 0.01688
0.01538 -0.00095 0.01920
0.03946 0.00318 -0.05490
0.03707 0.05317 0.23774
-0.11128 -0.00363 0.25047
0.01713 -0.01631 -0.01292
0.04436 0.00080 -0.07617
0.00773 0.00189 0.01237
0.00707 0.01370 0.16922
-0.00795 0.00875 0.00577
-0.01498 -0.00731 -0.05559
0.02228 -0.00192 0.05591
0.06595 0.01543 0.06327
-0.01666 -0.00943 0.20772
0.01169 -0.01499 0.04050
-0.01258 -0.00232 -0.06418
-0.03478 0.01300 0.01367
0.04390 0.00065 -0.07667
0.04314 0.00084 -0.07298
-0.04244 -0.01533 0.00610
-0.07415 0.00954 0.10579
-0.03460 0.01315 0.26287
-0.12757 0.00776 0.11698
0.02858 0.02741 0.04859
0.04425 0.00075 -0.07641
-0.01038 -0.00911 0.02246
0.04341 0.03957 0.15175
-0.00452 -0.00035 0.12979
-0.02842 -0.00720 0.10540
-0.02199 -0.00969 -0.00693
0.00805 -0.04675 0.05982
0.04151 0.00369 -0.06481
0.04010 0.00064 -0.05425
0.04360 0.00064 -0.07456
0.04460 0.00855 -0.04471
0.00497 -0.00124 -0.04890
0.04491 0.00806 0.01752
-0.00597 0.01681 0.10132
0.03453 0.00636 -0.04969
-0.01392 0.03685 0.23384
0.00764 -0.00285 0.01311
0.03801 -0.00887 -0.04252
0.03723 0.00089 -0.06991
0.04334 0.00077 -0.06759
0.04309 0.00052 -0.07468
0.04175 0.00151 -0.05668
0.04315 0.00096 -0.07023
0.04419 0.00096 -0.06915
0.03662 0.00121 -0.06368
0.04097 0.00024 -0.07460
0.04496 0.00117 -0.06788
0.04498 0.00118 -0.06805
0.04294 0.00100 -0.07296
0.04197 0.00035 -0.07526
0.04252 0.00045 -0.07528
0.02898 -0.00311 -0.05729
0.04317 0.00066 -0.07499
0.04340 0.00061 -0.07408
0.03702 0.00020 -0.05003
0.04318 0.00075 -0.07362
0.04195 0.00110 -0.07215
0.01229 -0.00201 0.09902
-0.20364 -0.03442 0.57838
-0.02865 0.00507 0.02917
-0.27272 0.03439 0.52252
0.06861 0.01007 0.11965
0.05209 0.05999 0.26445
0.02282 0.00105 0.07180
0.03283 0.00080 -0.06786
-0.01861 -0.00721 0.08244
0.02052 0.04156 0.21780
-0.09474 0.01902 0.16030
0.03367 0.01771 0.22587
-0.00431 0.00466 -0.00126
0.02365 -0.01952 0.14260
0.02928 0.03536 0.17196
0.02283 0.02221 0.29915
0.01325 -0.00473 0.14930
-0.07670 -0.01348 0.13005
0.01770 0.05274 0.16300
-0.07216 -0.01892 -0.00288
0.01534 -0.00201 -0.04184
-0.03453 -0.01058 0.13032
-0.01957 -0.01053 0.00135
-0.05943 0.01148 0.12487
0.01124 -0.00094 0.13993
-0.00632 -0.00674 0.00902
0.00978 -0.00413 -0.00085
0.04170 0.00024 -0.07488
0.02517 -0.00187 -0.02843
-0.00684 -0.00798 -0.02809
0.01886 -0.00169 -0.01465
-0.00676 -0.00991 -0.09745
-0.01497 -0.00714 0.05901
0.02097 -0.00172 -0.00479
-0.07356 -0.00225 0.20023
-0.00612 -0.00968 -0.09917
-0.04039 -0.01272 0.00431
-0.02400 -0.01043 -0.01498
0.00252 -0.00466 0.01872
0.04150 0.00030 -0.07243
-0.03101 -0.00977 0.02247
-0.02172 -0.01882 -0.04406
0.00086 0.00078 0.03915
-0.00000 -0.00119 0.01251
-0.10695 -0.02445 0.17409
-0.00303 -0.00939 -0.10516
0.03421 0.00281 -0.05778
0.03993 0.00039 -0.06968
-0.01027 -0.00044 0.04264
-0.04462 -0.01286 0.11592
-0.01196 -0.00954 -0.08700
-0.12240 -0.01415 0.39472
0.04394 0.00064 -0.07583
-0.10079 0.03954 0.36242
-0.06145 0.01261 0.07600
-0.03011 -0.01207 0.04520
-0.04649 -0.00757 0.03446
-0.00836 0.00478 0.00183
0.00248 -0.00647 -0.01251
-0.03279 -0.01081 0.09748
-0.01039 0.00515 0.00611
-0.08057 -0.02074 0.10630
0.03044 -0.00180 -0.05570
-0.00756 0.00115 0.22726
0.03796 0.00088 -0.05636
0.03002 0.00292 -0.05046
-0.03921 -0.01306 0.04595
0.01708 -0.00175 0.00140
0.01705 -0.00154 0.06106
-0.04297 0.00370 0.01201
-0.06752 -0.01524 0.09236
-0.04775 0.00797 0.04499
-0.00932 -0.00329 -0.05257
0.04440 0.00072 -0.07671
-0.00108 -0.00017 0.01947
0.05391 0.01961 0.18862
-0.05741 -0.00618 0.09181
-0.08892 0.01878 0.15384
0.00049 0.00745 0.00132
0.03284 -0.00124 -0.05902
0.02583 -0.00200 -0.02706
0.04322 0.00087 -0.07465
-0.05521 -0.01690 0.13124
-0.08888 0.00724 0.12496
0.02261 -0.00048 0.00503
0.00556 -0.00466 -0.02069
-0.20023 -0.03512 0.24300
0.02293 0.00147 -0.05454
-0.05267 0.01325 0.08782
0.02711 0.00216 -0.05005
0.04220 0.00059 -0.07367
-0.06003 -0.00592 0.10197
-0.05844 -0.01754 0.05992
-0.01545 -0.00998 0.00232
0.04251 0.00039 -0.07448
0.00139 0.00057 -0.03912
-0.01470 -0.00364 -0.05438
-0.08162 0.00230 0.08313
-0.01166 -0.00866 0.00797
-0.00584 0.01014 0.03981
-0.00133 -0.00077 -0.04645
0.02829 -0.01215 -0.05066
-0.13988 -0.00153 0.37968
0.01233 0.00011 -0.05078
0.01134 0.00302 -0.01899
-0.04731 -0.00483 0.09854
-0.00518 -0.00961 -0.10050
0.04378 0.00065 -0.07540
0.04069 0.00027 -0.06965
-0.00582 -0.01941 0.00549
-0.00639 -0.00613 -0.00032
-0.06317 0.01181 0.08535
0.00083 0.00827 0.02443
0.02261 0.00149 -0.04567
0.00827 -0.00091 0.06215
0.04334 0.00121 -0.07149
-0.01217 0.00039 0.07427
0.03805 0.02959 0.29622
-0.00129 -0.00161 -0.05236
0.00454 0.05846 0.34525
-0.01314 0.00395 0.01152
0.00621 -0.01587 0.03064
-0.01595 -0.01829 -0.01798
-0.01909 0.00508 0.01922
-0.00625 0.03226 0.17543
0.01831 -0.00187 -0.04641
-0.05749 0.00448 0.04754
0.02395 -0.00145 -0.01384
0.03299 -0.00043 -0.04915
0.04333 0.00063 -0.07372
-0.02710 -0.01255 0.03686
-0.00644 0.00630 -0.00276
-0.01237 -0.00548 -0.07112
-0.01237 -0.00548 -0.07112
-0.04285 0.02309 0.18119
-0.06556 0.01948 0.19137
-0.01270 -0.00958 -0.08539
-0.02840 0.01450 0.06820
-0.00265 0.00955 0.01636
-0.02079 0.00942 0.05285
0.00154 0.00981 0.02017
-0.04296 0.00217 0.01413
-0.05158 0.00590 0.04283
0.01494 -0.00256 -0.01555
-0.01714 -0.00944 0.02470
-0.07151 -0.02061 0.13408
-0.02785 0.00256 0.08220
-0.02362 -0.01222 -0.02040
-0.00543 -0.00867 -0.10270
0.00487 -0.00342 -0.03509
0.00284 -0.00363 -0.03290
0.01193 -0.00285 0.05565
-0.00258 -0.00963 -0.11176
-0.07301 -0.00435 0.12585
-0.02680 -0.00189 0.05273
-0.08260 0.03762 0.23153
0.04441 0.00072 -0.07670
0.00393 0.00805 0.00173
0.03415 0.01852 0.03633
-0.06972 0.01286 0.11386
-0.11631 0.01965 0.27156
-0.04211 -0.01088 0.06193
0.03692 0.00336 -0.04659
0.02958 -0.00164 -0.06336
0.02543 0.00599 0.00218
-0.01465 -0.01869 0.00586
-0.03732 0.00456 0.12809
0.00762 -0.00142 -0.02908
-0.04886 -0.01684 0.18883
-0.04886 -0.01684 0.18883
-0.07260 0.00039 0.13905
-0.07444 0.00684 0.18869
0.04398 0.00074 -0.07244
0.04184 0.00023 -0.07514
0.00174 0.00176 0.01171
0.03158 0.00041 -0.05045
-0.03456 -0.01335 -0.00588
-0.01363 -0.01858 0.00991
0.01504 -0.00007 -0.02678
0.03570 0.00006 -0.06633
-0.00268 -0.00260 -0.02957
0.00137 -0.00470 0.01955
0.01784 0.00105 0.09785
-0.00882 -0.01631 -0.01125
-0.01137 -0.00664 -0.08934
-0.01776 -0.00618 -0.05751
-0.00915 -0.01027 0.04569
0.04213 0.00039 -0.07517
-0.01026 -0.00343 0.06083
-0.02785 -0.00323 0.12530
0.00248 -0.00220 0.01257
-0.01328 0.01260 0.02452
-0.05361 0.00092 0.10957
0.00894 -0.01380 0.01340
-0.02217 -0.00441 0.06710
-0.00874 -0.00349 0.06151
-0.02493 -0.00479 0.10432
-0.03244 -0.00564 0.13939
-0.03244 -0.00564 0.13939
-0.00795 -0.00949 0.04532
0.02327 0.00460 0.37731
-0.02034 -0.00812 0.02487
-0.05320 -0.01255 0.03644
-0.04250 -0.01466 0.07415
-0.00275 -0.00597 0.01232
0.01182 0.00158 0.02784
-0.01643 0.00384 -0.00709
-0.09443 -0.01936 0.39604
0.00072 0.01289 0.03824
-0.00971 -0.01584 -0.02577
-0.00943 -0.00195 -0.00845
-0.01398 -0.02096 0.03169
-0.01648 0.00248 -0.02362
-0.03595 -0.01429 0.10151
-0.01839 0.01149 0.01934
-0.06242 -0.00401 0.05910
0.00117 -0.00790 0.05024
-0.00544 -0.00949 0.03243
-0.00107 0.00912 0.01377
0.00004 0.00740 -0.00659
0.02973 0.03873 0.17433
0.00044 -0.00314 0.01266
-0.02470 -0.00485 -0.00567
-0.01571 -0.02284 0.00858
-0.00789 -0.00516 -0.02665
-0.03119 -0.00986 0.02194
-0.05713 -0.00938 0.09631
-0.05378 -0.00481 0.13742
-0.01117 -0.01081 0.06045
-0.01854 0.00099 -0.04631
0.02856 -0.01196 -0.05044
0.02856 -0.01196 -0.05044
0.00247 0.00156 -0.03279
0.02732 -0.01239 -0.05133
0.02891 -0.01201 -0.05025
0.00189 0.00866 -0.00758
-0.00971 -0.01584 -0.02577
-0.09567 -0.00357 0.26702
-0.00378 -0.00262 0.00276
0.00702 0.00388 -0.01979
-0.05497 0.00770 0.05998
0.01341 -0.01188 -0.03169
-0.03734 -0.01030 0.06232
-0.05962 -0.01352 0.10122
-0.00472 0.00939 0.04755
-0.01551 0.01914 0.13670
-0.02938 0.00426 0.02104
-0.01247 -0.03977 0.01379
-0.01976 -0.04293 0.01068
-0.02273 -0.00665 -0.01140
0.01121 -0.00072 0.08213
0.01639 0.00624 0.01704
-0.00506 -0.00010 0.00649
0.03047 -0.01060 0.03783
-0.01048 -0.03425 0.01225
0.02105 -0.01743 0.09285
-0.00785 -0.00347 -0.00544
-0.00799 -0.00642 0.01217
-0.06004 -0.01764 0.10485
-0.00763 -0.00306 0.11549
-0.00329 -0.00588 0.01643
-0.02446 -0.01067 -0.00430
0.04248 0.00046 -0.07234
-0.00739 -0.00789 -0.02249
-0.04101 0.00051 0.46696
-0.08952 -0.02205 0.02095
0.02078 -0.00127 0.02001
0.04273 0.00046 -0.07393
0.00094 -0.00656 -0.03335
-0.03050 -0.00287 0.30146
0.00814 0.00272 -0.04609
0.04255 0.00043 -0.07394
0.02964 -0.00099 -0.03111
-0.07451 -0.01551 0.18852
0.01980 -0.00117 0.01956
-0.01207 -0.00579 0.08137
0.03508 -0.00060 -0.05980
-0.04579 -0.00017 0.01493
-0.06097 -0.00743 0.21583
-0.07574 -0.01389 0.12654
-0.03717 -0.01229 0.01847
0.01095 -0.00523 -0.05308
0.03487 -0.00100 -0.07155
-0.03287 -0.01028 0.06851
0.00388 -0.00234 0.04051
0.03264 -0.00139 -0.06996
0.03618 -0.00067 -0.06911
-0.00430 -0.00842 -0.10346
0.01171 -0.00190 -0.03048
-0.01444 -0.00763 -0.00816
-0.03270 -0.01012 0.03902
-0.00633 -0.00449 0.03314
0.03068 0.00194 0.06388
-0.02485 -0.00753 0.10584
-0.04178 -0.01006 -0.01131
0.02365 -0.00199 -0.02680
-0.01254 -0.00791 -0.02603
0.01303 -0.00451 -0.06033
-0.01070 -0.00759 0.00633
-0.00446 -0.00780 -0.04283
-0.03381 -0.01233 -0.00579
-0.13031 -0.02582 0.06357
-0.01507 0.00025 0.24872
0.03662 0.00062 -0.02685
0.03504 -0.00096 -0.07152
0.00095 -0.00178 0.01019
-0.05353 -0.01430 0.06479
-0.04012 -0.01226 0.04559
0.03415 -0.00108 -0.06968
0.00006 0.01158 0.10322
0.01776 -0.00221 -0.02151
0.03534 -0.00037 -0.06944
-0.00314 0.00327 0.09949
-0.02624 -0.00983 0.03078
0.03711 0.00005 -0.06712
-0.02236 -0.00458 0.01467
-0.20691 -0.02857 0.15112
0.01391 0.00454 0.06642
0.02387 0.00380 0.02768
-0.21513 -0.03276 0.30132
-0.01815 0.00610 -0.01639
-0.05751 -0.01555 0.18783
0.02557 0.00600 0.06926
-0.04368 -0.00842 0.02535
0.03506 -0.00054 -0.07148
-0.01529 -0.00621 0.21175
-0.02759 0.02020 0.34153
-0.00212 -0.00904 -0.10680
-0.00202 0.00771 0.13986
0.03800 0.00032 -0.02302
0.03572 -0.00042 -0.07133
-0.17816 0.08580 0.28941
-0.05293 -0.00868 0.03963
-0.03352 -0.00366 0.06556
-0.03406 -0.01092 0.13227
0.02427 -0.00078 0.05692
0.02373 -0.00282 -0.03380
-0.10619 0.02271 0.19549
0.04315 0.00102 -0.07284
0.02801 0.00161 -0.05143
0.00326 -0.00592 0.01294
-0.12184 -0.01334 0.42871
0.09491 0.03918 0.22360
0.01608 0.00140 -0.03458
0.01819 0.00982 -0.02402
0.04318 0.00145 -0.06825
-0.00509 -0.00793 -0.01750
-0.03545 -0.01206 0.05924
-0.04527 -0.00655 0.05333
0.03148 -0.00010 -0.05456
0.02845 0.00932 -0.03967
-0.00496 0.00204 -0.00129
0.03142 0.00116 -0.03454
0.05943 0.03040 0.38716
-0.05708 -0.01688 0.06071
-0.01088 -0.00999 -0.08116
0.04043 0.00018 -0.07018
-0.00730 -0.00484 0.05041
0.01276 0.00346 -0.01769
-0.05029 -0.01329 0.13872
-0.04218 0.00053 0.16019
0.03221 0.00018 0.00483
-0.02872 -0.00809 0.07720
-0.00756 0.01051 0.05769
0.03900 0.00169 -0.06221
0.04371 0.01917 0.07814
-0.00498 -0.00615 -0.04940
-0.06297 -0.01385 -0.01835
-0.01247 -0.00860 0.01699
0.04395 0.00063 -0.07692
0.04195 0.00204 -0.06196
0.04432 0.00078 -0.07594
0.04294 0.00062 -0.07468
0.00233 0.00114 -0.02818
0.04283 0.00055 -0.07540
0.01073 0.00088 0.01230
-0.02253 -0.00612 -0.01391
-0.09058 -0.00384 0.07045
0.03860 0.00050 -0.06432
0.00479 0.00149 -0.02798
-0.03686 -0.01398 0.00921
0.02608 -0.00092 -0.06914
0.04439 0.00072 -0.07668
-0.00585 -0.00794 -0.09616
0.04179 0.00048 -0.06940
0.01404 -0.00385 -0.04260
-0.09642 -0.00587 0.06236
0.04163 0.00227 -0.05033
-0.04073 0.01018 0.09256
0.03503 -0.00105 -0.07152
-0.08111 0.00608 0.09491
-0.03915 -0.01225 0.11517
-0.14250 0.02363 0.31919
0.00507 0.00742 0.02319
0.01886 0.00398 -0.02118
-0.01121 -0.00004 0.04700
-0.02079 -0.00480 0.01334
0.04403 0.00067 -0.07608
0.00727 -0.00398 -0.01214
0.01181 0.02196 0.12236
-0.03389 -0.01356 -0.01983
-0.04661 -0.01348 0.00966
0.04167 0.00043 -0.07407
0.00730 -0.00143 -0.00962
-0.02092 -0.00545 0.08297
0.01719 -0.00032 0.11632
0.01506 -0.00457 -0.04753
-0.02534 -0.01164 -0.00450
0.04205 0.00856 0.16449
0.04397 0.00064 -0.07692
-0.01894 -0.00044 -0.02339
-0.01271 0.01249 0.00191
0.04430 0.00074 -0.07637
0.02093 0.00156 -0.04038
-0.02169 -0.00664 0.06435
-0.02321 0.00727 -0.03525
-0.05911 -0.01330 0.06594
0.01947 0.01508 0.00051
0.01184 0.01568 -0.00056
-0.00861 -0.00894 -0.06825
0.03427 0.00237 -0.05128
0.04151 0.00277 -0.05396
0.04384 0.00092 -0.07180
0.04373 0.00123 -0.07460
-0.02517 -0.00919 0.10397
-0.01044 -0.00157 -0.07132
0.01447 -0.00462 -0.04395
0.05329 0.00858 0.20184
0.03905 0.00053 -0.06649
-0.00391 -0.00619 -0.01321
-0.01124 -0.00779 -0.02201
-0.02398 -0.00691 0.06569
0.00338 -0.00370 0.01462
0.03092 0.00690 -0.04421
0.01382 -0.01415 -0.03124
0.03665 0.00067 -0.06834
-0.01159 -0.00855 -0.03948
0.00097 0.00542 -0.00200
0.01494 0.00253 0.07732
0.01260 0.00650 0.00469
-0.11541 0.01124 0.15175
-0.01526 0.02433 0.01413
0.02511 -0.00031 -0.04551
0.03696 0.00115 -0.06598
0.04332 0.00070 -0.07408
0.04123 0.00052 -0.07126
-0.00212 -0.00759 0.01245
0.04379 0.00296 -0.04603
-0.06017 0.03971 0.08505
-0.01764 -0.00870 0.02673
0.03187 0.03396 0.22196
-0.07356 -0.01533 0.09462
0.03749 -0.00016 -0.06499
0.02811 0.00716 -0.00604
0.05284 0.02885 0.35785
-0.01274 -0.00327 0.02101
-0.00930 0.01467 0.01727
0.04128 0.00021 -0.07446
-0.05120 0.01043 0.11288
0.02389 -0.00084 -0.01318
-0.03740 -0.00090 -0.01343
0.04062 0.00500 -0.03651
0.04230 0.00096 -0.05896
0.02772 -0.00352 -0.05325
0.02065 0.01214 0.03627
0.04099 0.00060 -0.06259
-0.04003 -0.01466 -0.00961
-0.01862 -0.00630 -0.07178
-0.03377 0.00610 0.03465
0.04469 0.01798 0.07853
0.01173 -0.00320 0.01789
-0.00712 -0.00063 -0.02381
0.00414 0.00653 0.00952
-0.03525 -0.00429 0.06177
-0.00751 -0.00377 -0.00628
0.04440 0.00072 -0.07671
-0.03101 -0.03989 0.14321
0.00715 0.01901 0.19412
-0.02321 0.00073 0.07509
0.04479 0.00138 -0.06932
0.04094 0.00033 -0.07345
-0.00216 -0.00527 -0.05152
0.03160 0.00034 -0.06727
0.01877 0.00066 -0.01512
0.03537 -0.00006 -0.06652
0.02323 0.00125 -0.04210
-0.02199 0.00600 0.13841
0.02585 0.01742 0.00813
0.00324 0.01326 0.00759
0.00324 0.01326 0.00759
0.01577 -0.00383 -0.05392
-0.01361 -0.00555 0.05922
0.02324 -0.00622 -0.04554
0.03254 -0.00108 -0.06354
-0.03861 -0.03814 0.14356
0.02786 -0.01093 0.03144
-0.01712 -0.01500 0.00450
0.04011 0.00117 -0.06412
0.04501 0.00153 -0.06731
0.02599 0.00847 -0.03457
-0.00123 0.00013 -0.03973
0.04117 0.00051 -0.07212
0.03811 -0.00010 -0.06839
0.04135 0.00050 -0.07335
0.03737 -0.00005 -0.06130
-0.00930 -0.02739 0.01195
-0.01273 0.00189 0.09844
-0.03942 -0.00737 0.02458
0.04078 0.00063 -0.07159
0.00384 0.01176 0.02660
0.02400 -0.00160 -0.06209
-0.01341 -0.01321 0.01639
0.03217 -0.00028 -0.06209
0.03379 0.00050 -0.05121
0.01557 -0.00022 -0.01194
0.04282 0.00049 -0.07514
0.03106 -0.02165 0.00460
0.04087 0.00055 -0.07268
-0.00138 -0.04011 0.17390
0.03443 0.00001 -0.06294
0.02686 -0.00202 -0.06353
0.04068 0.00031 -0.06945
-0.21493 -0.01498 0.19830
0.03498 0.01977 0.08863
0.04463 0.00100 -0.07320
0.03517 -0.00086 -0.07145
0.01439 0.03508 0.05109
0.03235 0.00125 -0.06269
0.04399 0.00065 -0.07669
0.02575 0.00071 -0.04760
0.06413 0.01427 0.06419
-0.01322 0.00438 0.07083
0.04395 0.00065 -0.07682
0.07171 0.04074 0.35583
-0.03756 0.00143 0.23232
0.00082 0.03866 0.23048
-0.01362 -0.00587 -0.07657
0.02827 0.00189 -0.05122
-0.01758 -0.00925 -0.05538
-0.00672 0.00723 0.00554
0.02611 -0.00125 -0.06915
0.03765 0.00051 -0.03919
-0.04846 -0.02861 -0.01723
0.03858 0.00067 -0.06834
0.02153 0.01004 0.02075
0.01395 0.02188 0.11950
0.02780 -0.00914 -0.05593
0.03816 -0.00259 -0.06501
-0.03078 -0.01110 0.11207
0.03981 0.00018 -0.05567
0.02402 0.00208 0.26839
-0.17106 0.03097 0.43438
0.08892 0.03840 0.19063
0.03736 0.00024 -0.04839
0.00579 -0.02528 0.01854
-0.02126 -0.02508 0.00765
-0.04273 0.05024 0.12160
0.04279 0.00073 -0.07505
0.04235 0.00053 -0.07392
-0.00409 -0.00032 0.02683
-0.01638 0.01456 0.00990
-0.02226 -0.00568 0.14141
0.00192 -0.00252 -0.03053
0.04003 0.00362 -0.05418
0.04085 0.00147 -0.05036
-0.00359 -0.00205 -0.05033
-0.05914 0.00516 0.17317
-0.02771 0.04049 0.11127
0.04087 0.00033 -0.07378
0.01429 -0.03031 0.01999
0.02610 0.02134 0.12954
0.01019 0.02187 0.12018
0.01531 0.00287 0.01748
0.01386 -0.02761 0.12773
-0.03396 -0.00020 -0.01031
0.00804 0.00224 0.02551
0.00799 0.02409 0.03969
-0.01815 0.01605 -0.00894
-0.03688 0.02008 0.01312
0.01940 0.00531 -0.04887
0.03846 -0.00249 -0.06571
-0.03502 -0.00752 0.12187
-0.02050 -0.00365 0.03053
0.03477 0.00324 -0.05129
0.04408 0.00078 -0.07515
-0.04173 0.01156 0.31750
-0.00757 -0.00732 0.05349
-0.01283 0.00591 0.35704
0.00665 -0.00425 -0.05285
0.04410 0.00082 -0.07547
0.04387 0.00081 -0.07524
0.04361 0.00181 -0.06732
-0.00561 -0.00701 -0.02084
-0.03253 -0.00099 -0.01685
-0.02735 0.01121 0.10540
-0.00668 -0.03694 0.01480
-0.02041 -0.00664 -0.01216
-0.08084 0.00647 0.06404
-0.04587 -0.01531 -0.00240
-0.04067 0.00354 0.03009
-0.01421 0.00190 -0.01054
-0.00609 -0.03856 0.01532
-0.01679 -0.00448 0.00814
-0.04939 -0.00377 -0.00276
-0.05849 0.00330 0.04623
-0.00615 -0.03936 0.01468
-0.01077 -0.02478 0.01180
0.01217 -0.06129 0.12334
-0.01382 -0.03494 0.01029
0.00819 -0.03378 0.00317
-0.03439 -0.00565 0.00281
-0.01242 -0.02150 0.00174
-0.01882 -0.02448 0.01083
-0.00290 -0.00555 -0.01452
-0.00684 -0.04014 0.01526
-0.03529 0.00786 0.00287
-0.03824 0.00169 0.01828
0.00905 -0.03128 -0.00867
-0.01854 -0.03371 0.00814
-0.05194 0.00634 -0.00369
-0.04216 0.00658 0.00153
-0.07988 0.01210 0.07027
-0.02211 -0.01551 0.00740
-0.01080 -0.03596 0.01332
-0.01766 -0.03546 0.00866
-0.00816 -0.03398 0.01324
-0.01751 -0.03613 0.00885
0.01290 -0.05391 0.09490
0.01534 -0.05395 0.09619
-0.05483 0.00098 0.15376
0.04114 0.00033 -0.06916
0.04202 0.00059 -0.07343
0.03397 0.00745 -0.04155
-0.04983 -0.01274 0.04178
0.03687 -0.00023 -0.07138
0.01345 -0.00248 -0.00042
-0.01107 0.00380 -0.00200
-0.04179 -0.01038 0.07143
-0.04179 -0.01038 0.07143
-0.01123 0.00561 -0.00407
-0.03841 0.00237 -0.00726
-0.03360 0.00131 -0.00290
-0.02930 0.00288 0.01877
-0.02438 -0.00016 -0.01016
0.07850 0.02296 0.14804
-0.00114 0.00848 0.00836
-0.01873 0.01623 0.09639
-0.04348 0.00003 0.01447
0.02720 -0.00014 0.03538
0.00168 0.00603 0.01146
0.00516 -0.00227 -0.01655
0.01136 0.00859 0.00034
-0.03281 -0.00002 0.07403
-0.00649 0.00700 -0.01202
0.00568 0.00988 -0.00200
-0.08026 0.00233 0.19126
-0.06005 -0.01895 -0.03750
-0.06313 0.02739 0.14068
-0.05396 -0.02023 0.22744
-0.04607 0.00325 0.00056
-0.02660 0.00264 -0.01625
0.00034 0.00455 -0.02994
-0.05007 0.00282 0.02692
-0.04413 -0.01437 0.00656
-0.00200 0.01101 0.02702
-0.03076 0.00657 0.03476
-0.03246 -0.00709 0.33350
-0.01523 -0.00472 0.09769
-0.04114 -0.01468 0.00576
-0.02389 0.00046 -0.02518
-0.04003 -0.01509 -0.01211
0.01541 0.00688 0.08351
-0.01417 0.01360 0.07438
0.01148 0.00759 0.06269
0.04100 0.00020 -0.07147
-0.00160 -0.00998 0.05411
0.04349 0.00074 -0.07203
0.04371 0.00071 -0.07539
0.03457 0.00026 -0.06960
0.04056 0.00075 -0.07267
0.04259 0.00053 -0.07465
0.03556 -0.00218 -0.07082
0.03837 -0.00029 -0.07069
0.04067 0.00005 -0.07278
0.04216 0.00143 -0.07273
0.03888 -0.00159 -0.06813
0.04313 0.00066 -0.07521
0.03886 0.00090 -0.07069
0.03967 0.00119 -0.06929
0.00405 -0.01906 -0.06726
0.04083 0.00014 -0.07423
0.04299 0.00204 -0.06664
0.03889 -0.00010 -0.07069
0.04194 0.00032 -0.07480
0.04038 0.00045 -0.07189
0.04079 0.00048 -0.07157
0.04211 0.00256 -0.05998
0.00431 -0.00475 0.04484
0.01125 0.00014 0.08263
0.04640 0.00054 -0.06726
-0.04837 -0.00690 0.40292
0.09877 0.02609 0.14528
0.00837 -0.00530 -0.03756
0.04347 0.00068 -0.07155
-0.05940 -0.01664 0.02175
-0.00253 -0.00586 0.01033
-0.00338 -0.00606 0.01199
-0.01248 -0.03640 0.01127
0.01742 -0.00414 -0.05756
-0.01542 -0.00087 0.17458
-0.00649 -0.00988 -0.09840
-0.04126 -0.01352 0.01662
-0.04355 0.00347 0.02810
-0.05519 0.01503 0.11983
-0.05361 0.01484 0.11683
-0.02955 0.01675 0.11534
0.04381 0.00060 -0.07657
-0.00477 -0.00847 -0.10219
-0.03719 -0.01325 0.00133
-0.00174 -0.00919 -0.10489
-0.02278 -0.00593 -0.00212
-0.01492 -0.00296 0.21015
0.03823 -0.00013 -0.06487
-0.02047 0.00337 0.00326
0.04078 0.00159 -0.06671
0.00459 -0.00455 0.00771
0.01917 -0.00339 -0.04782
-0.01773 -0.00918 0.00620
-0.01913 -0.00949 0.00107
-0.01941 -0.00958 0.00143
0.03702 -0.00059 -0.07115
-0.04177 0.01769 0.12829
