# .PCD v.7 - Point Cloud Data file format
VERSION .7
FIELDS x y z
SIZE 4 4 4
TYPE F F F
COUNT 1 1 1
WIDTH 1544
HEIGHT 1
VIEWPOINT 0 0 0 1 0 0 0
POINTS 1544
DATA ascii
-0.00387 -0.08073 -0.02328
-0.00318 -0.07037 -0.02456
0.02042 0.00732 0.03144
0.10098 0.09751 -0.25937
-0.01200 -0.03487 0.00774
-0.01624 -0.03694 0.01541
-0.00509 -0.08850 -0.01973
-0.00478 -0.08797 -0.02165
-0.01318 -0.03605 -0.03517
-0.04267 0.02265 0.01025
-0.01453 -0.02706 -0.01498
-0.00860 -0.03952 0.02535
0.00063 0.01494 0.03659
0.01906 0.01830 0.01356
-0.02053 -0.02331 -0.02765
0.00220 -0.07032 -0.01848
-0.02374 -0.00261 -0.00835
0.02309 -0.02393 -0.01153
-0.00580 -0.05873 -0.02393
-0.00058 -0.06027 -0.02049
-0.01726 -0.02631 0.02847
-0.01019 -0.04502 -0.01994
-0.00368 -0.07376 -0.03153
-0.02764 0.03238 0.04673
0.01080 0.01494 -0.11747
-0.02651 -0.02682 -0.01244
-0.02651 -0.02682 -0.01244
0.03861 0.01821 0.05785
0.02727 -0.02891 -0.00458
-0.02659 0.01812 0.05604
0.02625 -0.01943 -0.00395
0.09243 0.07335 0.20959
-0.02935 -0.01568 -0.00777
0.00993 0.01013 -0.07903
0.02339 -0.03135 -0.00364
-0.05260 -0.00958 0.00828
0.03896 0.01948 -0.03235
-0.02460 -0.03164 -0.01211
0.01310 0.01470 -0.11665
-0.04317 -0.01121 0.04783
0.02733 0.03591 0.02043
0.00522 -0.04566 -0.01494
0.10967 0.05062 0.01932
-0.01215 -0.05829 -0.02118
0.00392 -0.06146 -0.01744
0.00657 -0.00118 -0.10637
0.02537 -0.02379 -0.00533
-0.04060 -0.00356 -0.00449
0.03235 -0.00520 0.01806
-0.00770 -0.06727 -0.02246
-0.01284 -0.01455 -0.06114
0.01241 -0.04156 -0.01262
-0.03568 -0.01274 -0.00808
-0.03892 -0.00175 -0.00397
0.01530 -0.02532 0.07051
-0.04787 0.01036 -0.00212
-0.02828 -0.00241 -0.00197
0.01631 0.01404 -0.14801
0.02849 -0.02234 0.01684
0.01208 -0.01284 -0.07077
0.01478 -0.00278 -0.10050
0.03452 0.03874 0.08498
-0.01931 -0.03002 0.01479
-0.00333 -0.05998 -0.02212
0.01001 -0.03335 0.02913
0.02246 0.03605 0.02183
0.01182 -0.03740 -0.04219
0.01794 -0.03780 0.01539
-0.03631 -0.00537 -0.00032
0.00366 -0.05142 -0.01825
-0.00079 -0.03474 0.00611
0.00123 -0.06792 -0.01815
0.00953 -0.03875 0.02714
-0.00964 -0.04435 -0.02639
0.03866 0.01621 -0.02517
-0.00665 -0.06144 -0.02237
0.01375 0.03429 0.01993
-0.00371 -0.08030 -0.02411
-0.05114 0.01678 -0.00607
-0.00480 -0.05856 -0.02271
0.00454 -0.06968 -0.02364
0.02620 -0.02226 -0.00363
0.01925 -0.03115 0.06199
-0.01355 -0.04163 -0.02946
-0.01386 -0.04670 -0.01914
0.03913 0.03259 -0.18645
0.03334 0.02681 -0.19320
0.01006 -0.00422 -0.00832
0.03954 -0.00531 0.03810
0.02224 -0.00340 -0.02585
0.02788 -0.01626 -0.00590
-0.00354 0.00574 -0.07176
0.01473 -0.03321 0.00754
-0.01345 -0.06552 -0.00620
0.01634 0.01671 0.03559
0.02269 -0.01156 0.02285
-0.00020 -0.07471 -0.02438
0.00675 -0.04518 -0.01607
-0.00196 -0.05496 -0.02644
0.02456 0.01635 0.06817
0.00423 -0.03782 0.02100
-0.03290 -0.00362 -0.00569
-0.04376 0.02613 0.00302
-0.00225 -0.05535 -0.02577
-0.02824 -0.01142 -0.03197
-0.00744 -0.04348 -0.03172
0.00937 0.00006 -0.03753
-0.01844 -0.00091 -0.01760
0.01846 0.00639 -0.07252
0.04192 0.02694 -0.21765
-0.00298 -0.08331 -0.02461
-0.00650 -0.06701 -0.02472
-0.01682 -0.03269 0.00346
-0.01395 -0.03685 0.01705
0.03655 -0.01247 0.03973
0.04916 0.01990 0.07876
0.00107 -0.00111 -0.10114
0.00051 -0.06691 -0.01818
-0.02328 -0.02653 -0.01091
-0.02328 -0.02653 -0.01091
0.04717 0.01874 0.07298
0.03042 -0.00822 0.01102
-0.00108 -0.06219 -0.01681
-0.00181 -0.07154 -0.03131
0.00158 0.01470 -0.10861
0.03764 0.02289 -0.01365
0.00352 0.00839 -0.08988
-0.00597 -0.05905 -0.02321
0.00749 0.00795 -0.08868
-0.01764 0.01571 0.06590
0.05081 0.01801 0.08379
-0.00368 -0.08727 -0.02341
0.01495 -0.03419 0.01672
0.01977 0.01533 -0.12242
-0.01600 -0.01081 0.02946
-0.02331 -0.01654 0.06390
0.04192 0.02692 -0.21762
0.02464 0.00800 0.02706
0.03498 -0.01061 0.04324
-0.00929 -0.01153 0.03979
0.05297 0.10843 -0.01969
0.03388 -0.01861 0.03340
0.01211 -0.01453 -0.00151
0.04625 0.00657 0.06265
0.00903 0.02221 -0.00662
0.03428 0.03493 -0.20373
-0.02355 0.01955 0.00360
0.03738 0.07101 0.06083
0.03738 0.07101 0.06083
-0.00949 -0.06535 -0.02315
0.01644 0.06645 0.03005
0.01644 0.06645 0.03005
0.01899 0.06472 0.03452
0.03482 0.03833 -0.19083
0.04275 0.10138 0.08750
0.02922 0.06820 0.04617
0.01061 0.03043 0.02479
0.00039 -0.05715 -0.02822
0.03039 0.03548 -0.19792
-0.00658 -0.05396 -0.02801
0.05585 0.07437 0.01365
0.01809 -0.03732 0.01388
0.01551 -0.02979 0.01840
0.01540 0.09749 0.05035
0.03493 -0.01378 0.00958
-0.02833 0.02184 0.00442
-0.01901 -0.03380 -0.01157
0.03471 -0.01597 0.00763
-0.00260 -0.05186 -0.02096
-0.00742 -0.01266 -0.00077
-0.03837 0.00830 -0.00295
-0.03274 -0.00706 -0.00452
-0.03901 -0.00430 -0.00464
-0.04172 0.00525 -0.00575
0.01737 -0.01439 0.00038
0.02579 -0.02778 -0.00975
0.00256 0.01388 -0.12193
-0.00269 0.01132 -0.09847
0.04232 0.02578 -0.21474
0.03377 -0.00816 0.02298
0.01006 -0.00422 -0.00832
-0.02956 0.12114 -0.00133
-0.01112 -0.00697 0.05448
-0.02292 -0.01261 -0.00384
0.04034 -0.00093 0.01131
0.01439 -0.00312 0.03261
-0.00333 -0.05254 -0.01823
0.02414 0.00022 0.00004
0.04012 0.07565 0.00974
-0.00645 -0.07469 -0.02478
0.00350 -0.05510 -0.00896
0.00398 -0.05039 -0.00958
0.02121 -0.03612 0.01433
-0.07724 0.12535 -0.01201
0.02764 0.04965 -0.08627
-0.05530 0.12463 -0.00518
-0.00255 -0.00770 0.05940
0.04089 0.00023 0.05596
0.00762 0.10597 0.00533
0.00626 -0.02724 -0.00034
0.01387 -0.01024 0.00001
-0.00402 0.10607 0.00175
-0.01066 -0.00060 -0.02582
0.04484 0.01891 -0.21077
-0.03763 -0.00212 -0.00412
0.02296 0.05287 -0.12090
-0.01108 -0.03919 0.08525
-0.01128 -0.06920 -0.00790
-0.01168 -0.00565 0.00022
-0.02936 -0.02103 0.03784
0.01819 -0.01080 0.04318
-0.04919 -0.00168 0.00361
-0.05438 0.03181 -0.00488
0.01649 -0.01251 -0.05159
-0.00235 -0.01669 0.04204
-0.06626 -0.00818 0.06091
0.01632 0.01715 0.00748
0.04125 0.02225 -0.01217
-0.05593 0.03004 -0.00394
-0.04270 0.00387 -0.00718
0.01248 0.01911 0.00056
-0.02110 -0.03154 -0.00049
0.01244 -0.00243 -0.02915
0.00777 -0.01285 0.03924
0.01542 0.06048 -0.13965
-0.02159 -0.00074 -0.02321
0.00820 0.01820 -0.00361
-0.05288 0.01668 0.01348
0.04336 0.00698 0.03837
-0.01175 -0.01366 0.04182
0.00637 -0.04986 -0.00748
-0.07853 0.11329 -0.00882
-0.05943 0.02671 0.01974
-0.05256 0.02755 -0.00506
0.02258 0.03442 0.06799
-0.01189 -0.02663 0.20855
0.03919 0.00422 0.04951
0.03467 -0.00790 0.01595
0.03786 -0.01481 0.02274
-0.00341 -0.00460 -0.00514
-0.02039 -0.03518 0.00887
0.02126 -0.00345 0.04656
0.01005 -0.03577 0.01916
-0.02529 -0.02242 0.00310
0.02573 0.06254 -0.11668
-0.00976 -0.03359 0.01085
-0.00468 -0.00335 -0.06607
-0.03198 -0.00824 0.00616
0.04412 0.04780 -0.28668
0.02663 -0.00861 0.00760
0.00387 0.00011 0.00165
-0.03938 0.00777 0.00135
-0.05240 -0.01949 0.07755
0.02924 0.01236 -0.00963
0.00570 -0.03307 0.01757
0.00570 -0.03307 0.01757
0.00386 -0.01223 0.00891
0.03623 -0.00640 0.01324
0.03623 -0.00640 0.01324
0.02491 -0.01697 -0.02649
0.04105 0.01868 -0.19427
-0.03568 -0.01274 -0.00808
0.02169 -0.02402 -0.01667
-0.01161 0.03618 0.01487
0.02596 0.02354 0.02055
0.05759 0.05638 -0.12465
-0.02874 -0.01064 -0.00283
0.02846 0.05368 -0.11450
-0.00089 -0.07806 -0.02297
-0.00445 -0.01218 -0.00016
-0.01770 -0.02524 -0.02105
0.02361 0.00035 0.01639
-0.00027 -0.01174 0.00014
-0.03591 -0.00321 -0.01342
-0.02735 0.03695 0.05178
0.01143 -0.02184 -0.03445
0.01709 0.03721 0.06545
0.01103 -0.00566 0.00677
0.03205 0.01233 -0.00491
0.00326 -0.01889 -0.04410
0.02795 -0.00364 0.01429
-0.00104 -0.02328 -0.03002
-0.04417 -0.01246 0.00097
-0.01520 -0.01240 -0.00523
-0.04295 -0.00351 -0.00057
0.02006 -0.02211 -0.02154
0.01593 -0.02255 -0.02839
-0.03653 -0.00652 -0.00125
0.00635 -0.00177 -0.04979
-0.03234 -0.01097 0.00201
-0.02402 -0.01293 0.01287
0.04899 0.02488 0.02323
-0.05376 0.02960 -0.00298
0.01577 0.05765 -0.13665
0.01774 -0.01018 0.00171
0.01417 -0.01625 0.03636
0.02081 -0.01127 0.00565
0.02531 -0.01761 0.03835
-0.02472 -0.01082 0.00456
-0.01637 -0.00454 -0.02970
-0.00314 -0.05961 -0.02269
-0.02938 -0.02955 -0.01063
-0.00903 -0.04199 0.01566
-0.00243 -0.03313 0.01453
0.02866 0.00750 0.01356
-0.02690 -0.01003 0.00330
0.00667 -0.02077 -0.04009
0.01421 0.01081 -0.13639
-0.00384 -0.01915 -0.04502
-0.02497 -0.01071 -0.05810
0.01819 0.05132 -0.13653
0.00987 0.00037 -0.04436
0.01680 -0.04078 0.04305
0.02209 -0.03405 0.01703
0.00582 -0.02296 0.06362
0.02262 0.05203 -0.12709
0.02373 0.00016 0.05457
0.02817 0.00033 0.00467
0.01902 -0.00495 0.04809
0.04679 0.02023 0.00258
0.03772 0.01236 0.00193
-0.02912 0.00262 0.00731
0.02933 0.00003 -0.01336
0.00775 -0.02117 -0.03779
0.02289 -0.02747 0.05926
0.03117 -0.00471 -0.01255
0.00429 0.01616 0.07041
-0.08363 0.06394 -0.00849
-0.01259 0.01886 -0.00144
-0.01057 -0.00492 -0.00683
0.00154 -0.06150 -0.01932
-0.03375 0.00807 -0.06466
0.02177 -0.01116 -0.07860
0.03041 -0.00266 -0.01104
-0.01624 -0.01606 -0.05037
0.03976 0.01032 0.03620
0.01766 -0.03799 0.04309
-0.01441 -0.02799 -0.01531
0.01283 -0.00703 0.06596
-0.03760 0.00007 0.00216
0.02682 -0.01760 0.00718
0.02487 0.00159 0.01022
0.02685 -0.00590 -0.02274
0.01173 -0.01753 0.03437
0.02606 -0.02303 -0.00348
0.01952 -0.00349 0.01436
0.01641 0.05077 -0.14025
0.03072 0.05204 -0.00952
0.01297 -0.00759 0.03892
0.03885 0.04366 -0.17210
0.01987 -0.03012 0.01194
0.01987 -0.03012 0.01194
0.02152 0.00134 -0.02995
0.01956 0.05239 -0.13164
-0.04421 -0.01207 0.00263
-0.02655 -0.03603 0.00548
-0.00130 -0.00965 0.00744
-0.02290 -0.02992 0.01507
0.01623 0.05134 -0.13968
0.04771 0.02385 0.00836
0.00485 -0.00376 0.02853
0.03489 -0.01131 0.03017
0.02095 0.05279 -0.12872
-0.00143 -0.00155 0.01177
0.00923 -0.01749 0.03237
-0.03133 -0.00658 -0.00321
-0.02395 -0.00371 -0.01589
0.01875 -0.00843 0.04595
-0.01128 -0.06920 -0.00790
-0.01092 -0.01614 -0.01550
0.01524 -0.01714 0.03729
-0.00056 0.01907 -0.01119
0.00945 0.03206 -0.00733
-0.00200 0.00819 -0.07873
0.02871 0.01870 -0.07239
-0.03212 -0.01424 -0.00734
-0.04601 0.00151 -0.00340
-0.00757 0.00260 -0.01879
-0.00290 -0.05071 -0.02401
-0.00565 -0.05089 0.06687
0.02039 -0.01973 0.04405
0.03003 -0.01590 0.01329
0.01223 -0.00313 -0.04171
-0.00329 -0.03868 0.15890
-0.01898 -0.01774 0.03965
0.00667 -0.03972 0.04337
-0.01993 0.02033 0.00154
0.00365 -0.01484 0.02123
0.00467 0.03525 -0.01672
-0.00623 -0.05172 -0.02110
-0.00909 -0.05604 -0.00910
-0.03883 -0.04076 0.04520
0.00572 -0.00933 -0.01089
-0.01658 0.00647 -0.00250
0.02685 0.00581 -0.09418
-0.03784 -0.00016 -0.01752
0.03940 -0.00234 -0.00081
-0.01834 0.01524 0.05517
-0.05105 0.00963 -0.00675
-0.09964 0.08753 0.03391
-0.00987 -0.05269 -0.02825
0.04542 0.04054 0.06880
-0.00880 -0.03258 -0.01010
-0.00118 -0.03695 0.01688
0.04043 0.00760 0.02404
0.00782 0.00692 -0.07814
-0.00174 -0.01479 -0.01904
0.01535 -0.00025 0.03445
0.01523 -0.01417 0.03767
-0.00895 -0.02455 -0.02556
-0.03945 -0.02337 0.04579
0.02380 -0.02014 0.03079
-0.01682 -0.00206 -0.05686
-0.00834 -0.00461 -0.02926
-0.00262 -0.01070 0.00403
0.01469 -0.03498 0.01407
0.02190 -0.02727 -0.00383
0.05995 0.05402 0.01759
0.00334 0.01430 0.03154
0.03508 0.01906 0.01783
0.00317 -0.04334 0.02365
-0.00662 -0.00134 0.01101
-0.00018 -0.00287 0.02217
-0.03719 -0.00221 -0.01102
-0.01449 -0.01804 0.04039
-0.01547 -0.05005 0.06078
0.04053 0.00076 0.05132
0.00250 -0.06727 -0.01816
-0.00677 -0.00995 0.00939
-0.02535 -0.02669 0.06629
-0.00564 -0.04712 -0.01678
-0.00564 -0.04712 -0.01678
-0.04659 -0.07644 0.17378
-0.00475 -0.01144 -0.00045
-0.01500 -0.03989 0.01039
0.02302 0.01413 -0.12285
-0.00356 -0.06339 -0.01877
-0.02811 -0.04013 0.03331
-0.00860 -0.05929 -0.02749
0.00305 -0.06287 -0.01956
0.00279 -0.06366 -0.01788
-0.00470 -0.07789 -0.02829
-0.03122 -0.03033 0.02042
-0.04031 0.02271 0.01605
-0.02873 -0.02338 -0.00311
0.00305 -0.05178 -0.01117
0.01016 -0.03470 0.01151
-0.00469 -0.03138 -0.00642
-0.02847 -0.02256 -0.00597
-0.02032 -0.02305 -0.02852
0.07909 0.02447 -0.04159
0.07905 0.00598 -0.00828
0.08780 -0.02141 -0.05780
0.03307 0.02752 -0.18366
-0.03123 -0.01692 -0.00991
-0.04422 0.02920 -0.03469
-0.00257 0.04531 -0.14854
-0.01226 0.02186 -0.00573
0.00640 -0.05797 -0.01164
-0.03267 0.02917 0.00360
-0.05537 0.02039 0.08966
-0.00114 -0.02282 0.01623
-0.04702 0.00266 -0.00907
-0.10894 0.11237 0.18652
0.00749 -0.01250 0.01168
-0.03838 -0.00065 -0.00209
-0.04383 0.01402 0.00045
-0.03373 -0.03612 0.09910
-0.03374 0.01015 -0.00488
-0.02027 -0.01248 0.03582
-0.03758 -0.00943 0.03093
-0.07255 0.11183 -0.00946
-0.05039 0.02998 0.00139
-0.03789 0.00090 -0.00608
-0.00016 -0.07714 -0.02112
-0.00653 -0.06682 -0.02207
-0.04720 0.02729 0.00165
0.02657 0.01231 -0.16053
-0.01486 -0.00384 -0.01039
-0.00367 -0.00620 -0.00292
-0.06813 0.02729 0.03301
-0.05679 0.03391 -0.00368
0.03105 -0.00971 0.01714
0.02777 0.04725 -0.14757
0.00717 0.03397 -0.02849
-0.05437 0.01925 -0.00572
0.01793 -0.02619 0.00416
0.01016 -0.03561 0.01839
0.00026 -0.07304 -0.00654
-0.01041 -0.04497 -0.02061
-0.00245 -0.07563 -0.02277
-0.01643 0.01279 -0.00788
0.00392 0.00853 0.01075
0.01751 0.03344 0.06018
-0.04100 0.03128 0.00488
-0.05405 0.02538 0.00080
0.01718 -0.00494 -0.02991
0.05227 0.02072 0.08158
-0.08115 0.12403 -0.01241
-0.00612 -0.08452 -0.02528
-0.03256 0.02036 -0.00247
0.03009 0.02661 -0.13617
-0.07966 0.15428 0.15106
-0.04206 0.01191 0.02116
-0.04385 -0.01521 -0.00082
-0.03528 -0.00272 0.00394
0.00526 -0.01896 0.00987
0.02185 -0.01888 0.00540
-0.02556 0.02369 -0.00147
0.01766 -0.03400 -0.00356
0.02913 -0.01828 0.01688
0.02649 -0.01065 0.01152
0.01189 -0.03563 -0.00246
0.03056 0.03398 0.06939
-0.03632 -0.00568 -0.00097
-0.01937 -0.00625 -0.01360
0.03262 -0.00645 0.01961
-0.05238 -0.04282 0.11242
-0.01784 0.06823 -0.00764
-0.01784 0.06823 -0.00764
-0.00237 -0.00631 0.00066
-0.01053 -0.00991 0.02275
0.01631 -0.01938 -0.00136
0.01887 -0.03195 0.05542
-0.01436 -0.03113 -0.01386
0.02203 -0.01875 0.00414
-0.04277 0.01382 0.01234
-0.02572 -0.03682 0.00567
0.01389 -0.02663 0.03896
0.07883 0.00342 -0.01832
0.02909 0.00316 -0.06958
0.00098 -0.00197 0.02912
-0.00462 -0.02874 0.03819
0.01414 -0.02611 -0.00397
0.00638 0.06429 -0.11917
0.01902 -0.02155 -0.00405
-0.04373 -0.00091 -0.00676
-0.01375 -0.02853 0.03773
-0.02361 -0.01724 0.03613
0.01097 0.08535 -0.08883
-0.03280 -0.00788 0.03047
-0.03473 -0.00694 -0.00114
0.02680 0.00360 -0.07236
0.00172 -0.02408 -0.00392
-0.03655 -0.00810 -0.01904
0.03016 -0.01133 -0.03835
-0.00488 0.05533 -0.10404
-0.00898 -0.04214 0.01572
0.02382 0.09142 -0.07471
-0.05213 0.02869 0.00141
0.00403 0.02008 -0.00836
0.00144 0.03158 0.01208
-0.02876 -0.00184 0.03807
-0.03462 -0.00560 -0.00748
0.00519 0.01129 0.03840
0.00239 -0.02486 0.03041
0.01167 -0.01188 0.00032
0.01119 -0.01242 0.00060
0.04111 -0.00133 -0.01873
0.00066 -0.01564 0.01274
0.00566 -0.03064 0.00490
-0.01187 0.00781 -0.08699
0.00353 -0.05455 0.02170
0.01253 -0.02990 0.00156
-0.04552 -0.00770 -0.01240
-0.04700 0.03531 0.00356
0.00501 -0.02710 0.03321
-0.02646 -0.01342 0.02348
-0.05067 0.01387 0.00435
0.01946 -0.01826 0.07173
-0.03841 0.00824 -0.00299
0.02576 0.01239 -0.09713
0.00345 -0.06017 -0.02231
0.01333 -0.01594 -0.04277
-0.00458 0.01109 -0.10834
0.00035 -0.03150 0.01352
0.00051 -0.02707 -0.00557
-0.05717 0.02189 -0.00861
0.00815 -0.01284 0.00786
-0.02184 -0.01933 0.04282
-0.02633 -0.00663 -0.01343
-0.02749 -0.00826 -0.00385
0.00401 -0.05761 -0.04402
-0.04085 -0.00280 -0.00162
-0.01118 -0.04550 -0.02507
-0.00508 -0.08267 -0.02397
0.02031 -0.00984 -0.01640
-0.00141 -0.08422 -0.02257
0.01425 -0.01417 0.05313
-0.03708 -0.01068 0.02110
-0.00961 -0.04731 -0.03620
-0.01219 -0.00637 -0.00066
-0.00935 -0.02682 0.11485
-0.00703 -0.00714 -0.00018
-0.05958 0.00895 0.01820
-0.05081 0.00663 -0.00275
-0.01644 0.04808 -0.07511
-0.02745 -0.02456 -0.01778
0.03220 -0.00034 -0.03732
-0.03149 0.00697 0.03749
-0.04509 0.00005 -0.00645
-0.04471 -0.00702 -0.01362
-0.02247 0.01138 0.00308
-0.00085 0.01235 -0.01610
0.00834 -0.04514 -0.01445
-0.00448 -0.04880 0.06946
-0.01220 0.00720 -0.06882
-0.03794 0.00306 -0.00445
-0.02203 -0.01722 0.12754
-0.01813 -0.00551 -0.01672
-0.00898 -0.05541 -0.03066
-0.04455 -0.08963 0.21220
-0.04580 0.01807 -0.00892
0.00527 -0.01266 -0.00038
-0.03010 -0.00771 -0.00509
-0.01125 -0.02570 -0.00526
-0.03741 -0.01296 0.02474
-0.01296 -0.04431 -0.02308
0.02515 -0.02094 0.02271
-0.00373 -0.07092 -0.02103
-0.03531 -0.01141 -0.01870
-0.03776 -0.00748 -0.01991
-0.03892 -0.00090 -0.01742
-0.03704 -0.01433 -0.00681
0.01949 0.03794 -0.16405
-0.05505 0.01045 0.01787
-0.05517 0.01031 0.01777
-0.00690 -0.05651 -0.03419
-0.00672 -0.06666 -0.02362
-0.05987 -0.00071 0.03314
-0.00062 -0.07043 -0.02532
0.00587 -0.04673 -0.02177
-0.04832 -0.01122 0.00680
-0.00083 -0.06822 -0.02208
0.00079 -0.06778 -0.02052
0.00090 -0.06501 -0.00560
-0.04827 -0.01235 0.00695
-0.01151 -0.05023 -0.01645
0.00684 0.07851 0.05773
0.05260 0.04096 0.07868
0.00887 -0.04492 -0.01706
-0.00237 -0.07418 -0.02388
0.04570 0.01451 -0.03350
-0.00571 -0.07190 -0.02577
-0.04721 -0.01283 0.00656
-0.05477 0.01748 0.00008
-0.06677 0.03217 0.03083
-0.00604 -0.06853 -0.02224
-0.03906 -0.00439 0.02120
-0.00581 -0.06976 -0.02744
-0.01105 -0.05552 -0.02510
-0.02350 -0.05540 0.01488
0.00624 0.00296 -0.05378
-0.01396 -0.00781 0.01439
0.00871 0.00563 -0.07045
-0.01767 -0.01549 -0.04540
0.03626 0.01531 0.06990
-0.03799 -0.00178 -0.00972
0.01965 -0.02758 0.01327
0.04603 0.01368 0.08305
-0.00253 0.03337 0.00385
-0.04242 -0.00405 -0.00978
-0.02906 0.02250 -0.00193
-0.02184 0.03402 0.04795
0.02000 0.01433 0.04954
-0.03359 -0.01459 -0.00465
-0.02732 0.00389 0.00019
-0.05644 -0.03058 0.21698
0.03162 0.02243 -0.02422
-0.00266 -0.00609 0.05034
0.00890 -0.00169 0.01802
-0.02313 -0.02717 0.00622
0.03245 0.00291 0.02589
-0.00895 0.01559 0.01938
-0.03618 -0.00614 -0.02018
-0.00089 -0.05586 -0.02654
-0.01948 -0.04369 -0.00587
-0.04172 0.00750 -0.00526
-0.13173 0.01638 0.27419
-0.03707 0.00131 -0.00191
-0.02127 -0.03538 0.00141
0.01915 -0.03510 0.02643
-0.03734 -0.01114 -0.00170
-0.00803 -0.05931 -0.02501
-0.08761 -0.06594 0.14651
0.04288 0.04783 -0.16120
0.04875 0.05658 0.01260
0.00121 0.00382 -0.04872
0.00612 -0.00640 0.00733
-0.01957 -0.00749 -0.04316
-0.00894 0.00102 -0.04225
-0.03161 -0.02085 -0.00780
0.01955 0.01182 -0.02505
-0.01891 -0.00129 -0.06001
0.02249 -0.02480 0.00534
-0.00488 -0.01919 -0.05133
-0.05583 0.02444 0.01026
-0.02163 -0.02625 0.00086
0.02697 0.01120 -0.00834
-0.03020 -0.00822 -0.00168
0.02857 -0.00906 0.00834
-0.04466 0.01435 0.01334
0.03840 0.06237 0.01835
-0.02597 -0.02550 -0.02263
-0.04096 -0.01419 0.00895
0.00004 -0.06420 -0.01884
0.03089 -0.00944 0.01445
-0.01461 0.07983 0.00463
-0.05020 0.01554 0.01633
0.05005 0.00961 0.04595
-0.03556 0.00617 0.01561
-0.05354 0.08282 -0.00224
-0.03777 -0.02062 0.00043
0.04351 0.01521 0.04804
0.01950 0.01310 -0.10425
-0.00004 -0.06530 -0.05311
-0.00936 -0.06710 -0.02771
-0.02288 -0.03906 0.01873
-0.03262 0.01281 0.00777
0.02066 -0.00940 0.04476
0.03264 0.10340 0.00661
0.02393 -0.00419 -0.02749
0.02214 -0.00732 -0.00687
-0.04932 0.02533 -0.01231
0.01641 -0.02573 0.03622
-0.02305 -0.04095 -0.00447
-0.02022 -0.03924 -0.01279
0.02568 -0.01246 0.04364
-0.01096 0.00912 0.00993
-0.00521 0.01331 -0.02513
-0.03636 -0.00384 0.01677
-0.04053 0.01826 -0.01459
-0.06739 -0.01775 0.13084
-0.05088 0.01659 0.01099
-0.03065 0.12479 -0.00130
0.04106 0.03130 -0.22503
0.00774 -0.05424 -0.01090
-0.01097 0.05220 -0.00001
-0.02001 0.04019 0.00529
-0.02825 -0.00873 0.00510
-0.02754 -0.00505 -0.01018
-0.02840 -0.00905 0.00625
0.00877 -0.03258 0.00056
0.04708 0.01288 0.03289
-0.00805 -0.08917 -0.01611
-0.01844 -0.00042 0.03327
0.01961 -0.02118 0.04964
-0.03840 0.00770 0.00373
-0.03933 -0.01362 -0.00090
-0.03533 -0.01611 0.02619
0.05064 0.04127 -0.27258
-0.00325 -0.07054 -0.02416
-0.00852 -0.05909 -0.02791
-0.03453 0.00519 0.00330
0.02906 -0.00509 0.00623
-0.04381 0.02594 0.00333
0.04245 0.01621 0.07530
-0.02213 0.03273 0.05669
-0.02229 -0.03492 0.01208
0.01918 -0.03311 0.01718
0.03069 -0.00044 0.05707
-0.00833 -0.00396 0.01870
-0.03705 -0.00993 0.00328
0.00794 0.01567 0.04833
0.02572 -0.01597 0.04545
-0.01142 0.03897 0.01308
0.00993 0.01404 -0.03925
-0.00069 -0.06300 -0.01879
-0.04016 -0.00231 -0.00390
0.00761 -0.03111 0.00302
0.01180 -0.02444 0.02419
-0.02910 0.01539 -0.01516
-0.02000 -0.05379 0.05664
0.03860 0.02195 -0.00749
0.00079 0.00937 0.00626
0.01507 -0.02859 -0.00370
0.04282 0.02376 0.01762
-0.01038 -0.00591 -0.05542
0.00877 -0.03258 0.00056
0.02029 -0.01372 0.00701
-0.04622 -0.01308 0.00324
-0.01522 -0.01350 -0.04377
0.00357 -0.04997 -0.01795
-0.01753 -0.04534 -0.00254
-0.00317 -0.06027 -0.02144
-0.00530 -0.06815 -0.02820
0.02431 0.01732 0.01533
-0.01578 -0.04520 -0.01225
0.01026 0.01295 0.07358
0.01417 0.05848 -0.05530
-0.01101 -0.04422 -0.02465
0.00420 -0.05772 -0.02174
0.04727 0.01257 0.01846
0.00219 -0.02198 -0.04371
-0.00675 0.00321 -0.02275
0.01545 -0.03138 0.02518
0.00044 -0.06209 0.03454
0.02950 0.00243 0.01277
-0.01561 0.01922 -0.00100
0.00868 0.00562 -0.07026
-0.00121 -0.07649 -0.02515
0.02832 -0.01177 0.02228
0.00095 -0.05941 -0.02083
0.01995 0.01824 0.01770
0.02066 -0.00870 -0.01094
-0.00082 0.03340 -0.00609
0.00308 -0.00522 -0.00167
-0.00691 -0.06443 -0.00785
0.02133 -0.02982 -0.00184
-0.03757 -0.01215 -0.01173
0.01199 -0.00660 -0.00139
0.03384 -0.00664 0.00193
0.04953 0.02400 0.00834
-0.04891 -0.00865 0.00647
0.03604 0.01931 0.06299
0.03039 0.03429 0.07171
0.01609 -0.03325 0.00490
0.01791 0.00629 -0.08472
-0.00662 -0.00698 -0.07859
-0.02101 -0.02194 -0.02535
-0.03744 -0.00047 -0.01702
-0.04316 0.00985 0.00038
0.03247 -0.00226 0.01934
0.03201 -0.01891 0.02097
0.00218 -0.03026 0.01114
0.00813 -0.04621 -0.01369
-0.03835 0.00559 -0.01155
0.03473 -0.00611 0.00348
0.00769 -0.02477 0.02596
0.00432 -0.05967 -0.01322
0.04260 0.04259 0.11612
-0.01887 -0.04338 -0.01761
0.03355 0.00742 0.06121
0.00082 0.00625 -0.07338
0.02099 -0.00426 -0.00711
-0.01247 0.03208 0.12061
-0.00259 -0.05658 -0.03075
-0.00278 -0.05698 -0.02959
-0.06417 0.01485 0.02464
0.02052 -0.02536 0.03983
-0.02012 -0.01969 0.01007
-0.02012 -0.01969 0.01007
0.01463 0.00084 0.04427
0.03820 0.00779 -0.11924
0.01552 0.00343 0.02070
-0.00235 -0.00323 0.03562
0.00774 -0.02800 0.03966
0.02713 -0.00681 -0.02695
0.01617 -0.02078 0.00893
0.03911 0.00232 0.05890
-0.04952 -0.01318 0.00975
0.03445 0.01058 0.07208
0.03804 -0.02142 0.05304
-0.00214 -0.07429 -0.02179
-0.00029 -0.02943 0.00805
0.02978 -0.00724 0.01584
0.02430 0.00274 -0.07150
0.01517 -0.01494 0.04159
-0.01814 -0.06802 0.09912
0.03267 0.01631 -0.18097
0.02142 -0.01060 0.02223
0.02482 0.00471 0.04184
-0.00729 -0.01274 0.04366
0.00283 -0.02128 -0.00100
0.00707 -0.01065 0.03466
0.02035 -0.01393 0.00020
0.02939 0.01014 0.11077
0.03773 -0.00378 0.00892
0.01105 -0.02244 0.07393
0.02759 0.01533 0.01234
0.03879 -0.00432 0.03378
0.00775 -0.05099 0.00914
-0.02339 -0.02452 -0.00419
-0.06624 -0.04653 0.07362
-0.03543 -0.03287 0.00582
-0.02486 -0.02758 -0.00231
-0.00586 -0.00262 -0.01481
-0.00743 -0.00391 -0.00591
-0.00057 -0.03009 -0.00639
0.02362 -0.00014 -0.11706
0.04484 0.01833 0.03156
-0.06332 0.01553 0.02548
0.01122 -0.01312 0.03154
-0.01707 -0.00584 0.00900
0.00781 -0.01546 0.03248
-0.01535 -0.03334 0.01630
-0.03687 -0.02654 -0.00681
-0.00370 -0.03791 0.03403
0.01060 -0.00559 -0.00757
0.01349 -0.01078 0.00321
-0.03890 0.10382 -0.00319
0.02830 0.00730 0.00023
0.02649 -0.01129 -0.07135
-0.04894 0.02466 0.00896
-0.02369 0.02291 -0.00306
-0.03570 -0.02645 -0.00277
-0.03570 -0.02645 -0.00277
0.01689 -0.03185 0.00195
-0.05105 0.00452 0.00869
0.03948 0.03538 -0.21659
0.00875 -0.01171 0.02898
0.02149 -0.02638 0.03689
-0.03697 -0.05995 0.09442
-0.03541 -0.01679 0.01106
0.04849 0.01317 0.03408
-0.02141 0.00354 0.00875
0.01039 -0.00598 0.08087
0.02719 0.01100 -0.12286
-0.05302 -0.00563 0.01048
-0.01907 -0.03382 -0.01142
-0.04803 -0.00604 0.00078
0.00944 0.00315 -0.07603
0.02048 -0.00163 -0.06286
0.05229 0.05113 -0.24174
0.05049 0.02045 0.06515
0.00178 -0.00055 0.00770
0.00371 -0.04678 -0.01346
0.02274 0.00562 0.01799
0.00232 -0.01147 -0.00140
-0.00200 -0.01668 0.03323
-0.03498 0.01203 0.01249
-0.02101 0.00978 0.01271
-0.03964 -0.01409 0.00736
-0.03448 -0.01969 0.01468
-0.01530 -0.01126 -0.05446
-0.03035 -0.01892 0.00739
0.00334 -0.06048 -0.02092
-0.01824 0.00656 0.09794
0.00751 0.03126 0.05837
0.01449 -0.00779 0.00233
-0.00693 -0.06822 -0.02599
-0.03305 0.02096 0.00535
-0.00339 -0.08702 -0.02092
0.00078 0.00431 -0.07250
-0.00524 -0.02702 -0.01822
-0.02380 0.01243 -0.00666
0.00236 -0.06012 -0.01896
-0.00029 -0.06277 -0.01897
0.03304 -0.00758 0.00783
-0.01014 0.00229 -0.00881
-0.00461 -0.00003 0.00390
0.00710 -0.04667 -0.01912
0.01171 -0.03597 -0.00176
0.04168 0.02275 0.01185
-0.14209 0.00641 0.19613
-0.01325 0.09026 -0.07626
0.00050 -0.00247 0.03215
0.01428 0.00620 -0.05751
0.01544 -0.02660 0.03205
-0.05564 -0.06798 0.14638
0.04000 0.03540 -0.22067
-0.05536 -0.03675 0.10171
0.01652 -0.01081 -0.00739
-0.02228 -0.04684 0.06525
-0.01346 -0.02959 0.00157
0.03986 0.00293 0.04081
0.03376 0.01657 -0.10037
-0.00704 -0.04321 0.04723
0.05074 0.02331 0.03740
0.03553 0.01257 -0.04219
0.00461 -0.03006 -0.01264
0.01776 0.00899 -0.12716
0.00323 -0.00984 -0.01229
0.04132 0.03073 -0.22886
-0.00032 -0.06757 -0.02041
-0.01537 -0.03604 0.01151
-0.02965 -0.00308 0.03672
0.01013 0.02888 -0.01875
0.02382 0.01799 -0.01655
-0.07855 -0.00510 0.05954
0.09167 -0.03188 -0.04746
0.00340 0.02855 -0.01795
-0.01271 -0.02671 -0.01925
0.00113 -0.03138 -0.00815
0.06746 0.03891 -0.13216
-0.05079 0.04429 -0.06435
-0.01482 -0.05148 -0.02057
0.00210 -0.00320 -0.01534
0.03383 0.00899 -0.02202
-0.05028 0.04679 -0.06486
0.02417 0.02079 -0.05014
0.01860 0.06079 -0.09519
-0.01493 0.00000 -0.03566
-0.02201 -0.02362 -0.01859
0.00312 0.01200 -0.08742
-0.00992 0.01596 0.02962
-0.00675 -0.06139 -0.01867
0.01733 -0.01895 -0.04055
0.01819 0.08501 -0.02640
-0.02061 0.00206 -0.06677
0.02322 0.08373 -0.04820
-0.03816 -0.00000 -0.02141
0.09899 0.16651 -0.97318
0.04128 0.03073 -0.22887
0.00669 0.00855 -0.08660
-0.00102 0.00236 -0.04710
0.00835 -0.01062 0.02622
0.02395 -0.00968 -0.04816
0.02725 -0.01557 0.04139
-0.03620 -0.00126 -0.01880
0.07007 0.02045 -0.06364
-0.01079 0.05487 -0.15790
-0.06846 0.03987 0.10507
-0.01984 -0.01965 -0.05459
0.02454 -0.01399 -0.03320
0.03841 0.00415 -0.04684
-0.03614 0.01316 0.00723
-0.00412 -0.02957 -0.01827
0.01841 0.01264 -0.02550
-0.05181 0.01747 -0.00488
0.01545 0.01918 -0.13230
0.00844 0.00842 -0.08451
0.01500 0.00732 0.02402
-0.00532 0.00953 0.00422
0.00784 -0.00290 -0.04613
0.00899 0.00011 -0.05891
0.02915 0.01889 -0.01712
0.04302 0.00782 -0.05058
-0.00425 -0.01008 -0.06964
-0.03423 -0.00498 -0.00467
-0.03155 -0.00140 -0.02457
-0.04023 0.10090 0.16862
0.03088 -0.00910 0.02105
-0.00065 -0.05912 -0.02181
-0.08956 0.05921 0.08943
-0.00280 -0.04220 0.01993
0.00316 0.00837 -0.09839
-0.04677 0.00505 -0.00974
-0.02196 -0.01842 -0.00542
0.01751 -0.00526 -0.02095
0.02461 -0.00485 -0.02982
-0.00672 -0.00851 -0.06523
0.00523 -0.03221 0.00734
-0.04314 -0.01798 0.04622
0.03254 0.00470 -0.08017
-0.02856 -0.01383 -0.01434
-0.03578 0.01104 -0.06412
-0.04403 0.00179 -0.00885
0.01579 0.00486 -0.02746
0.00853 -0.01233 0.00680
-0.09244 0.08322 -0.01146
0.00119 -0.03681 0.01692
0.02654 -0.00759 0.00065
-0.00298 -0.03475 0.01035
0.01869 -0.03446 0.01449
0.02620 -0.01663 0.03258
-0.03966 -0.01682 -0.00244
0.02108 -0.00232 0.03642
-0.05751 0.01993 0.00453
0.04678 0.01840 0.09723
-0.02735 -0.00869 -0.00450
-0.00402 -0.01243 -0.00190
-0.05286 0.01956 0.05569
-0.00677 -0.01280 0.04147
-0.02150 -0.02951 0.01235
0.02506 0.00122 -0.12298
0.02147 -0.01320 0.02218
-0.00531 0.00109 -0.07374
0.01838 -0.00111 -0.02383
0.01329 0.00607 -0.06594
0.00956 0.01085 -0.10285
-0.02866 0.00523 -0.06490
0.01212 -0.01053 0.03561
0.04352 0.04343 -0.27850
0.04386 0.01768 -0.20712
-0.04586 0.01771 -0.00200
-0.01104 0.10091 0.05520
-0.05668 -0.07493 0.16264
-0.04968 0.00036 -0.01102
-0.02956 0.12114 -0.00133
-0.04343 -0.07291 0.12295
0.03072 0.10551 0.00880
-0.02010 0.08666 0.08670
-0.04346 0.12183 -0.00138
0.00620 -0.02433 0.01824
-0.06634 0.12541 -0.00758
-0.02705 0.10733 0.00015
0.02875 0.00993 -0.14924
0.04012 0.07565 0.00974
-0.03994 0.08118 -0.00102
0.03076 0.10247 0.00472
-0.01458 -0.00486 -0.05325
-0.05539 0.12480 -0.00472
-0.04243 -0.03352 0.13193
0.03520 0.11620 0.00872
-0.03760 0.00007 0.00216
0.01056 -0.04226 -0.02481
0.07273 0.07409 0.00941
-0.03717 0.01788 -0.06436
-0.03717 0.01788 -0.06436
0.03667 0.03859 -0.19204
0.05045 0.07612 0.01207
0.05045 0.07612 0.01207
-0.09157 0.13693 -0.01839
-0.05177 0.08319 0.00023
0.02491 -0.00939 0.07641
-0.07503 0.08508 -0.00296
-0.01505 -0.00315 -0.03303
0.03433 0.07424 0.00831
-0.01313 0.08412 0.08519
0.01117 -0.03434 0.02137
-0.05006 0.03694 0.00210
0.00123 -0.05969 -0.01124
0.00653 -0.04807 -0.00829
-0.04642 -0.05187 0.05839
0.03990 0.00638 -0.04609
-0.06016 0.12814 -0.00793
-0.06016 0.12814 -0.00793
0.07808 0.07209 0.01114
0.04048 0.10748 0.00840
0.04871 0.11592 0.01090
-0.03615 -0.04966 0.11746
-0.07942 0.08278 -0.00803
-0.10311 0.05145 0.17383
-0.02728 0.10248 -0.00186
-0.02732 -0.02774 -0.01672
0.01349 0.03395 0.02335
0.03091 0.09811 0.00360
-0.01218 -0.00162 -0.03707
0.04074 0.11487 0.00894
-0.06784 0.06343 -0.00434
-0.03677 0.12027 -0.00071
-0.03677 0.12027 -0.00071
0.03713 0.10195 0.00393
-0.04388 -0.00095 -0.00213
-0.03623 -0.00414 0.00663
-0.03446 0.01708 0.02567
-0.02618 0.02774 0.00073
-0.06803 0.11328 -0.00449
0.04068 0.01152 -0.05167
0.01354 0.00787 0.01766
-0.01538 0.07909 0.07798
-0.03333 0.10792 -0.00119
-0.06029 0.01758 0.01341
0.02190 -0.01951 -0.02603
-0.02277 -0.01618 0.03328
0.03415 -0.01729 0.01052
0.00124 -0.00959 -0.06377
-0.03996 0.01248 0.05574
0.00442 0.10874 0.00504
-0.01371 -0.01816 -0.05575
-0.04068 0.04266 -0.07114
0.02323 -0.02670 -0.01923
-0.05381 -0.00295 0.01024
-0.05003 -0.01489 0.03932
0.00407 -0.00120 -0.07813
0.01348 0.00563 -0.07963
-0.00979 -0.01989 -0.05301
-0.01058 -0.02986 0.02661
-0.01482 0.00541 -0.06944
-0.00758 0.01988 -0.00018
-0.01183 0.01939 0.02202
-0.00523 0.01665 0.04909
0.10303 0.16561 -1.00000
0.06174 0.05445 0.00665
-0.03127 0.11526 0.00016
-0.03008 0.11488 -0.00158
0.05926 0.05202 0.01062
-0.00350 0.00514 -0.02154
0.08628 0.06386 0.11109
0.00769 0.01653 0.03321
-0.04482 0.13810 -0.10886
0.02453 0.04092 -0.13935
0.01501 0.01559 0.08190
0.02071 -0.00723 -0.01130
0.03524 0.10919 0.00473
-0.06896 0.08280 -0.00255
-0.04378 0.08232 0.00073
0.04493 0.10877 0.00611
-0.10153 0.09232 0.08993
0.05031 0.01841 0.07150
-0.00012 -0.05807 -0.02409
0.05926 0.10367 0.00910
0.05926 0.10367 0.00910
-0.06006 0.14015 -0.09183
0.08467 0.06475 -0.15307
0.02800 0.09226 0.00775
0.10551 0.06484 -0.18497
-0.11882 0.23748 0.17704
0.06372 0.25547 0.25723
0.03767 0.06751 0.01046
0.06404 0.08170 -0.33016
0.08366 0.05389 0.00818
0.03566 0.04959 0.01740
-0.03177 0.10932 0.00074
-0.10214 0.12097 -0.01951
0.12489 0.09219 -0.30912
0.03300 0.11599 0.00862
-0.04874 0.01392 -0.00063
-0.04107 0.11588 -0.00207
0.03647 0.11528 0.00663
0.03840 0.12073 0.30896
0.02067 0.02548 -0.17083
-0.03871 0.02310 0.01054
-0.05521 0.12017 -0.00598
-0.09228 0.10839 0.03535
0.00933 -0.05643 -0.03001
-0.01106 -0.01671 0.03034
0.03581 0.00363 -0.05092
-0.11145 0.08726 -0.01930
0.02680 0.10458 0.00952
0.03996 0.11296 0.00768
-0.04165 0.12619 -0.00236
0.00404 -0.04028 0.04215
0.08446 0.07541 0.01750
0.00850 0.07831 0.00758
-0.03531 0.12219 -0.00001
-0.03677 -0.01160 0.00755
0.06822 0.06178 0.00949
0.05134 -0.00968 -0.03710
-0.07822 0.14105 -0.08133
0.00401 0.05072 0.01175
0.02900 -0.02045 -0.01380
0.03797 0.06041 0.00942
0.01740 0.01439 -0.15411
0.03170 0.05132 0.08615
-0.08281 0.08674 -0.01468
0.03197 0.00201 -0.04850
0.00074 -0.06944 -0.02294
0.02798 0.10207 0.01025
0.09984 0.09775 -0.24718
0.04620 0.11092 0.00660
-0.03412 -0.02833 -0.00645
0.15951 0.08522 -0.33592
0.16149 0.08540 -0.34358
0.02457 0.06357 0.00963
-0.07382 0.12781 -0.01083
0.04344 0.06345 0.00417
-0.03106 0.09715 0.03719
-0.03668 0.13205 -0.03445
-0.03668 0.13205 -0.03445
0.04224 0.11251 0.00706
-0.02648 -0.02279 -0.00878
-0.04917 -0.00045 0.00614
-0.00064 -0.06037 -0.02058
-0.09103 0.07425 -0.00566
0.06163 0.10197 0.00791
-0.03864 0.11955 0.00103
0.03297 0.11328 0.00977
0.01860 0.01428 0.10977
0.06626 0.05317 0.00899
0.08907 0.10519 -0.62521
-0.00940 -0.06830 -0.02613
-0.04932 0.06253 0.00758
0.01734 0.03112 0.06110
-0.01186 -0.04110 -0.02694
0.04521 0.00160 0.02986
0.02683 0.06087 0.00900
0.02911 0.06806 0.00818
-0.04363 0.08528 0.00222
-0.03942 0.07543 0.00336
0.05346 0.10350 0.00996
-0.01115 0.06606 0.00764
-0.08025 0.13197 -0.01985
-0.04484 0.12012 -0.00177
0.00593 0.05176 0.01190
0.01409 0.05347 0.00907
-0.03461 0.11262 0.00068
0.05300 0.07537 0.01009
0.00427 0.08780 0.00563
-0.04774 0.00473 -0.00585
0.02774 0.03903 0.02053
-0.01331 0.00430 -0.07144
0.04543 0.11468 0.00713
0.05038 0.00799 0.06871
-0.02628 0.00771 -0.00198
-0.06027 0.07792 -0.00324
0.01374 0.05357 0.01124
0.01831 -0.00916 0.00648
-0.01109 0.03985 -0.00454
-0.04257 0.13002 -0.00334
0.00560 0.06511 0.01020
0.00560 0.06511 0.01020
-0.03394 0.12742 0.00411
0.00598 -0.00649 0.00780
0.01053 0.06455 0.00887
-0.03763 0.06542 0.00436
0.00416 0.03825 0.01180
0.00535 0.03862 0.00348
-0.06591 0.06978 -0.00201
-0.05266 0.12592 -0.00436
0.00816 0.06468 0.00859
-0.05441 0.08273 -0.00215
0.02795 -0.01236 0.02572
0.02987 -0.00980 0.01355
0.03155 -0.00601 -0.00912
-0.03467 0.06777 0.00457
0.00349 -0.06172 -0.01135
-0.03208 0.06766 0.00252
0.01971 -0.01680 0.04103
0.06498 0.08741 0.00836
0.01127 0.03712 0.05814
0.03760 0.00071 0.05156
-0.02926 -0.02146 -0.01396
-0.00468 -0.06710 -0.02740
0.00647 0.05833 0.01062
-0.07128 0.08380 -0.00606
0.03038 -0.00863 0.01287
0.03850 0.06265 0.01080
-0.00715 -0.05338 -0.02186
-0.01573 0.03674 0.01991
-0.01573 0.03674 0.01991
0.05156 0.02037 0.05867
-0.06125 0.13311 -0.01002
0.03623 0.11872 0.00475
0.00874 -0.03862 0.01616
0.02314 -0.01224 0.01702
-0.03322 0.01338 -0.01267
-0.00919 0.06614 0.00911
-0.03432 0.12116 0.00019
0.04316 0.02150 0.03503
-0.00340 -0.01705 0.03302
-0.01992 0.00100 -0.05648
-0.03833 0.05397 -0.00029
-0.10713 0.08411 -0.01468
0.08326 0.06350 0.00930
0.01916 -0.00433 -0.03800
0.01251 0.05916 0.00850
-0.01327 0.06385 0.01230
-0.00574 0.06553 0.00540
-0.00582 0.05401 0.00966
-0.00323 -0.06873 -0.03288
0.04192 0.10808 0.00805
0.06364 0.11376 0.00923
-0.01596 -0.01142 0.01591
0.08211 0.05821 0.01005
0.01498 0.03715 0.06652
0.00975 -0.02228 0.06369
0.01884 -0.01144 0.05495
-0.02157 0.03599 0.00803
-0.06328 0.03874 0.08677
0.07896 0.11450 0.00959
0.08224 0.10955 0.00922
0.07920 0.11246 0.00985
0.07564 0.11687 0.00985
0.06951 0.12033 0.00809
0.00759 -0.00398 0.03630
-0.00168 0.01805 0.02833
-0.03855 -0.01166 -0.01243
-0.03297 -0.01325 -0.02376
0.04321 0.00412 0.06421
-0.01033 -0.04992 -0.01820
-0.03642 -0.02186 0.00030
0.00508 -0.05173 -0.00910
-0.01282 0.00279 -0.07126
-0.03016 0.01552 0.04364
0.13316 0.07576 0.02135
0.03626 -0.01278 0.04939
0.02828 0.10497 0.00944
0.07058 0.11718 0.01391
-0.02534 0.10743 -0.00485
-0.02588 0.10823 0.00096
-0.04092 0.11925 -0.01145
-0.06252 0.08408 -0.00289
-0.03819 0.07997 -0.00560
-0.05177 0.08319 0.00023
0.00105 0.09721 0.00423
0.00105 0.09721 0.00423
-0.13176 0.10452 -0.02384
-0.14153 0.11003 -0.01445
-0.00779 -0.06445 -0.02515
-0.03719 0.11331 -0.00036
-0.03719 0.11331 -0.00036
0.04218 0.09827 0.01049
-0.03664 0.13108 0.00045
-0.03664 0.13108 0.00045
0.00839 0.02088 0.05294
0.12745 0.10646 0.01315
-0.00021 0.07663 0.00467
-0.12882 0.11200 -0.02810
-0.14058 0.13016 -0.04225
0.14798 0.10546 0.00436
0.14798 0.10546 0.00436
-0.04190 0.10931 -0.00212
-0.00436 -0.00008 0.00433
0.01458 -0.00465 0.04781
-0.02734 0.12253 -0.00079
0.10967 0.05062 0.01932
-0.00195 0.10387 0.00441
0.15091 0.08669 0.01209
0.13427 0.11019 0.00910
0.03555 0.04943 0.01697
0.03366 0.11885 0.00551
0.06615 0.09916 0.02111
0.12472 0.07286 0.02910
0.05381 0.13340 0.01204
0.02866 0.01437 0.06787
-0.04670 0.12598 -0.00591
0.00173 0.01533 0.04194
-0.02756 0.12042 -0.00059
0.15335 0.10185 0.00537
0.01370 0.00405 -0.09284
0.04357 0.04020 0.01067
-0.11486 0.10434 -0.01967
-0.12801 0.12905 -0.03076
0.02484 0.01228 -0.09876
-0.03112 -0.02974 0.00480
-0.06157 0.01731 0.01716
0.14493 0.07037 0.02394
-0.05727 0.08202 -0.00108
0.00055 0.08431 0.00188
0.00055 0.08431 0.00188
-0.05133 0.04619 0.00347
0.06621 0.09607 0.02289
-0.03803 -0.00229 -0.01247
0.03402 0.03702 0.02357
0.03380 0.03769 0.02970
-0.05070 0.11227 -0.00139
0.13057 0.10655 0.01393
-0.05821 0.12480 -0.00770
-0.00347 -0.00725 0.01414
-0.06787 0.11316 -0.00450
-0.13533 0.12166 -0.03326
-0.00037 -0.00550 0.00199
0.04400 0.02645 0.03393
0.04402 0.02636 0.03424
-0.00026 0.03851 0.00740
-0.05028 0.12853 -0.00617
-0.00218 -0.03924 0.02527
-0.01470 0.03980 0.00630
-0.02596 0.09651 0.00276
0.01909 0.05926 -0.07228
-0.03909 -0.00434 -0.00746
-0.12606 0.11293 -0.02373
-0.01758 -0.02493 -0.02187
0.00253 -0.05175 -0.00534
0.00203 0.10331 0.00789
-0.05911 0.11298 -0.00610
0.00546 0.06958 0.00383
0.03854 0.03885 0.02784
0.02583 0.08436 0.01203
0.15113 0.08573 0.01375
-0.04385 0.01552 -0.00010
0.00501 0.04825 -0.01126
0.06651 0.11753 0.02547
0.01058 -0.02963 0.01441
0.00506 -0.00355 -0.06714
-0.01394 0.01057 0.00579
-0.00759 -0.05571 -0.02866
-0.11168 0.11129 -0.02201
-0.03496 0.11728 -0.01726
0.00888 -0.04347 -0.01807
-0.12169 0.12160 -0.02666
-0.12169 0.12160 -0.02666
-0.08588 0.08535 -0.00588
0.07578 0.10123 0.00739
0.02850 -0.00531 0.07325
-0.12694 0.12576 -0.02954
-0.13280 0.12167 -0.03144
0.07918 0.12538 0.01334
0.02718 -0.00396 0.00090
0.02108 -0.01192 0.04415
-0.00150 -0.08310 -0.02263
-0.02197 -0.04920 0.00414
-0.02946 -0.00254 0.03485
-0.00313 0.00176 -0.04965
-0.02335 0.00806 -0.06579
0.04225 0.00607 -0.05305
-0.00666 0.08590 0.08694
-0.00666 0.08590 0.08694
0.03338 0.01705 0.06776
0.00890 0.01768 -0.14835
0.02895 -0.00429 -0.01952
-0.01087 0.00344 -0.07490
0.01549 0.01572 0.07634
-0.01799 0.02064 0.00084
-0.01454 -0.01840 0.04144
-0.03460 -0.00736 -0.00110
0.03752 -0.00733 0.01808
-0.00739 -0.08046 -0.02199
-0.00166 -0.05796 -0.02878
-0.00166 -0.05796 -0.02878
-0.15789 0.06865 0.08644
0.00749 0.00679 -0.07657
0.00433 -0.05027 -0.01213
-0.03623 0.01922 0.01781
-0.04291 0.03895 -0.06780
0.03150 -0.01751 0.01762
0.01635 0.02992 -0.18155
0.00976 -0.04571 -0.01128
-0.03299 0.01821 0.03740
0.14996 0.07378 0.01815
0.12093 0.06213 -0.02803
-0.00486 0.07803 -0.00098
0.02879 0.07602 0.00637
0.02879 0.07602 0.00637
-0.02900 0.08006 0.00102
0.17657 0.11135 0.07023
-0.10951 0.11051 -0.06649
0.08566 0.12291 0.03326
-0.03393 -0.01257 0.00021
-0.07224 0.12135 -0.01810
0.11284 0.13240 0.04891
0.06151 0.07602 0.01746
-0.06719 0.08606 0.00662
0.06061 0.12160 0.02375
0.01320 0.02012 -0.08235
0.03874 0.01929 0.02614
0.02225 -0.03583 0.00607
-0.06810 0.02388 0.05061
-0.01902 0.02023 0.00609
0.03938 0.11647 -0.00568
0.01255 0.07431 -0.00150
0.01083 0.05256 -0.05395
-0.01345 -0.01591 -0.06408
0.06115 0.11374 -0.00904
0.01754 0.01398 -0.12331
0.02521 -0.00484 0.00061
0.09140 0.06642 0.10676
0.02315 0.07484 0.00498
0.03331 0.10981 0.00535
-0.00977 -0.02169 -0.05817
-0.03519 0.07911 0.00150
-0.02113 0.07698 -0.00441
0.02089 0.01615 -0.13729
0.00352 0.00847 -0.08902
0.00382 0.00879 -0.09013
0.00738 0.01615 0.03881
-0.02215 0.03629 0.01069
0.00336 0.01106 -0.10155
0.01501 0.01437 -0.11148
0.04550 0.01506 0.05662
-0.04597 -0.00975 0.00075
0.10710 0.13862 0.04552
0.05303 0.12209 0.00354
0.08118 0.10138 0.00926
0.04128 0.03073 -0.22887
0.12464 0.09969 0.05166
0.04506 0.12125 -0.00404
-0.08412 0.12878 -0.01671
-0.04673 0.08116 0.00109
0.01067 0.01176 -0.10843
0.01291 0.01782 0.01102
-0.08521 0.06747 -0.00275
-0.03872 0.11893 -0.00684
0.01606 -0.01125 -0.05007
0.00367 -0.06112 -0.01348
0.04932 0.01661 0.04126
0.00974 -0.03736 0.01773
-0.11991 0.08578 -0.03362
-0.01834 -0.04848 0.05554
-0.06719 0.08606 0.00662
0.06682 0.07395 0.01782
0.09540 0.13607 0.04493
