# .PCD v.7 - Point Cloud Data file format
VERSION .7
FIELDS x y z
SIZE 4 4 4
TYPE F F F
COUNT 1 1 1
WIDTH 1877
HEIGHT 1
VIEWPOINT 0 0 0 1 0 0 0
POINTS 1877
DATA ascii
0.00945 0.05219 -0.08831
0.00031 -0.01349 0.00177
0.08118 -0.06446 0.08778
0.04668 0.03554 -0.06083
0.07349 -0.07874 0.09244
0.06309 -0.05212 0.03732
-0.01161 0.02157 -0.05866
0.00493 0.02710 -0.06314
0.03605 0.03937 -0.05556
-0.03769 -0.08366 0.08634
0.00434 0.10938 -0.11975
-0.06916 0.03813 -0.05991
-0.00460 -0.06051 0.05355
0.04494 -0.08004 0.08853
-0.03868 0.06638 -0.09169
-0.03825 0.06581 -0.09411
-0.06856 -0.14056 0.16680
-0.02797 0.01638 -0.02363
-0.06284 -0.05931 0.06114
-0.03955 -0.02534 0.01794
0.04026 0.04600 -0.07370
0.03748 0.02367 -0.03942
-0.01623 0.01996 -0.04148
0.00031 0.05199 -0.08702
0.06537 -0.13940 0.16826
0.03566 0.00198 -0.01150
-0.06882 -0.04641 0.04270
-0.03399 -0.06834 0.06677
0.04363 0.03018 -0.05395
-0.04203 0.01208 -0.02311
0.02363 -0.11226 0.13818
0.00345 -0.03611 0.02104
-0.06468 -0.03921 0.03594
0.03619 0.02258 -0.04094
0.05322 -0.00947 0.00682
0.07277 -0.02344 0.02225
-0.04780 0.01293 -0.02094
-0.00364 0.04720 -0.07854
0.04396 0.01264 -0.01568
0.02659 -0.00627 -0.00017
0.05772 -0.04673 0.04735
-0.02747 -0.02488 0.02057
0.01671 -0.06320 0.08387
-0.00794 -0.03762 0.03044
-0.03380 -0.03147 0.02405
-0.03704 0.05190 -0.07867
0.00062 -0.04873 0.06571
0.05917 0.03744 -0.05529
0.06901 -0.12603 0.15060
-0.07429 -0.08478 0.09514
-0.03704 -0.09680 0.10261
-0.06765 0.03606 -0.05528
-0.06746 0.03581 -0.05561
0.02794 -0.07964 0.08303
0.05999 0.03645 -0.05579
-0.02997 -0.05489 0.05226
-0.04727 0.06656 -0.09808
-0.06437 -0.05335 0.05422
-0.06429 -0.05330 0.05404
-0.02580 -0.02765 0.02600
-0.07714 -0.01293 0.00489
-0.06802 -0.02693 0.01982
-0.03330 -0.10212 0.10947
0.05960 -0.07001 0.07624
-0.04250 0.02088 -0.03850
-0.03126 0.02301 -0.04062
0.01045 0.05621 -0.09090
-0.06715 0.03657 -0.05685
-0.04057 -0.02179 0.01401
-0.01055 0.02449 -0.06153
0.03874 -0.03546 0.03152
-0.06081 -0.06450 0.07222
0.04009 -0.05451 0.05112
0.08444 -0.07658 0.10863
0.02671 -0.02899 0.02439
0.00654 0.01369 -0.04320
-0.08046 0.00024 -0.01273
-0.03605 -0.03305 0.02588
0.01320 0.09091 -0.11551
0.05183 -0.07712 0.09436
-0.08561 -0.01754 0.02703
-0.05545 -0.03465 0.05782
0.01198 -0.01495 0.03209
0.01133 -0.01439 0.03166
0.01219 -0.03882 0.05131
0.01243 -0.04114 0.05797
-0.00190 -0.05821 0.05673
-0.01610 -0.01041 0.05437
0.00017 -0.05681 0.05153
0.06562 -0.14958 0.18021
0.06572 -0.14958 0.18032
0.00637 -0.00121 -0.02337
-0.00449 -0.05804 0.05405
0.00330 -0.04035 0.02238
-0.00448 -0.00249 -0.02681
-0.08647 0.00123 0.00128
-0.01511 -0.02223 0.03463
-0.05689 -0.04945 0.07392
0.07249 -0.02841 0.02724
0.07827 -0.01015 0.01354
0.07260 -0.03915 0.04080
-0.00247 -0.04149 0.02474
-0.08604 -0.01888 0.02439
0.01208 0.00064 -0.02224
-0.01851 -0.04109 0.05773
0.07686 -0.04525 0.05222
-0.08034 -0.01529 0.00944
-0.03933 -0.16555 0.19591
0.00544 -0.00378 -0.01602
-0.00083 -0.05683 0.04929
-0.08366 -0.01045 0.00769
-0.03722 -0.02597 0.01880
-0.04013 -0.17789 0.21256
0.00155 -0.04237 0.02715
0.00662 -0.02971 0.01348
-0.04890 -0.08125 0.09733
0.07728 -0.04033 0.04868
-0.05097 -0.05289 0.06562
-0.02471 -0.10879 0.12749
-0.00515 -0.04901 0.03828
-0.04825 -0.08880 0.10746
-0.01005 -0.02167 0.04052
0.02522 0.08947 -0.12604
0.04394 -0.10758 0.12699
0.00259 -0.04099 0.02323
0.04557 -0.09339 0.10878
-0.04790 -0.07210 0.08042
0.07606 -0.03466 0.03742
0.07714 -0.04290 0.05154
0.07794 -0.04211 0.05064
-0.01851 -0.03282 0.03984
0.00817 -0.02427 0.01366
0.06066 -0.13180 0.16092
-0.00537 -0.06915 0.13234
0.05974 -0.14582 0.18134
0.00761 0.00104 -0.01949
-0.08828 -0.00415 0.00615
0.00481 -0.01260 0.00286
0.07840 -0.01151 0.01886
0.02889 0.02567 -0.04672
-0.00060 -0.04219 0.02641
-0.06230 -0.08541 0.11615
0.00156 -0.13339 0.17614
-0.04292 0.00795 -0.01754
-0.03610 -0.03669 0.03125
0.04218 -0.17426 0.21075
-0.08254 0.00941 -0.01369
-0.08837 0.00175 0.00385
-0.04768 -0.08773 0.10081
-0.05006 -0.05918 0.03705
-0.08255 0.01572 -0.02116
-0.06792 -0.13300 0.15198
0.07449 -0.00674 0.00337
0.00612 -0.02644 0.01010
0.03279 -0.03637 0.03185
-0.06218 -0.08254 0.09351
0.00391 -0.01592 0.00377
-0.02593 -0.01081 0.00833
0.07233 -0.08392 0.09578
0.00135 0.03685 -0.07172
-0.00011 -0.17244 0.24947
-0.08195 0.00125 -0.00580
-0.06278 -0.14811 0.18267
-0.00441 -0.05349 0.05019
0.02343 -0.10940 0.16003
-0.06587 -0.15687 0.18063
-0.03667 -0.01826 0.01314
0.02037 -0.08613 0.11114
-0.02902 -0.14109 0.16014
0.02795 -0.15008 0.17837
-0.05510 -0.07172 0.07786
-0.04407 -0.03287 0.02899
-0.02296 -0.06013 0.08170
-0.04440 -0.01445 0.01114
0.05144 -0.02433 0.02695
-0.01085 0.02714 -0.06426
0.02139 -0.04184 0.04348
0.00539 -0.02979 0.01486
-0.06053 -0.09727 0.11870
0.06259 -0.15532 0.18182
-0.00466 -0.00521 -0.01603
-0.04507 -0.09422 0.10797
0.03422 -0.11733 0.12935
0.03461 -0.11968 0.13378
-0.06935 -0.09138 0.09999
0.05702 -0.10304 0.12694
0.02942 -0.05858 0.05679
0.04104 0.01447 -0.02282
0.00779 0.00463 -0.01879
-0.01742 0.01832 -0.03856
0.02610 -0.14284 0.17357
-0.01907 0.02715 -0.03224
-0.01941 0.02741 -0.02983
-0.02966 -0.15005 0.17843
0.03936 -0.02150 0.01704
0.02872 -0.09535 0.10329
-0.07445 -0.15410 0.17963
-0.08564 -0.00230 0.00211
-0.00784 0.02056 -0.05881
-0.01691 0.04514 -0.08335
-0.02900 -0.15813 0.18768
0.03565 -0.04755 0.04363
0.01440 0.02760 -0.03101
0.02889 -0.04724 0.04614
-0.00456 0.01364 -0.04753
-0.05973 -0.03800 0.03900
-0.03516 -0.19939 0.27023
0.03221 0.00239 -0.00584
-0.03697 0.00171 -0.00472
-0.00942 -0.03180 0.02248
-0.05242 -0.07640 0.09375
-0.01942 0.03082 -0.04507
-0.01873 -0.04209 0.06175
-0.06825 -0.12752 0.15478
0.00644 0.00204 -0.02311
0.00263 0.00164 -0.02672
-0.01534 0.02682 -0.04769
0.02905 0.02341 -0.04109
0.02552 -0.09191 0.08648
-0.00251 -0.00383 -0.02332
-0.00234 -0.00589 -0.01350
0.00288 -0.03880 0.02408
-0.06816 -0.14401 0.16719
-0.03839 -0.14092 0.16358
0.00100 0.02167 -0.05783
0.06468 -0.12463 0.14836
0.05798 -0.04399 0.04301
-0.05310 0.02132 -0.04158
0.02478 -0.04285 0.04101
-0.02021 0.02478 -0.02967
-0.05973 -0.00138 -0.00379
-0.05673 -0.02185 0.02217
0.03245 -0.04687 0.04347
0.03272 -0.04692 0.04393
-0.03157 -0.03163 0.02572
-0.03327 -0.03422 0.02551
-0.05857 0.02374 -0.04256
0.01278 0.04892 -0.08378
0.05964 0.02230 -0.03299
0.02110 -0.04624 0.04839
-0.00169 -0.05776 0.05031
0.05705 -0.09895 0.11340
-0.05087 -0.03208 0.03848
-0.02461 -0.05795 0.06061
0.03246 -0.15043 0.17865
0.07291 -0.02097 0.01765
-0.05954 -0.00737 0.00397
0.00315 0.00560 -0.03362
-0.01045 -0.00025 -0.02690
-0.06400 -0.13221 0.15925
-0.05460 -0.09652 0.15380
-0.01219 0.01265 -0.03990
0.03245 -0.07928 0.08061
0.04081 -0.04304 0.04203
-0.04066 -0.04052 0.03609
-0.04062 -0.13995 0.16468
0.05242 -0.02657 0.02868
-0.05492 -0.03473 0.05371
0.01386 0.02501 -0.03240
0.01324 0.02524 -0.03670
-0.00435 0.02407 -0.05704
-0.02790 -0.05880 0.05852
-0.00375 0.00936 -0.04462
-0.04051 0.02685 -0.04401
-0.06805 -0.15848 0.18625
0.02414 0.02061 -0.02953
-0.06431 -0.10752 0.12597
-0.04505 -0.01982 0.01066
-0.04509 -0.01970 0.01576
-0.00333 -0.03683 0.01545
-0.01251 0.02187 -0.04719
0.04841 0.02893 -0.05381
0.05978 -0.10349 0.12608
-0.00819 0.02196 -0.06152
-0.03791 0.02749 -0.04984
0.00137 -0.00376 -0.02059
-0.00490 -0.10213 0.13535
-0.00148 0.00198 -0.02257
-0.00865 -0.01193 0.00969
-0.00542 0.03330 -0.06744
-0.04066 -0.01594 0.00805
-0.01625 0.01996 -0.04158
-0.02550 -0.11209 0.13050
-0.03960 0.02334 -0.04283
-0.01301 0.01968 -0.04487
0.03005 0.01960 -0.03281
0.01564 0.02526 -0.02913
0.05630 -0.03292 0.03238
0.03577 0.00190 -0.01129
0.00398 -0.01126 -0.00287
0.02663 -0.00530 -0.00731
0.06917 -0.03198 0.02893
-0.03373 -0.00217 -0.00443
-0.04141 -0.00222 -0.00654
-0.02941 -0.03525 0.03134
0.00935 0.01422 -0.03887
-0.06784 -0.10408 0.11737
-0.06914 -0.01568 0.00670
-0.00779 -0.00605 -0.01978
-0.04256 -0.11224 0.13159
-0.01890 0.03762 -0.05566
-0.07011 -0.12280 0.14461
-0.03494 0.01887 -0.03577
-0.06901 0.01824 -0.03032
-0.00653 0.01728 -0.05610
0.05667 0.01515 -0.01802
-0.02746 -0.11027 0.12390
0.04287 0.00436 -0.00713
0.05443 -0.04119 0.04323
-0.05670 -0.04092 0.05083
0.00324 0.03454 -0.07120
-0.04840 0.01421 -0.02001
0.02663 -0.06707 0.06935
-0.07430 -0.04482 0.04199
-0.01011 0.03724 -0.07249
0.04437 -0.04770 0.05109
0.00442 0.06010 -0.09325
-0.02310 -0.03148 0.03328
-0.04263 0.02265 -0.03983
-0.00603 0.00940 -0.04199
-0.07450 -0.05554 0.05504
-0.04017 -0.01000 0.00186
-0.04269 -0.08009 0.11126
-0.01797 0.04430 -0.08217
-0.00589 0.01376 -0.05149
-0.04038 -0.02906 0.02218
0.00911 0.02716 -0.04939
0.00928 0.02721 -0.04980
0.05237 -0.03276 0.03469
-0.06267 -0.10715 0.12038
0.00128 0.03799 -0.07302
-0.05056 -0.01421 0.02228
-0.02977 -0.03348 0.02889
-0.01596 -0.04559 -0.00744
-0.07141 -0.14139 0.16825
-0.06448 -0.10793 0.12687
0.02569 0.00746 -0.01636
-0.01037 0.03251 -0.06822
-0.01038 0.03240 -0.06699
0.02502 0.03756 -0.04883
-0.04031 -0.00967 0.00019
-0.05981 -0.04293 0.04592
-0.05958 -0.04255 0.04484
-0.03847 0.01565 -0.03422
0.02280 -0.05001 0.06237
0.04290 -0.06433 0.06803
-0.07454 -0.05745 0.05764
0.00678 0.02795 -0.05545
0.05686 -0.07505 0.08386
-0.07359 -0.08501 0.09296
-0.04087 -0.01245 0.00465
-0.02738 -0.02447 0.01911
-0.06757 -0.06207 0.06231
0.04794 -0.00456 0.00773
-0.06695 -0.03183 0.02734
-0.04076 -0.16291 0.19705
-0.04055 -0.02180 0.01415
-0.00071 0.02506 -0.05782
-0.00272 0.04693 -0.07923
-0.04027 -0.01340 0.00407
-0.04175 0.00227 -0.01181
0.03250 -0.02355 0.01662
0.07113 -0.00145 -0.00433
-0.06825 0.01013 -0.02012
-0.04366 -0.02858 0.02656
0.04852 0.03557 -0.06219
-0.01588 0.04079 -0.07708
-0.05555 -0.02508 0.02438
-0.03397 0.02190 -0.04106
0.06939 -0.03725 0.03536
-0.06758 0.00116 -0.01051
0.02993 -0.00910 0.00394
-0.01080 0.02168 -0.05798
-0.03475 0.02794 -0.04565
0.06315 -0.02391 0.01805
-0.00823 0.00736 -0.03994
-0.00184 -0.01761 0.00303
0.02968 0.02641 -0.04419
-0.01499 -0.02805 0.04047
0.04069 -0.12137 0.14079
0.05120 -0.03691 0.04565
-0.00277 -0.13762 0.22185
0.05339 -0.04671 0.05091
0.01673 -0.05408 0.07408
0.05363 -0.04148 0.04632
-0.00807 0.01195 -0.03948
-0.00714 -0.01759 0.00310
-0.06295 -0.04162 0.03958
-0.02926 0.01628 -0.02380
-0.06610 0.02732 -0.05716
0.00426 -0.03084 0.00832
0.05060 -0.03160 0.03900
-0.05775 -0.00376 0.00612
-0.00461 0.04586 -0.07412
0.01147 0.03001 -0.04665
-0.05136 -0.02261 0.02680
-0.01209 0.03044 -0.06507
-0.06614 -0.01715 0.00909
0.06068 -0.14575 0.17830
0.06065 -0.14288 0.17339
0.04520 -0.08648 0.09920
0.06401 -0.06849 0.07283
0.07131 -0.15213 0.17956
0.06853 -0.13455 0.16026
0.04293 -0.08527 0.11192
0.02896 -0.11000 0.12531
0.03723 -0.08100 0.08561
0.03296 -0.08217 0.08485
0.05575 -0.06973 0.07967
0.05569 -0.06963 0.07925
0.05362 -0.05529 0.06220
0.03448 -0.16877 0.19483
0.02640 -0.08385 0.08980
0.05719 -0.05779 0.06188
0.06666 -0.12214 0.14623
0.04861 -0.07063 0.08669
0.06314 -0.12251 0.14714
0.00880 0.04861 -0.08503
-0.05394 -0.05295 0.06782
-0.01518 -0.00577 0.03188
-0.08414 -0.02832 0.03127
0.06333 -0.03156 0.02736
0.07288 -0.03391 0.03480
-0.08404 -0.02038 0.01997
-0.08316 -0.04135 0.04618
-0.08506 -0.02679 0.02961
-0.04451 -0.10750 0.12367
-0.08388 0.00605 -0.00808
-0.08445 -0.04114 0.04711
-0.01342 -0.02146 0.07532
-0.04568 -0.09815 0.11024
-0.08445 -0.03557 0.03964
-0.01517 -0.01781 0.06356
0.02044 -0.04501 0.04843
0.04064 -0.04829 0.04756
-0.04510 0.02307 -0.02442
-0.07030 -0.03316 0.02726
-0.07011 -0.05830 0.05777
-0.01550 0.01884 -0.02389
-0.01124 0.01059 -0.03504
-0.01767 -0.00636 0.03107
-0.01637 0.02661 -0.04386
0.01019 0.00146 -0.01203
0.03538 -0.15563 0.18030
0.05352 0.03552 -0.04754
-0.00952 0.03613 -0.07033
-0.00199 0.03307 -0.06659
0.01821 -0.06476 0.09071
0.02624 0.00044 0.00240
-0.06835 -0.15078 0.17890
-0.00374 0.04545 -0.07610
-0.01293 0.00909 -0.03782
-0.06484 -0.05295 0.06326
-0.00646 0.03518 -0.06936
0.01814 -0.03593 0.04173
-0.02268 -0.07662 0.08667
0.06068 0.03659 -0.05132
0.04535 0.06036 -0.09882
0.05022 0.01615 -0.01193
0.03037 -0.16762 0.19413
-0.04412 -0.03284 0.02893
0.05456 -0.10698 0.16581
0.04038 -0.06865 0.07127
0.04521 0.06193 -0.09968
-0.00554 0.08591 -0.09611
0.01605 -0.18441 0.26918
0.01215 0.05446 -0.09434
0.04418 0.04963 -0.07729
0.06389 0.00136 0.01628
0.01838 -0.04115 0.04841
0.03249 0.00211 -0.00437
-0.00960 0.05478 -0.08023
0.00336 0.02399 -0.06240
0.03091 0.07146 -0.09517
-0.02374 0.05268 -0.08601
0.01857 -0.04637 0.05375
-0.07889 -0.04079 0.04006
0.06559 0.03055 -0.04828
0.07213 0.02886 -0.03255
-0.02546 0.05967 -0.10049
0.04672 0.05663 -0.09653
0.04672 0.05665 -0.09649
-0.04440 -0.01419 0.01029
0.02475 -0.01543 0.01120
0.07777 -0.02453 0.02850
0.04055 -0.05327 0.05324
-0.00449 0.08276 -0.09500
-0.00156 0.04868 -0.08296
0.05839 0.03994 -0.05833
0.02118 -0.08227 0.09450
0.03558 0.02786 -0.04395
-0.03748 0.05891 -0.08329
0.02346 0.06365 -0.09057
0.04896 0.05958 -0.09778
-0.00151 0.01005 -0.04095
0.03259 0.05269 -0.07710
-0.04544 -0.09232 0.11407
0.04789 0.05857 -0.09849
-0.01965 -0.05739 0.07780
0.02780 0.07628 -0.12173
0.02487 0.05937 -0.07788
0.04334 0.06630 -0.09646
-0.00958 0.05107 -0.07999
0.02582 0.06114 -0.08045
0.00632 -0.02775 0.01063
-0.02985 0.06413 -0.08736
-0.02820 0.06749 -0.10551
0.01390 -0.02093 0.04323
-0.01595 0.06877 -0.09839
0.04523 0.05188 -0.07698
0.06091 0.04012 -0.05969
0.01472 0.07407 -0.10540
0.04109 0.04532 -0.07323
-0.02642 0.05889 -0.09980
0.06515 0.03531 -0.05615
0.06505 0.03531 -0.05622
0.06007 -0.03349 0.03002
0.03391 -0.06352 0.07235
0.04580 0.05942 -0.09808
-0.00514 0.02303 -0.05931
0.00410 0.02758 -0.06363
-0.05398 0.04186 -0.07486
-0.07844 -0.03498 0.03243
0.04540 0.04017 -0.06973
-0.00595 0.04872 -0.07765
-0.00390 0.04625 -0.07621
0.03180 -0.00677 0.00204
0.04784 0.04698 -0.07179
0.02859 0.03140 -0.04674
-0.01988 -0.06897 0.09174
-0.02450 0.05660 -0.09368
0.00388 0.03321 -0.06663
-0.02332 0.06312 -0.09904
0.07249 -0.07617 0.08877
0.00681 0.02797 -0.05528
0.04175 0.05159 -0.08182
0.00859 0.02216 -0.04452
0.07564 0.02867 -0.03331
0.04416 0.05983 -0.09578
0.00782 0.08068 -0.10142
0.06270 0.03406 -0.04300
0.02457 0.01669 -0.02285
0.04640 0.03265 -0.06019
-0.03559 0.04519 -0.06513
0.02769 0.08046 -0.12633
0.04225 0.03861 -0.06660
0.04125 0.06030 -0.09103
-0.00843 0.02571 -0.06288
-0.03971 0.05124 -0.07361
0.02736 0.02327 -0.04204
0.01029 0.05521 -0.09022
0.02990 -0.02584 0.02050
0.03263 0.08059 -0.12712
0.00455 0.02601 -0.06280
-0.03840 -0.09304 0.12210
0.00428 0.05299 -0.07727
0.00029 0.05205 -0.08718
-0.00782 -0.01068 -0.00802
0.06576 0.04011 -0.05930
-0.02982 -0.00949 0.00770
-0.02561 0.05925 -0.09856
0.04659 0.06437 -0.10130
-0.06264 0.02988 -0.04518
0.02788 0.02987 -0.04488
0.02693 0.04257 -0.05850
0.04276 0.05995 -0.09456
0.01096 0.05584 -0.09437
0.01042 0.05577 -0.09871
-0.00177 0.04738 -0.08013
0.05133 0.04148 -0.07112
0.02156 0.06564 -0.10356
-0.02476 -0.09864 0.12211
-0.01195 0.03890 -0.07256
0.06137 0.01834 -0.02719
0.00432 0.05487 -0.08568
0.05976 0.03518 -0.05559
-0.03838 0.04557 -0.07169
0.00604 0.05666 -0.08092
-0.03022 -0.15176 0.18717
-0.03900 0.06653 -0.09050
0.04656 0.05180 -0.07752
0.06288 0.02458 -0.03766
-0.02583 0.06200 -0.09951
0.03667 0.04273 -0.05803
-0.07544 0.01579 -0.02530
-0.03287 0.02781 -0.04549
-0.00995 0.05243 -0.08030
0.03632 0.04056 -0.05647
-0.06510 -0.13498 0.15935
0.02626 -0.07334 0.07675
0.00497 0.02982 -0.06287
0.01529 -0.02926 0.00131
0.02719 0.02786 -0.04246
-0.01308 0.05855 -0.08998
0.01819 0.06896 -0.10524
0.02668 0.05058 -0.06672
0.04577 0.06534 -0.10265
0.04886 0.05657 -0.09211
0.00774 0.07095 -0.09867
-0.00619 -0.01501 0.00161
0.00142 0.07303 -0.09587
0.02245 -0.07403 0.08102
-0.07526 0.03980 -0.05952
0.01285 0.05323 -0.08240
0.04971 0.04794 -0.06992
-0.01699 0.02079 -0.02733
0.00787 0.05752 -0.09692
0.02192 0.06764 -0.10595
0.04608 0.05348 -0.09472
0.01282 0.05187 -0.08972
0.02165 -0.05844 0.06269
0.00368 0.06672 -0.09535
0.05209 0.03999 -0.06815
0.02785 -0.06547 0.08774
-0.01110 0.05388 -0.08102
0.02261 -0.09517 0.10853
0.04108 0.07516 -0.11306
-0.01972 -0.01079 0.06080
-0.07040 -0.02791 0.02131
0.02693 0.04466 -0.05953
0.01148 0.07303 -0.10324
0.00456 0.02811 -0.06241
-0.00376 -0.06433 0.02303
0.00130 0.02394 -0.06633
0.02764 0.02200 -0.03872
-0.01606 0.01876 -0.04094
0.03187 0.01114 -0.02226
0.00523 -0.00167 -0.02016
0.03366 0.04811 -0.07117
0.05989 0.04147 -0.05930
0.02710 0.04464 -0.06033
0.05523 -0.07011 0.08810
-0.07050 -0.03317 0.02757
0.02454 -0.04026 0.03839
0.00923 0.05739 -0.09106
-0.02264 0.05728 -0.09903
0.02977 0.05210 -0.07516
0.03573 -0.02629 0.01942
0.02436 -0.03997 0.03729
-0.01224 0.02918 -0.06388
0.05325 -0.06191 0.07389
-0.00837 0.01509 -0.05452
-0.01161 0.03891 -0.07136
0.01845 -0.03903 0.06365
0.07769 0.00214 -0.00170
0.00081 0.06090 -0.09097
-0.03056 0.06951 -0.11014
-0.00501 0.04853 -0.07703
0.03099 0.05070 -0.07590
-0.02829 -0.04338 0.04147
-0.03288 0.02778 -0.04537
0.08157 -0.00169 0.00613
0.04475 -0.04119 0.04360
0.03209 0.04229 -0.06432
0.01680 0.08218 -0.11528
0.00639 0.00764 -0.03190
-0.06968 -0.06272 0.06288
-0.06956 -0.05698 0.04993
0.00446 0.02819 -0.06205
-0.00438 0.05333 -0.08893
0.03194 0.02570 -0.04567
0.03194 0.02570 -0.04567
0.00682 0.06019 -0.09305
0.01187 0.01717 -0.04274
0.00518 0.05726 -0.08930
0.06804 -0.02654 0.02284
0.04432 0.05011 -0.07734
-0.02498 -0.02590 -0.00403
0.05334 0.05139 -0.08278
0.06296 0.02752 -0.04838
-0.01091 0.03849 -0.07214
-0.00558 0.02972 -0.06428
-0.03314 0.02905 -0.04501
0.03502 -0.16148 0.18721
-0.05892 -0.06705 0.07664
-0.00271 0.05026 -0.08793
0.03157 -0.09326 0.11958
-0.02241 0.05630 -0.09309
0.05032 -0.06564 0.08115
-0.07062 -0.03834 0.03403
-0.02803 0.01636 -0.02346
-0.00679 0.04828 -0.07624
-0.05129 0.04087 -0.07002
0.01369 0.04227 -0.06865
-0.07126 0.00498 -0.01096
0.04768 0.02072 -0.04350
-0.04766 -0.08034 0.10684
0.02218 -0.07931 0.08889
-0.02603 -0.10631 0.12198
0.04425 0.07812 -0.11010
-0.05718 -0.03250 0.03777
0.05233 -0.05658 0.06659
0.03164 0.01467 -0.03363
0.05970 -0.02170 0.01774
0.00069 0.06094 -0.09065
0.02667 -0.03088 0.04463
-0.03692 0.05914 -0.10683
-0.03592 0.05183 -0.07442
-0.01036 -0.05202 0.06829
0.06712 -0.03728 0.03392
-0.05892 -0.06302 0.07329
-0.03531 -0.04214 0.03662
0.03952 -0.01620 0.01104
-0.04994 0.05219 -0.07584
0.00137 0.05167 -0.08382
-0.01086 0.05025 -0.07823
0.01685 0.06278 -0.09983
0.01699 0.06287 -0.09907
0.01478 0.05508 -0.09304
-0.04168 0.04936 -0.06840
-0.01348 0.01795 -0.04468
0.01630 0.07732 -0.11067
0.04900 0.02583 -0.04796
0.03848 0.06524 -0.08431
0.00351 0.00295 -0.02836
-0.03423 0.04253 -0.04946
-0.03533 0.01803 -0.01655
0.01227 0.05109 -0.08749
0.04748 0.06565 -0.10062
0.06200 -0.13945 0.16845
0.03044 -0.02635 0.01883
0.02154 -0.00453 0.02318
-0.03370 0.03069 -0.04747
-0.06751 -0.15072 0.18164
0.03610 0.05035 -0.06771
0.03037 0.07026 -0.09420
0.04615 0.01978 -0.04219
-0.01131 0.01106 -0.03688
0.00057 0.00067 -0.02594
-0.06073 0.00336 -0.00653
0.06444 -0.07487 0.08377
0.03250 0.07906 -0.11897
0.04634 -0.06542 0.07432
0.02084 -0.03761 0.04058
0.04685 0.05197 -0.07600
-0.00447 0.00077 0.01029
-0.04027 0.03794 -0.05007
-0.05196 -0.10841 0.14903
0.00480 0.04134 -0.07593
0.00641 -0.00441 -0.01439
0.07233 -0.14664 0.17956
-0.00558 0.04663 -0.07612
-0.02301 0.02898 -0.03271
-0.01851 -0.04466 0.05894
0.04539 -0.07741 0.08726
-0.03000 -0.06399 0.06362
-0.02874 -0.16564 0.19726
0.03694 -0.18143 0.20887
0.03210 0.01002 -0.02131
0.05648 -0.06890 0.07749
0.02386 -0.02412 0.02141
0.00250 0.02542 -0.06244
-0.03394 0.06866 -0.11353
0.03833 -0.14645 0.17291
0.06139 -0.02380 0.01900
0.06183 -0.14382 0.17961
-0.01106 0.03705 -0.07271
0.04662 -0.07723 0.09025
0.03372 -0.10609 0.13497
-0.05889 -0.03269 0.04294
0.08781 -0.06415 0.09635
-0.03538 -0.08292 0.08648
-0.07644 -0.06086 0.10702
-0.00304 0.04759 -0.07667
-0.00062 -0.16653 0.25072
0.01746 0.02724 -0.03074
0.00747 -0.01181 0.01120
-0.03350 -0.09678 0.11549
-0.04211 -0.09604 0.10598
-0.01160 0.00181 -0.02727
0.00602 -0.17969 0.26628
-0.06900 -0.12879 0.15637
-0.07283 -0.00097 0.00980
0.07695 -0.00439 0.00869
-0.03617 0.00586 -0.10292
0.01630 -0.01219 0.03385
-0.03963 -0.05998 0.05793
-0.08305 -0.01419 0.00985
-0.09145 -0.07943 0.09576
-0.00972 -0.03164 0.01949
0.03246 -0.07924 0.08063
-0.02085 -0.07698 0.05848
0.00253 -0.17337 0.26071
-0.04484 -0.01842 -0.05464
0.01907 -0.07981 0.10174
0.02856 -0.05709 0.05565
-0.02492 -0.08515 0.08677
-0.07413 -0.12425 0.14705
-0.05724 -0.05792 0.07851
0.00441 -0.14906 0.22307
0.07549 -0.06307 0.07547
0.00457 0.03604 -0.07098
0.00067 -0.00964 0.00081
0.00074 -0.00985 0.00166
0.01472 0.05512 -0.09326
-0.01888 -0.05419 0.05716
0.04930 -0.01856 0.02143
0.00527 0.03999 -0.07506
0.00297 0.00535 -0.03259
0.02552 -0.05829 0.05928
-0.01739 0.04250 -0.08010
0.00919 0.05074 -0.08591
-0.04340 -0.02288 0.01989
-0.06401 -0.12423 0.15602
-0.08560 -0.00491 0.00586
0.02525 0.00839 -0.01790
-0.01756 0.02403 -0.03105
0.00300 -0.00514 -0.01765
0.02895 -0.04743 0.04640
0.03854 -0.02312 0.01737
-0.02934 -0.02005 0.02118
0.02857 0.05293 -0.07206
0.02866 0.05294 -0.07162
0.02867 0.01011 -0.02022
-0.01717 0.01892 -0.02634
0.04441 -0.04767 0.05111
0.01453 0.03166 -0.04020
0.06378 -0.03180 0.02844
0.02671 0.04050 -0.05613
-0.01632 0.01487 -0.03736
0.00027 0.00289 -0.03521
0.05350 0.01012 -0.03068
0.00523 0.04178 -0.07495
0.05513 -0.14684 0.16779
0.04211 -0.02028 0.04944
0.03034 0.02197 -0.03960
-0.04396 0.02628 -0.03738
-0.06410 -0.08884 0.09852
0.06383 -0.11374 0.13399
0.05565 -0.00422 0.01216
0.05388 -0.00769 0.00394
-0.05610 -0.01834 0.02010
-0.03920 0.00973 -0.02668
0.00459 0.01130 -0.03494
0.02139 -0.02606 0.02604
-0.03988 0.02437 -0.04351
-0.00925 0.01707 -0.07102
0.01171 0.05309 -0.09009
0.00801 0.05256 -0.08829
0.02310 -0.06326 0.06502
-0.03937 0.02062 -0.04004
0.06701 -0.07705 0.09014
0.03754 -0.07101 0.07211
0.01526 0.06127 -0.09885
-0.03252 0.00457 -0.01425
-0.04566 -0.08034 0.09834
0.01099 0.04965 -0.08609
-0.01228 0.01211 -0.04560
0.05180 -0.01647 0.01792
-0.05445 -0.07142 0.05742
0.03841 -0.00149 -0.00441
0.04506 -0.04180 0.04516
-0.06812 -0.02090 0.01557
0.02791 -0.01376 0.00386
-0.06502 -0.06533 0.05709
0.05320 0.02932 -0.03609
-0.06917 -0.11628 0.13649
0.00711 0.01920 -0.04365
-0.02073 0.01201 -0.01485
0.01264 0.04753 -0.08028
0.03329 0.02394 -0.04606
0.03648 -0.10963 0.12119
0.05871 -0.00587 0.00311
0.03899 0.00583 -0.01063
0.02719 0.04839 -0.06536
0.04563 -0.03231 0.03708
-0.01057 -0.19815 0.30317
0.00406 0.03091 -0.06045
0.05098 -0.04136 0.04894
0.04706 -0.02059 0.02246
0.01835 0.01880 -0.01802
-0.01870 -0.02685 0.03899
-0.06342 -0.06863 0.07304
-0.00369 -0.18434 0.26681
-0.02868 -0.02854 0.02379
-0.02868 -0.02854 0.02379
0.03913 -0.00005 -0.00305
0.03395 0.01500 -0.03472
-0.03751 0.03412 -0.05490
0.05097 -0.05465 0.07656
-0.03353 -0.04297 0.03843
0.03156 0.02996 -0.05207
-0.01600 0.04639 -0.08768
0.00586 0.05634 -0.08511
0.01169 0.04637 -0.08140
-0.00819 0.05909 -0.09056
0.01334 0.00795 -0.02826
-0.00544 0.05782 -0.09075
0.02982 -0.04022 0.03417
-0.00500 0.01408 -0.05611
-0.06543 0.01769 -0.02280
-0.06762 0.01649 -0.01528
-0.06122 0.01075 -0.01459
0.01400 0.05095 -0.08739
0.02705 0.04646 -0.06325
-0.06298 -0.03906 0.03694
0.01239 0.04842 -0.08423
0.02997 0.04147 -0.06386
0.03096 0.05168 -0.07666
-0.06472 -0.01699 0.01027
-0.01194 0.06017 -0.09103
0.01082 0.00225 -0.00691
0.00169 -0.05543 0.05372
-0.01941 -0.04936 0.06882
0.03221 -0.07752 0.07992
-0.02896 -0.07859 0.08167
0.01613 0.05578 -0.09425
0.02523 -0.00599 0.00641
-0.03517 -0.05286 0.05019
-0.03362 -0.00908 0.00166
-0.00370 0.04026 -0.06963
-0.07255 -0.15532 0.17971
0.03218 0.01455 -0.03552
0.07874 0.00294 0.00118
-0.00116 -0.07416 0.08849
0.07878 -0.01495 0.01947
0.03393 -0.11133 0.12509
0.01918 -0.06395 0.07347
-0.02326 -0.10405 0.12984
-0.02325 -0.11262 0.13659
-0.06658 -0.05711 0.05615
0.00911 0.05396 -0.08740
-0.04154 0.02148 -0.04002
0.05135 -0.07089 0.08860
-0.08753 0.03409 -0.03667
-0.08080 0.02691 -0.03783
-0.08719 0.03507 -0.03688
-0.08197 0.02580 -0.03657
-0.00739 -0.17608 0.26267
0.01340 0.05450 -0.09482
0.00600 -0.17463 0.26205
-0.05063 -0.13336 0.16690
0.02026 -0.10198 0.13094
-0.03946 -0.01433 -0.06845
0.00485 0.03352 -0.07365
-0.07624 0.00665 -0.02109
-0.05339 -0.07501 0.09437
0.02716 -0.11883 0.21181
-0.07390 0.03360 -0.05568
0.00418 -0.04769 0.04527
-0.01365 -0.08086 0.07448
-0.02536 -0.16236 0.21177
0.03155 -0.14593 0.17050
-0.07478 -0.13036 0.15569
-0.02454 0.05667 -0.09361
-0.08178 0.02102 -0.02961
-0.03811 0.04681 -0.07373
-0.08396 -0.17913 0.23816
-0.08240 0.01757 -0.02380
-0.00348 -0.16094 0.24780
0.01762 0.06042 -0.09701
-0.03651 0.02267 -0.03428
0.06256 -0.15701 0.18247
0.06902 -0.08195 0.09247
0.02772 0.07692 -0.12065
-0.08377 0.02733 -0.03305
-0.02632 -0.11858 0.13030
-0.02915 -0.11589 0.12815
-0.03730 0.01611 -0.03380
0.01391 0.05258 -0.08945
-0.08752 0.03641 -0.03639
0.02795 0.06860 -0.11466
-0.01068 0.00942 -0.03496
-0.03011 -0.18447 0.20944
-0.00553 -0.07668 0.08593
0.03636 0.00756 -0.01745
0.03789 -0.18409 0.21010
0.02666 -0.17107 0.19145
-0.05983 -0.08236 0.10993
-0.07503 -0.08811 0.10201
0.00524 -0.17194 0.24691
-0.04618 0.02088 -0.02922
-0.06088 -0.00263 0.00094
0.00806 -0.02676 0.01100
-0.02623 -0.13012 0.13508
0.03040 0.07027 -0.09415
-0.01805 0.02112 -0.01697
-0.04703 0.06630 -0.10079
0.05027 0.01970 -0.02512
0.05101 -0.02374 0.02524
0.00281 -0.01460 0.00200
-0.04462 0.01647 -0.02659
0.02188 -0.05117 0.05494
0.01907 0.06373 -0.10131
-0.02739 0.06381 -0.10144
0.05899 0.00797 -0.01730
-0.00605 -0.01432 -0.00012
0.05947 0.02362 -0.03329
0.02783 0.07633 -0.12170
0.04979 0.04576 -0.07345
-0.01521 0.02454 -0.04367
-0.06459 -0.08245 0.09228
0.02468 -0.03115 0.02676
-0.00033 0.04792 -0.07839
0.02957 0.02295 -0.04075
-0.05893 0.06037 -0.08912
0.02464 -0.02759 0.02318
-0.06648 -0.08214 0.08910
0.04000 -0.02753 0.02367
0.06209 0.03070 -0.04688
-0.00662 0.05218 -0.08759
0.00036 0.04980 -0.08321
0.02574 -0.03907 0.03747
-0.03461 -0.15455 0.18085
0.06673 -0.08342 0.09121
-0.06671 -0.00373 -0.00553
0.02434 0.07732 -0.10354
0.03332 0.02422 -0.04663
-0.04724 0.05779 -0.08858
-0.00892 0.02359 -0.06142
0.02676 0.04053 -0.05642
-0.03149 -0.07142 0.07158
-0.03617 0.06774 -0.09510
0.01531 0.07193 -0.10654
0.05100 0.04854 -0.07506
-0.01939 0.05215 -0.08803
-0.02807 0.06989 -0.10810
0.04795 0.03293 -0.05791
0.00511 0.04445 -0.07941
0.01910 0.06536 -0.10065
0.00345 -0.23621 0.39286
-0.02446 -0.05679 0.03511
0.01549 0.05078 -0.08613
-0.03137 0.06970 -0.11112
-0.03689 0.00986 -0.01798
-0.03159 -0.07902 0.15418
-0.00029 -0.02550 0.00212
0.03988 0.01579 -0.02312
-0.00305 0.02721 -0.05658
-0.02079 0.06043 -0.09591
0.02874 0.06937 -0.09200
-0.06367 -0.01467 0.00854
0.00006 0.01774 -0.05378
-0.04365 -0.04847 0.04652
-0.01075 0.03564 -0.07052
-0.02772 0.07144 -0.10973
-0.03968 0.03897 -0.05842
0.01359 -0.01141 0.02762
0.01831 0.06408 -0.10116
-0.03577 0.04364 -0.06539
-0.06118 -0.00902 0.00391
-0.02165 0.05431 -0.08952
-0.00457 0.02326 -0.05403
0.03119 0.02212 -0.03260
-0.06895 -0.01139 0.00233
0.01524 0.02516 -0.03276
0.01891 0.06642 -0.10313
-0.00151 0.06659 -0.09222
0.02278 0.01678 -0.02328
-0.01237 0.05602 -0.08369
-0.07084 -0.01426 0.00596
0.03158 0.06012 -0.08286
-0.05427 0.06012 -0.09969
0.02092 0.06550 -0.10308
0.06032 0.03984 -0.05714
0.03010 -0.13964 0.14668
0.06708 -0.00850 0.00230
0.05809 0.02153 -0.03077
-0.03252 -0.08743 0.09022
-0.04519 -0.02894 0.02383
-0.01392 0.06317 -0.09252
-0.04159 -0.00957 0.00209
0.01911 0.07139 -0.11013
-0.03830 0.05167 -0.07832
-0.00990 -0.10743 0.12510
-0.06703 0.04499 -0.05964
-0.06894 0.03253 -0.04398
0.03697 0.06829 -0.11597
0.03841 0.06842 -0.11240
-0.03036 0.06868 -0.10738
0.06526 -0.00808 0.00151
-0.01466 0.04552 -0.08036
-0.06325 -0.01706 0.01063
-0.06668 0.03554 -0.05574
-0.01312 0.03392 -0.06799
0.04038 -0.02139 0.01644
-0.03676 0.05707 -0.08323
0.02072 0.06468 -0.10445
0.04252 0.02046 -0.02678
-0.02988 -0.02641 0.02304
0.05244 -0.01070 0.00861
0.06077 0.00064 -0.00727
-0.00317 -0.10490 0.18673
-0.01798 0.06333 -0.09522
0.05745 -0.10362 0.13294
-0.02205 0.01544 -0.00687
0.01978 0.05972 -0.09283
0.01279 0.05190 -0.08984
0.06161 -0.05738 0.05862
0.00287 0.03461 -0.07129
0.00068 0.05939 -0.09199
0.02127 -0.00109 -0.00009
-0.04953 -0.01674 0.01134
0.06031 -0.00928 0.00326
0.04291 0.00995 -0.01344
0.02800 0.01951 -0.03091
0.00824 0.05556 -0.08781
-0.03118 0.06890 -0.10885
-0.00159 0.04973 -0.08353
0.00154 0.05266 -0.08617
-0.00486 0.03405 -0.06570
-0.04783 0.06010 -0.09375
-0.03757 0.03411 -0.05466
-0.05850 -0.02708 0.02887
0.05899 -0.01160 0.00632
0.04096 -0.02423 0.01934
0.05909 0.03684 -0.05501
-0.00316 0.02334 -0.05688
-0.03127 0.05754 -0.07676
-0.03309 0.04937 -0.06747
0.02858 0.02629 -0.04421
0.03680 -0.06085 0.05950
0.02549 -0.00837 0.00713
-0.03374 0.02795 -0.04629
-0.02336 -0.05223 0.05579
0.05481 -0.01202 0.00870
-0.01756 0.07106 -0.10171
0.03364 0.01703 -0.02746
-0.02555 0.00822 -0.01213
-0.02133 0.04556 -0.07182
0.05272 0.04684 -0.07609
-0.02564 -0.03283 0.03126
-0.06374 -0.01245 0.00663
0.02895 0.00763 -0.01604
-0.06822 0.03361 -0.05562
0.04552 -0.00221 0.00556
-0.04107 0.03132 -0.04619
-0.03435 -0.14211 0.16239
0.02108 0.01577 -0.02259
-0.00645 0.01734 -0.05608
-0.06798 -0.01238 0.00369
-0.00093 -0.02506 0.00492
-0.06460 0.02460 -0.03697
-0.05544 -0.05854 0.08007
0.00837 -0.17167 0.24821
-0.01899 -0.05249 0.07274
-0.06551 -0.06509 0.06660
-0.01282 0.03077 -0.06816
-0.03309 -0.01426 0.00725
-0.03904 0.03760 -0.05647
-0.07058 -0.01000 0.00043
-0.03014 0.00547 -0.01391
-0.07137 0.02299 -0.03702
0.03451 0.02453 -0.04314
0.00297 -0.17865 0.25777
0.02865 0.03011 -0.04606
-0.02967 -0.05872 0.05736
-0.03335 -0.05448 0.05065
-0.02803 -0.03795 0.03478
-0.00916 0.03305 -0.06860
-0.00851 -0.03791 0.02378
-0.04045 0.02532 -0.04330
-0.00276 -0.02428 0.00255
-0.08444 0.03235 -0.04120
-0.01905 -0.00569 0.00560
-0.00697 -0.16241 0.24163
-0.07063 -0.00981 0.00114
0.01265 0.05484 -0.09431
-0.07010 -0.15800 0.18088
-0.02167 -0.22164 0.34887
0.04698 0.06871 -0.10704
-0.01148 -0.01944 0.01859
0.07845 0.03738 -0.03765
-0.03290 0.07173 -0.10412
0.03814 0.06792 -0.11050
-0.02163 0.09264 -0.12001
0.01337 0.09212 -0.11687
0.01336 0.09213 -0.11685
0.03427 0.08113 -0.12675
0.02184 -0.04222 0.04291
0.01325 0.09125 -0.11684
0.03766 0.07130 -0.11304
0.03598 0.07080 -0.11805
0.03515 0.06820 -0.11196
0.02716 0.07471 -0.11814
0.04637 -0.05240 0.07056
0.01596 -0.01253 0.02680
0.03610 0.07799 -0.10164
0.05816 0.04160 -0.05893
0.04907 0.05090 -0.07327
0.06512 0.04017 -0.06078
0.01129 0.05870 -0.09408
0.04689 0.07032 -0.10795
0.03947 0.06754 -0.11545
0.07730 -0.00072 0.00103
0.01591 0.06286 -0.09911
-0.03555 -0.00682 -0.00051
0.03815 -0.06132 0.08363
0.00595 0.08964 -0.09915
0.05085 0.04957 -0.07468
0.04903 0.07018 -0.10763
0.00683 0.00108 -0.01837
0.03358 0.07575 -0.10826
0.03838 0.07553 -0.12112
-0.01886 0.04327 -0.08232
0.04906 0.04124 -0.07739
-0.00018 0.09843 -0.10537
0.04709 0.08075 -0.10470
0.04676 0.08054 -0.10523
-0.02787 0.06059 -0.09656
0.05608 -0.03761 0.03746
0.00909 0.02363 -0.04261
0.00934 0.08629 -0.10331
-0.02349 -0.08290 0.09511
0.02583 0.07774 -0.12069
-0.03370 0.07696 -0.11777
0.03569 0.06420 -0.08643
0.03654 0.06485 -0.08301
-0.01173 0.08669 -0.09500
-0.01169 0.08576 -0.09878
0.02686 0.08326 -0.12647
0.07704 -0.05624 0.06668
0.01865 0.09146 -0.12388
0.01550 0.09103 -0.11801
0.05029 0.04911 -0.06902
0.01045 0.04490 -0.08680
0.04497 0.07165 -0.10802
0.03981 0.06781 -0.10131
0.03700 0.04254 -0.05666
0.01525 -0.01169 0.03378
0.02417 0.08115 -0.11846
-0.03421 0.06785 -0.11350
-0.05687 -0.06464 0.09021
0.00712 0.08594 -0.09640
0.00379 0.08280 -0.09597
0.04738 0.04877 -0.07258
0.03811 0.08584 -0.12253
-0.00831 0.05038 -0.07797
0.00320 -0.17107 0.25928
-0.02767 -0.04059 0.03764
-0.01885 0.08122 -0.10973
0.02480 0.08819 -0.12501
0.03257 0.07640 -0.11763
0.06089 0.04256 -0.06080
0.02590 0.05701 -0.06821
-0.01811 0.04089 -0.07765
0.02674 -0.02902 0.02452
0.07065 -0.06371 0.06559
-0.01135 0.08782 -0.09545
-0.03528 0.04347 -0.06425
0.00935 0.08563 -0.10847
0.04693 0.05968 -0.09880
0.03527 0.06514 -0.08745
0.06602 -0.03732 0.03903
0.03830 0.06012 -0.07225
-0.00505 0.00952 -0.04300
-0.00248 0.09873 -0.11004
0.01761 0.06214 -0.10028
0.02617 0.08332 -0.12646
0.00464 0.00317 -0.02962
0.05268 0.04852 -0.07921
-0.03590 0.06943 -0.10217
-0.01038 0.09245 -0.10263
0.02783 -0.13455 0.15402
0.00158 0.00819 -0.04035
-0.00337 0.08133 -0.09056
0.01943 0.05876 -0.09399
-0.04226 0.04141 -0.05897
0.00616 -0.01355 0.01142
0.04471 0.04714 -0.07446
0.02579 -0.05288 0.09033
-0.00504 0.04642 -0.07721
0.06813 -0.07948 0.09606
0.04681 0.04679 -0.07172
0.06305 -0.04847 0.07150
0.01710 0.08510 -0.11840
-0.01313 0.09215 -0.10434
0.01407 0.08753 -0.11633
0.05042 -0.00259 0.00515
0.01686 0.08942 -0.11862
0.03013 0.05253 -0.07384
-0.00344 0.04976 -0.07789
0.03954 0.04953 -0.07839
0.04009 0.04838 -0.09904
0.01743 0.09025 -0.12089
0.04609 0.05435 -0.09347
0.02026 0.06968 -0.10688
0.02659 0.02488 -0.03618
-0.02840 0.06325 -0.10174
-0.01205 0.08484 -0.09900
-0.01209 0.08594 -0.09472
-0.01549 0.09463 -0.10285
-0.00127 -0.00296 -0.02139
0.05762 0.03754 -0.05486
-0.03361 -0.01115 0.00369
0.05592 -0.00228 0.03549
0.01354 0.08522 -0.11297
0.01528 0.09205 -0.11914
-0.01639 0.09003 -0.11163
0.02587 0.08804 -0.12559
0.03137 0.05639 -0.07640
-0.03466 0.06901 -0.11473
0.05882 0.03845 -0.05714
0.06071 0.03822 -0.05794
0.03384 0.07276 -0.11766
0.03428 0.07290 -0.11649
0.04539 0.04017 -0.06972
0.04339 0.07842 -0.11039
0.02704 0.04556 -0.06200
0.02785 0.08131 -0.12606
0.02785 0.08131 -0.12606
0.03012 0.05448 -0.07745
0.06659 0.03905 -0.05790
-0.01414 0.05680 -0.08436
0.02768 -0.01227 0.01184
0.02573 0.08409 -0.12513
-0.04602 -0.02219 0.01771
0.02043 0.06469 -0.10153
0.01839 0.06395 -0.10099
0.04987 -0.01262 0.01221
-0.01460 0.08318 -0.09568
0.00447 0.07857 -0.09398
0.02893 0.08086 -0.12619
0.06180 0.03965 -0.05930
-0.02280 0.05730 -0.09781
0.04068 0.07064 -0.11087
0.04322 0.03644 -0.06185
-0.06529 -0.14081 0.16799
0.00422 -0.15542 0.24376
0.06873 0.03669 -0.05340
0.04814 0.04679 -0.07103
-0.05541 -0.07196 0.10563
-0.00819 0.04915 -0.07721
0.02921 0.07716 -0.12234
0.00979 0.05382 -0.08897
0.01904 0.06378 -0.10141
-0.04503 0.05360 -0.07790
0.02219 -0.06872 0.07485
-0.01238 0.04983 -0.07322
0.00532 0.05308 -0.07921
0.01047 0.08522 -0.11547
-0.02879 -0.08314 0.08666
-0.01596 0.04960 -0.08586
-0.03242 0.03852 -0.05611
0.04656 0.04626 -0.07152
0.02370 0.01939 -0.02660
0.01221 0.04243 -0.06735
0.04776 0.02138 -0.02525
0.03396 0.08372 -0.12469
-0.00807 -0.02087 0.00364
0.00898 0.05748 -0.09064
0.02713 0.04927 -0.06520
-0.06305 -0.04427 0.04305
-0.07691 -0.06027 0.06250
0.06983 -0.06851 0.07402
0.04076 -0.03249 0.03017
-0.00597 0.05516 -0.09024
0.04777 0.04101 -0.06991
-0.01362 0.01968 -0.04953
0.02720 0.07638 -0.12072
0.01974 0.07197 -0.10918
0.00320 0.05577 -0.08155
-0.00447 0.03368 -0.06556
-0.01159 0.02982 -0.06526
0.03034 0.07106 -0.09549
0.04063 0.02226 -0.02978
-0.01451 0.02689 -0.05010
0.07354 0.01503 -0.01857
-0.01493 0.04284 -0.07624
0.05852 -0.06765 0.07453
-0.01221 0.01123 -0.03896
0.02925 0.02881 -0.04632
-0.01796 0.05488 -0.09019
0.01319 -0.02787 0.04989
-0.01184 0.01185 -0.04022
0.04910 0.03633 -0.06166
0.00996 0.05371 -0.08877
0.00678 0.04887 -0.00077
0.04256 0.04902 -0.08114
0.06781 -0.04376 0.05829
0.01552 -0.04565 0.06334
-0.04291 0.02583 -0.03674
0.02561 -0.10930 0.12416
0.05044 -0.07980 0.09840
0.01013 0.00163 -0.01316
0.01103 -0.00873 0.00758
-0.08502 -0.02359 0.02727
-0.01316 0.03678 -0.07194
-0.00257 0.01707 -0.04724
0.00339 -0.04015 0.03454
0.00099 -0.04519 0.03255
-0.03988 -0.17313 0.21005
0.00802 -0.03067 0.04896
-0.08330 -0.03610 0.03964
0.07654 -0.05280 0.06323
-0.02223 -0.06445 0.08555
-0.04090 0.02868 -0.04478
-0.01711 -0.03540 0.05450
-0.04840 -0.03800 0.04172
0.00757 -0.18479 0.28375
-0.05615 0.06059 -0.09843
0.04620 0.06936 -0.10824
-0.00713 -0.16024 0.20927
0.08066 -0.03659 0.04960
-0.04483 0.07383 -0.10444
-0.04093 0.07023 -0.11837
0.04563 0.06927 -0.10798
0.01570 -0.01358 0.02919
-0.04581 -0.10134 0.11622
-0.05350 0.05139 -0.08713
0.00102 -0.08749 0.09238
0.07588 -0.03709 0.04005
0.07528 -0.01217 0.01190
-0.08257 0.02288 -0.02969
0.01226 0.04250 -0.06726
-0.02160 0.09074 -0.11850
0.00355 0.01573 -0.03939
0.04282 -0.09289 0.10674
-0.04747 0.06426 -0.09864
-0.02020 -0.01485 0.03411
-0.05599 0.05930 -0.09826
-0.04067 -0.04058 0.03636
-0.01753 0.01804 -0.03699
0.01146 -0.02555 0.05973
-0.05610 0.06409 -0.10401
-0.05502 0.06425 -0.10473
-0.00618 -0.06463 0.01015
0.02701 0.07668 -0.12006
-0.07512 -0.07429 0.07869
-0.05730 0.05996 -0.09854
-0.08179 0.01952 -0.02789
0.00006 0.04644 -0.22213
0.04109 0.04542 -0.07322
0.04120 0.06878 -0.10685
-0.04789 0.05698 -0.09008
-0.03985 0.07012 -0.11735
-0.04819 0.05875 -0.09197
0.00763 0.07708 -0.09829
0.07638 0.02359 -0.02437
-0.05472 0.06084 -0.09905
-0.05181 0.05858 -0.10254
-0.05349 0.05882 -0.09804
0.05348 0.06194 -0.09353
0.04400 0.04956 -0.07800
0.07297 -0.01563 0.01148
-0.05726 0.05892 -0.09786
-0.02182 0.09295 -0.11861
-0.05066 0.07012 -0.10923
-0.00777 0.07152 -0.09187
-0.08209 -0.01366 0.01086
0.04635 0.06927 -0.10929
-0.01861 -0.02181 0.04799
-0.03554 0.07078 -0.11862
0.04010 -0.01297 0.00924
0.00316 -0.02690 0.00691
-0.00035 -0.06680 0.06204
0.00165 0.02105 -0.05852
-0.03526 0.07650 -0.12347
0.02509 -0.01629 0.01373
-0.03194 0.07948 -0.12100
-0.00372 0.05857 -0.09120
-0.00085 0.05200 -0.09023
-0.04994 0.07127 -0.11026
0.01385 0.05349 -0.08793
0.04709 0.08209 -0.11665
-0.00575 -0.01748 0.00162
-0.06760 0.03602 -0.06162
-0.07533 -0.08982 0.10014
0.03203 0.04227 -0.06426
0.02762 0.05106 -0.06840
0.00330 0.00354 -0.03131
-0.02777 0.10066 -0.13228
-0.05996 0.06628 -0.10572
-0.05875 0.06741 -0.10768
-0.04338 0.05828 -0.12742
0.00421 0.03033 -0.05696
-0.02780 0.10398 -0.13420
-0.03658 0.00913 -0.02135
-0.08349 -0.04461 0.05131
-0.04672 0.06822 -0.10248
0.03757 0.06936 -0.10764
0.03893 0.07001 -0.10432
0.03348 0.08055 -0.12747
-0.00228 -0.03011 -0.03268
-0.01871 0.05594 -0.08945
-0.00896 0.06797 -0.09039
-0.05050 0.07118 -0.11007
-0.05038 0.05232 -0.07473
0.01215 0.05121 -0.08769
-0.03244 0.04181 -0.05800
0.04954 -0.00507 0.01217
-0.00247 0.03194 -0.10354
-0.01146 0.07482 -0.09468
-0.05687 0.04138 -0.07520
-0.07811 0.04378 -0.06278
0.02815 -0.07475 0.10397
0.04946 0.08151 -0.11462
-0.03534 0.06920 -0.11537
0.03366 0.04464 -0.06815
-0.02087 0.05632 -0.09603
0.04698 0.07169 -0.10284
-0.01115 0.06312 -0.09492
0.04691 0.04878 -0.08124
-0.02690 0.06961 -0.10846
0.05423 0.01860 -0.03057
-0.00067 0.04950 -0.15818
0.03103 0.05166 -0.07628
0.04866 0.06174 -0.09895
0.03577 -0.02633 0.01965
-0.04724 0.05779 -0.08858
-0.05877 -0.08498 0.10797
0.06614 0.04139 -0.05921
-0.01291 0.03948 -0.07375
0.05732 0.00687 -0.02058
-0.05054 0.05530 -0.08938
0.02856 0.03140 -0.04662
-0.04321 0.00681 -0.01080
0.02849 0.02149 -0.03369
0.03644 -0.11162 0.12290
0.03477 0.08434 -0.12751
-0.01772 0.05979 -0.09137
0.01758 -0.02601 0.06525
0.03926 -0.18028 0.20905
0.02458 0.01668 -0.02261
0.00549 0.02071 -0.05746
0.00261 0.00363 -0.02712
-0.01728 0.11129 -0.12315
0.03021 0.08352 -0.12848
-0.04049 0.03913 -0.05789
0.01357 0.04717 -0.07172
-0.08526 -0.01332 0.01584
0.07879 -0.00447 0.00772
-0.04119 -0.17514 0.21000
-0.01455 0.01616 -0.04418
-0.00663 0.03513 -0.06955
-0.00885 -0.03686 0.02502
0.00559 0.02493 -0.06080
-0.01401 0.03795 -0.07290
0.00954 0.01529 -0.03925
0.01285 0.02396 -0.02991
-0.08451 0.00447 -0.00556
-0.05748 -0.03034 0.03583
-0.07209 -0.15686 0.18027
0.04325 0.05200 -0.08074
0.04175 -0.02817 0.02465
0.04026 -0.07342 0.07676
0.02858 -0.14064 0.16489
-0.08170 0.00798 -0.01330
-0.06832 -0.15772 0.18111
0.00213 0.02184 -0.05901
-0.00076 0.05197 -0.08897
-0.07625 -0.02716 0.02161
0.08257 0.05800 -0.06013
0.01312 0.09518 -0.11826
-0.01175 -0.00238 -0.02176
0.04995 0.06897 -0.10859
-0.08348 -0.05212 0.05280
0.01045 -0.11583 0.13418
0.06346 0.02850 -0.05072
-0.01726 0.04924 -0.08445
-0.00045 0.05382 -0.08774
-0.03953 0.04647 -0.07271
0.02599 -0.04611 0.04242
0.07152 -0.04711 0.04844
0.00667 -0.18186 0.28169
0.01103 -0.00873 0.00758
-0.01341 -0.02636 0.02117
-0.06893 -0.12901 0.15619
0.05326 -0.04367 0.04350
-0.01241 0.10671 -0.11861
0.08644 0.05574 -0.04509
0.02963 0.00515 -0.01468
-0.08466 0.03604 -0.04255
0.00803 0.10329 -0.11547
0.02160 0.08899 -0.12320
-0.00574 0.11953 -0.13411
0.04337 0.11126 -0.13686
-0.00669 0.11052 -0.12334
0.01740 0.09290 -0.12291
-0.01693 0.02666 -0.03453
0.04728 -0.07598 0.09249
0.02402 -0.12552 0.32408
0.00295 0.04789 -0.07884
0.01307 0.00221 0.00012
-0.07574 0.03427 -0.05558
-0.00816 0.03887 -0.03371
0.04478 0.10822 -0.13435
0.04389 0.11058 -0.13426
0.04264 0.10938 -0.13677
0.04454 0.10787 -0.13067
-0.08091 0.02771 -0.03939
0.04507 0.10462 -0.13398
0.01528 0.10508 -0.09033
-0.00730 0.11810 -0.13076
0.04358 0.11341 -0.13776
-0.00686 0.11170 -0.12298
0.05170 0.03619 -0.05349
0.01208 0.09673 -0.11910
-0.07494 0.03591 -0.05893
0.00151 0.10807 -0.11905
0.05015 0.07934 -0.11150
0.06471 -0.10969 0.13670
0.07600 0.06476 -0.06927
0.00439 -0.04091 0.03691
-0.00939 0.10634 -0.11539
0.01920 0.09607 -0.12675
-0.07267 -0.14586 0.17419
0.01742 -0.06796 0.09072
0.06286 0.04568 -0.08272
0.01590 0.09701 -0.12345
0.02768 0.08048 -0.12635
0.08469 0.05597 -0.05137
0.08469 0.05597 -0.05137
0.04127 0.10868 -0.13678
-0.00037 0.11819 -0.13238
-0.00693 0.10938 -0.11621
-0.01529 0.10367 -0.11438
-0.08321 -0.05735 0.06617
-0.01113 0.05123 -0.08010
-0.06051 0.03346 -0.06035
-0.05317 0.04436 -0.08948
0.00579 -0.03227 0.01486
0.00252 0.10761 -0.11951
-0.00699 0.10972 -0.11753
-0.02841 -0.07345 0.07597
-0.00794 0.04226 -0.05253
0.02715 0.07274 -0.09669
-0.02777 0.11847 -0.14070
-0.00731 0.10961 -0.12164
0.01440 0.09679 -0.12571
0.06692 0.04049 -0.05906
0.06452 -0.08437 0.09477
0.01611 -0.05561 0.07617
0.01900 0.09531 -0.12752
0.04456 0.10827 -0.13530
0.00624 0.10738 -0.11958
-0.05280 0.06882 -0.10708
0.01129 0.09670 -0.12521
-0.00701 0.08367 -0.09510
0.04828 -0.02539 0.02863
-0.00624 0.12076 -0.13537
0.07644 0.04970 -0.05364
-0.01066 0.00005 -0.02724
0.02745 0.02456 -0.04176
0.00043 0.10763 -0.11908
-0.00707 0.13080 -0.11581
-0.00521 0.11804 -0.13374
0.06311 -0.02380 0.01791
-0.04726 0.05660 -0.08432
0.03630 0.04648 -0.06282
0.07538 0.03419 -0.03948
0.01671 0.09644 -0.12508
-0.02977 0.10629 -0.13588
0.07585 0.06222 -0.06734
0.01871 -0.22595 0.34454
0.05241 0.07415 -0.11218
0.07504 -0.06876 0.08053
-0.03431 -0.09926 0.12080
0.03283 0.07549 -0.11056
-0.00552 0.08611 -0.09552
-0.01258 0.10592 -0.11588
0.00953 0.12169 -0.13315
-0.00822 0.10861 -0.12394
-0.00822 0.10861 -0.12394
0.00066 0.11883 -0.13132
-0.00118 0.02532 -0.17409
-0.06344 -0.00447 -0.00026
0.00374 0.05501 -0.08334
-0.01132 0.10601 -0.12038
-0.01507 0.10576 -0.11619
0.01132 0.09663 -0.12526
-0.02817 0.06054 -0.09629
0.00844 0.10696 -0.12087
-0.02338 0.01787 -0.01606
-0.00917 0.10856 -0.12265
-0.04794 0.06117 -0.09532
0.01220 0.09177 -0.11961
-0.00831 0.10566 -0.11572
-0.04447 0.06961 -0.11251
0.02834 -0.17205 0.20798
-0.03940 0.07402 -0.11595
-0.00680 0.01867 -0.09180
0.01916 0.08609 -0.11924
0.07490 -0.07604 0.09089
0.07357 0.04635 -0.05472
-0.05659 0.05735 -0.09752
-0.04716 0.05484 -0.08295
0.00494 0.10961 -0.11879
0.04674 0.04888 -0.08088
0.07511 0.05978 -0.06655
-0.04804 0.05472 -0.08344
0.04218 0.10975 -0.13682
-0.00157 0.11210 -0.12463
0.01158 0.09553 -0.11522
-0.06614 0.03775 -0.06026
-0.00766 0.00917 -0.04077
-0.01020 0.04759 -0.07441
0.00828 0.10876 -0.12218
0.03634 0.08415 -0.12615
0.02054 0.06790 -0.10508
-0.05288 0.06666 -0.10614
0.01229 0.09577 -0.12547
0.03218 0.05327 -0.07755
-0.00114 0.12166 -0.13651
-0.00381 0.11634 -0.13438
0.01193 0.09124 -0.11263
0.04493 0.10843 -0.12622
-0.04351 0.03858 -0.05049
-0.03377 0.06869 -0.11411
-0.03917 0.04528 -0.07148
-0.06784 0.04067 -0.05973
-0.01533 0.11696 -0.13534
-0.01091 0.11086 -0.12057
0.01147 0.07302 -0.10320
0.01438 0.11128 -0.12978
0.02718 -0.06169 0.06181
0.01399 0.08578 -0.11535
-0.02960 0.08399 -0.12115
0.01029 0.09396 -0.11609
-0.04427 0.05652 -0.07078
-0.04432 0.05650 -0.07070
-0.00705 0.10614 -0.11154
0.03094 0.07753 -0.11830
0.00036 0.10657 -0.11365
0.01202 0.09514 -0.12401
0.04843 0.06717 -0.10529
-0.05394 0.04005 -0.06971
-0.00095 0.11041 -0.12484
0.06705 0.06826 -0.08657
0.05847 0.06561 -0.09356
-0.01350 0.10442 -0.11581
-0.02850 0.08549 -0.12265
0.04194 0.10837 -0.13545
0.01330 0.10619 -0.12361
0.01330 0.10619 -0.12361
-0.01353 0.05625 -0.08371
0.01337 0.09441 -0.11535
0.05050 0.09393 -0.12451
0.04362 0.10827 -0.13601
-0.03341 0.07271 -0.11685
-0.00674 0.10630 -0.11265
0.03202 0.05546 -0.07918
0.01436 0.05385 -0.09368
0.01195 0.08812 -0.11635
0.01438 0.10457 -0.12569
0.04736 -0.00078 0.00642
0.05990 0.04155 -0.05882
-0.04538 0.02046 -0.02918
0.00707 0.10341 -0.11515
-0.06809 0.02798 -0.04930
0.01174 0.08812 -0.10352
0.03822 0.01832 -0.02610
-0.00286 0.10399 -0.11899
0.01508 0.07410 -0.11075
0.04672 0.05426 -0.09185
0.06718 0.05265 -0.06934
-0.02596 0.05990 -0.09957
-0.00730 0.10588 -0.11361
0.04688 0.04618 -0.07083
0.00142 0.05596 -0.08797
0.04096 0.02258 -0.03026
0.00186 0.05125 -0.08113
-0.02536 0.05817 -0.09649
0.00831 0.09454 -0.10921
0.03071 0.03623 -0.05616
0.02274 0.06048 -0.07997
0.04239 0.03654 -0.06505
-0.05101 0.04180 -0.06960
-0.05091 0.04181 -0.06993
0.06152 0.05852 -0.07731
-0.07189 0.00631 -0.01154
0.02972 0.05268 -0.07521
-0.02476 0.07650 -0.11281
0.02798 0.07195 -0.09564
0.01599 0.09256 -0.12023
-0.02258 -0.09051 0.10819
0.04787 0.08152 -0.11270
-0.00215 0.11201 -0.12490
-0.00146 0.11253 -0.12238
-0.01659 0.08476 -0.10443
0.00532 0.10950 -0.11773
-0.03240 0.04776 -0.06473
0.04957 0.07965 -0.11193
-0.07848 -0.00308 -0.00500
0.05109 0.08131 -0.11402
0.01203 0.08937 -0.11765
0.04740 0.05736 -0.09599
0.00743 0.10693 -0.12049
0.00063 0.10999 -0.12127
0.04139 0.07408 -0.11271
0.03955 0.04953 -0.07833
0.01536 0.10503 -0.12573
-0.02003 0.05618 -0.09101
-0.00619 0.11870 -0.13378
-0.00079 0.11197 -0.11937
0.01066 0.07227 -0.10176
0.00974 0.08944 -0.11120
-0.00663 0.01086 -0.04033
0.04553 -0.00233 0.03140
0.00522 0.10778 -0.11779
-0.00794 0.04226 -0.05253
0.01875 0.07119 -0.10939
-0.02137 0.05259 -0.08964
-0.02128 0.05254 -0.08971
0.02765 0.02665 -0.04258
-0.02629 0.06248 -0.09999
0.01660 0.08198 -0.11613
0.03826 0.06108 -0.08521
0.01756 0.05855 -0.09529
-0.00448 0.04430 -0.07139
-0.00343 -0.17788 0.26161
0.07281 -0.14974 0.17825
0.02680 -0.17627 0.20682
-0.06359 -0.14615 0.17490
0.02931 -0.16662 0.20086
0.02494 0.05519 -0.06846
-0.00983 0.02243 -0.06125
0.01730 0.09127 -0.12044
-0.06234 -0.00989 0.00417
0.05730 -0.02123 0.01656
-0.02032 0.05519 -0.09222
0.00223 0.05370 -0.07793
0.00784 0.05004 -0.08392
0.01710 -0.05968 0.08190
-0.00382 0.04564 -0.07599
-0.03622 -0.02406 0.01586
0.06052 -0.11891 0.15188
-0.03402 0.02683 -0.04490
-0.03999 0.02791 -0.04678
0.01634 0.01144 -0.00912
-0.00384 0.00912 -0.04336
-0.04427 0.05881 -0.07298
0.05011 0.04269 -0.07151
-0.08838 -0.01278 0.01813
0.03896 0.06706 -0.11665
0.01858 -0.07863 0.10182
-0.06130 -0.15008 0.17796
0.01607 -0.04350 0.06213
-0.02091 -0.07595 0.09802
-0.03470 0.02485 -0.04349
0.05239 -0.07911 0.10392
-0.06435 -0.12065 0.15101
-0.01173 0.08669 -0.09500
-0.00040 0.04934 -0.08255
0.00946 0.10331 -0.11392
0.01079 -0.11626 0.12837
-0.05698 0.04260 -0.07535
-0.01710 -0.05800 0.03992
0.01267 0.09756 -0.11084
-0.00999 -0.12637 0.17511
0.00866 -0.13407 0.17635
-0.05389 0.05235 -0.09260
-0.08206 0.02871 -0.04100
-0.00953 0.05000 -0.07828
0.06385 0.01629 0.00025
0.04698 0.06877 -0.10709
0.03587 0.08384 -0.12618
-0.06314 -0.02916 0.02738
-0.05870 -0.07916 0.09685
0.02921 -0.06276 0.08270
-0.08036 0.02325 -0.03441
-0.01366 0.05603 -0.08196
0.01125 0.05869 -0.09430
-0.08265 -0.00890 0.00544
0.03751 0.02363 -0.04001
-0.06273 -0.02626 0.02233
-0.04007 -0.05466 0.07903
0.05681 0.01546 -0.01710
0.05719 -0.03425 0.31015
0.03937 -0.00264 -0.00118
0.04634 0.03650 -0.06291
0.03335 -0.04200 0.03931
-0.04212 0.02501 -0.04204
0.05868 -0.03336 0.03129
-0.04668 -0.09077 0.10540
0.06479 -0.05232 0.07531
0.05675 -0.05510 0.05742
-0.05358 -0.02819 0.02941
0.02026 -0.02588 0.04921
-0.06414 -0.10989 0.12738
0.05285 0.07235 -0.11114
0.00279 -0.01458 0.00233
-0.06975 -0.09250 0.10162
-0.00999 -0.02970 0.01872
0.00528 0.00609 -0.00934
0.02722 0.07638 -0.12056
0.04326 0.05678 -0.09104
