# .PCD v.7 - Point Cloud Data file format
VERSION .7
FIELDS x y z
SIZE 4 4 4
TYPE F F F
COUNT 1 1 1
WIDTH 1883
HEIGHT 1
VIEWPOINT 0 0 0 1 0 0 0
POINTS 1883
DATA ascii
-0.01489 -0.00129 -0.01020
-0.00472 0.00286 -0.03197
-0.04569 -0.00356 0.00553
-0.01076 -0.01405 0.06033
0.00012 0.00899 -0.05547
-0.01104 -0.00636 -0.00057
-0.00490 -0.00574 0.01514
0.01421 -0.00718 0.00258
0.01096 0.01665 0.00241
0.00977 -0.01290 0.05690
-0.03516 -0.02866 0.13864
-0.03386 0.02486 -0.03162
-0.00609 0.02159 -0.00441
-0.03555 -0.00550 -0.00541
0.00993 -0.00046 0.00243
0.02384 0.00159 0.00379
0.03649 0.00086 0.00733
-0.06623 -0.00244 -0.00021
-0.06799 -0.05176 0.26230
-0.00379 0.00137 -0.02395
-0.06675 -0.00253 0.00075
-0.01129 -0.00786 0.00084
0.00874 0.01590 -0.06860
-0.06550 0.00281 -0.00391
0.01830 -0.00948 0.00312
0.00631 -0.00922 0.00302
0.01503 0.00141 0.00395
0.00216 0.02169 -0.00858
0.01623 -0.00919 0.00347
-0.06774 -0.00794 0.00318
-0.02620 0.00033 -0.00219
-0.02809 -0.00454 -0.00255
-0.01361 -0.00518 -0.00007
-0.02623 0.00751 -0.00273
-0.02103 -0.00851 -0.00145
-0.00482 -0.00644 0.00142
0.01481 -0.00949 0.00321
0.01771 -0.00905 0.00439
0.02059 0.01632 -0.06613
-0.00417 0.02180 -0.04818
-0.00275 0.02067 -0.04644
-0.06137 -0.00552 0.02647
0.00304 0.02823 -0.01427
0.02102 -0.01335 0.01123
-0.02440 0.09717 0.26411
0.01794 0.02076 0.00139
-0.05383 -0.00191 0.00508
-0.01589 -0.02410 0.02725
0.00012 0.02266 -0.04014
0.00897 0.00642 0.00337
0.00897 0.00642 0.00337
0.00888 0.02012 0.00297
0.00902 0.03296 0.00879
-0.02426 -0.00399 -0.00250
0.00980 -0.00778 0.00291
-0.00600 0.03537 0.02919
0.01134 0.01667 -0.06566
0.01668 0.09239 0.23025
-0.01348 0.02352 -0.03578
0.01518 0.03459 0.01896
0.00573 0.01843 -0.05776
0.00511 -0.00712 0.00258
0.01762 0.01994 -0.00054
0.01911 0.01600 0.00937
0.00546 0.01162 -0.07003
-0.10384 -0.03662 0.14795
0.00272 0.01468 -0.05985
0.00374 0.01818 0.00036
-0.02841 0.02691 -0.01793
-0.03813 -0.00004 -0.00317
-0.07071 -0.03023 0.12876
0.00345 -0.00592 0.00078
0.02176 -0.00635 0.00425
0.02287 -0.00569 0.00039
-0.00368 0.01063 -0.05889
-0.03982 -0.00102 -0.00333
0.01800 0.02240 -0.03743
0.01800 0.02240 -0.03743
-0.04455 0.03157 0.00011
-0.01041 -0.00728 0.00057
0.03812 -0.00092 0.00717
-0.04552 0.04342 0.05675
0.02442 -0.00393 0.00297
-0.01843 0.01871 0.00239
-0.01690 -0.00808 0.00017
-0.00342 -0.01524 0.05358
0.00443 0.02766 -0.02890
-0.01213 0.04405 0.08368
0.01575 0.00235 0.00392
0.03905 0.00105 0.00045
-0.01198 -0.00667 0.00103
-0.01282 -0.00746 0.00442
-0.02567 0.05530 0.09334
0.00618 0.01838 -0.06363
0.00888 0.01730 -0.06395
-0.00242 -0.01034 0.00240
-0.00277 -0.00802 0.00125
-0.01670 0.01910 -0.00437
0.00151 0.00856 -0.05665
-0.00243 0.03355 0.01089
0.00720 0.00283 -0.03580
0.01082 0.01688 -0.06386
-0.00230 -0.01312 0.00228
-0.00076 -0.00875 -0.01264
-0.00745 0.00379 -0.00185
-0.01238 -0.00681 0.00601
0.02047 0.00339 -0.03669
-0.03209 0.00063 -0.00501
-0.00318 0.01988 -0.05078
0.02019 0.02078 -0.04016
-0.01497 0.02837 -0.01054
-0.00879 0.00269 -0.01690
0.01485 -0.03761 0.26929
-0.00825 0.01519 0.00022
0.03303 0.07862 0.23258
-0.00461 0.00682 -0.03111
-0.01233 -0.00072 -0.01993
-0.05306 0.00251 0.00294
-0.00694 -0.01028 0.00719
-0.01906 0.02617 -0.00594
-0.01477 0.00105 -0.00619
-0.02587 -0.00046 0.00355
0.03123 0.00296 0.00499
0.00984 -0.00822 0.00260
0.00814 0.01487 -0.04834
0.02211 -0.00112 -0.01386
-0.11167 0.07247 0.16812
-0.02480 0.00340 -0.00171
0.01785 0.02344 -0.00118
-0.00043 0.00130 -0.02833
-0.03767 0.03115 -0.00701
-0.04759 0.03752 0.00778
-0.02622 -0.00261 -0.01174
0.02081 0.02311 -0.00138
-0.01605 0.01714 -0.00727
0.01428 0.00111 0.00341
0.02656 0.00307 0.00295
0.00816 0.00832 -0.06298
0.01073 0.02444 -0.02762
-0.03226 -0.00493 -0.00117
0.02037 -0.00409 0.00626
0.00025 0.00001 0.00279
0.00260 0.00304 -0.03403
-0.00130 -0.00757 0.00177
0.02777 -0.03131 0.15255
-0.00566 0.00352 0.00058
0.00799 0.00013 -0.02172
0.00579 0.00658 -0.05248
0.02929 -0.00631 0.01317
-0.05961 -0.00313 0.01208
0.00180 0.01659 0.00405
-0.04909 -0.00145 0.00211
0.00668 0.01086 -0.07537
0.02378 -0.00452 0.00889
0.03617 0.04438 0.08966
-0.00283 -0.00432 -0.00070
0.00729 0.00499 -0.04400
-0.00673 0.02414 -0.00582
-0.01860 0.02608 -0.00615
0.01111 -0.00451 0.00176
0.00810 0.00475 -0.04244
-0.00732 0.01324 -0.00368
-0.03560 -0.00544 0.00674
-0.00141 0.00396 -0.03939
0.00423 0.00111 -0.02356
-0.02716 0.06599 0.16247
0.02814 0.00018 0.00520
-0.01151 0.00021 0.00021
0.02585 0.00348 0.00422
-0.00452 -0.00922 0.00169
0.01363 0.01428 -0.07797
0.01791 0.01374 -0.07079
0.01570 0.01619 -0.06486
-0.02142 -0.00572 -0.00043
0.01996 -0.00320 0.00150
0.01391 -0.00463 0.00266
0.02587 0.00009 0.00541
0.02375 0.01122 0.00340
0.00707 0.01504 -0.07258
0.01263 0.01565 -0.06989
0.01339 0.01813 -0.05609
0.00819 0.01808 -0.05754
-0.01889 0.03472 0.01088
0.00366 0.02213 -0.03729
-0.02011 0.01584 -0.03400
0.01346 0.01654 -0.06863
0.02858 0.02727 0.02378
0.01865 0.01405 -0.06900
-0.01461 0.02264 -0.03872
-0.01461 0.02264 -0.03872
-0.03066 -0.00450 -0.00300
-0.01569 0.04852 0.05245
0.01717 0.01977 -0.05675
0.00187 0.04004 0.02891
-0.00938 0.03193 -0.02059
-0.00399 0.02329 -0.03974
-0.01159 -0.00867 -0.00414
0.01219 0.01765 -0.06689
-0.00292 0.01841 -0.06003
0.01078 0.01713 -0.04439
-0.00252 -0.00809 0.00178
-0.01356 0.02755 -0.01450
0.00056 0.00956 -0.06970
-0.01266 -0.00106 -0.01823
0.00084 0.02237 -0.04014
-0.01112 0.02226 -0.04578
-0.00155 0.02717 -0.02368
-0.00155 0.02717 -0.02368
-0.00099 0.02475 -0.03917
0.01363 0.00593 -0.05048
-0.00389 -0.00019 -0.02044
0.00226 -0.00403 0.00058
-0.02052 -0.00444 -0.00222
0.01130 0.01221 -0.04895
0.00177 0.01649 -0.02785
0.00220 0.02498 -0.02523
0.00271 0.02772 -0.02296
0.00502 -0.00356 -0.00152
0.02964 0.00301 -0.03717
0.00407 0.01444 -0.07440
-0.00130 0.03105 0.00639
0.00589 0.01516 -0.06378
0.00382 0.02587 -0.02331
0.01077 -0.00890 0.02351
-0.01744 0.02514 -0.02862
0.00873 -0.00999 0.00378
0.00921 0.01820 -0.05791
-0.00941 0.01802 -0.06059
-0.01347 0.02087 -0.04801
0.02160 0.01333 -0.04755
0.00426 0.02341 -0.04052
0.01940 0.00294 -0.04458
0.00331 0.02308 -0.04148
-0.00189 0.01919 -0.05248
-0.04080 -0.00863 0.01891
0.00404 0.02134 -0.05058
0.00339 0.01923 -0.05525
-0.01511 -0.00104 -0.01757
-0.03170 -0.00393 -0.00365
-0.07679 -0.00929 0.03980
-0.10121 0.06166 0.14612
0.00522 0.01986 -0.05125
0.00681 0.02210 -0.04849
0.03026 -0.01113 0.03294
-0.03316 -0.00436 -0.00547
-0.03359 -0.00452 -0.00474
-0.02886 0.02734 -0.01869
0.01080 0.02323 -0.03558
-0.03480 -0.00223 -0.00674
-0.03593 -0.00394 -0.00414
0.02114 0.02460 0.00191
-0.03257 0.02699 -0.01966
-0.03395 0.01391 -0.00923
-0.04156 0.03418 0.00780
0.02193 0.03167 -0.00029
-0.12241 0.07300 0.19719
0.02400 0.01886 0.00284
-0.03943 -0.00681 -0.00184
0.00483 0.00643 -0.05389
-0.00154 0.02091 -0.04367
0.02671 -0.00505 0.00419
-0.04002 -0.00591 -0.00313
0.03463 -0.00030 0.01975
-0.04439 -0.00242 0.00300
0.03558 -0.00420 0.00910
0.03391 0.03162 0.00773
0.03353 0.02905 -0.00118
-0.04697 -0.00189 0.00393
-0.02238 0.00616 -0.04615
0.07071 -0.00353 0.07418
0.00627 0.00954 -0.06868
0.04765 0.00205 0.01898
-0.05353 -0.00170 0.00739
0.00403 0.02034 -0.05008
-0.03280 -0.00739 -0.00206
-0.03454 -0.00681 -0.00261
0.00019 0.01984 -0.06278
0.02085 0.00066 -0.02301
0.00310 0.02408 -0.00662
-0.02140 0.00213 -0.00134
-0.09355 0.04200 0.04813
-0.04034 -0.00458 -0.00354
-0.07729 -0.00833 0.03222
-0.01520 -0.00449 -0.00132
0.03758 -0.00653 0.00779
-0.00388 0.01229 -0.08194
0.04415 0.00426 0.01880
0.02094 0.00551 -0.05339
0.00766 0.01539 -0.07264
-0.02476 -0.00362 -0.00161
0.02207 0.00860 -0.04543
-0.00018 0.02197 -0.05040
0.01880 -0.00278 -0.00106
0.05674 0.00214 0.01943
-0.02142 0.00633 -0.05019
0.01197 0.00841 -0.06458
0.02174 -0.00735 0.00182
0.00568 -0.01113 -0.00355
0.00059 0.01971 -0.05358
-0.00233 0.00560 -0.04837
-0.02304 -0.00362 -0.00122
0.01998 0.01006 -0.07250
0.02289 0.00207 0.00393
-0.00799 -0.00063 -0.01559
0.00425 -0.00181 -0.00772
0.01210 0.00246 0.00285
-0.00546 -0.01355 0.00159
-0.01047 -0.00126 -0.01263
0.02295 -0.01201 0.03697
-0.00481 -0.00152 -0.01067
-0.03302 -0.00929 0.02718
-0.05859 -0.00335 0.00449
0.01694 0.00876 -0.06416
0.00158 0.00305 -0.03730
0.00693 0.01026 -0.06914
-0.04688 0.00025 -0.00855
0.00067 0.00643 -0.05231
-0.07745 -0.05873 0.30021
0.00106 0.00269 -0.03043
-0.01711 -0.00060 -0.01675
0.01026 0.00961 -0.06822
-0.02065 -0.00504 0.00080
-0.00369 -0.00443 -0.00365
-0.01991 -0.00407 0.00137
0.00234 -0.00278 -0.00351
0.00099 0.00828 -0.04843
0.02656 -0.00779 0.00383
0.02372 -0.00191 -0.00496
0.00977 0.01979 -0.04840
0.01162 -0.00108 -0.01095
0.01000 0.00958 -0.06454
0.05312 -0.00220 0.01743
-0.05020 0.02493 0.00391
0.03139 0.00661 -0.02710
0.03923 -0.04481 0.22443
-0.00298 0.02175 -0.04304
-0.01928 -0.01238 0.00542
-0.04308 -0.00281 0.00321
-0.00156 0.02178 -0.04533
-0.01336 0.02056 -0.04804
0.00588 0.01010 -0.06824
0.00124 0.00565 -0.05046
-0.02601 -0.00701 -0.00672
0.03161 -0.00539 0.00414
-0.00918 0.00462 -0.04725
0.01546 -0.00328 0.00140
-0.00284 0.02702 -0.01810
-0.01523 -0.00886 -0.00719
-0.00761 -0.00577 -0.01813
0.00709 0.01026 -0.06915
0.03359 0.02388 0.00225
0.01154 0.02112 -0.04277
-0.03642 0.02628 -0.02439
-0.01536 -0.01102 0.00026
-0.03742 0.00030 -0.00302
0.01311 -0.00509 0.00297
0.00563 0.00803 -0.04745
-0.03532 0.02601 -0.02331
-0.02439 0.00020 -0.00100
-0.01523 0.02884 -0.02085
0.05169 0.00459 0.01786
-0.05595 0.00193 0.00722
-0.00899 0.01528 -0.06236
-0.05644 -0.00150 0.00215
-0.02109 -0.00946 -0.00116
0.01012 0.00953 -0.06399
0.01271 0.02377 -0.03526
0.00271 -0.02868 0.06291
-0.05050 0.00850 0.00951
0.03012 -0.00226 -0.01505
-0.00579 0.01869 -0.05824
0.00003 -0.00499 0.00068
-0.01113 0.01355 -0.05733
-0.01384 -0.00677 0.00028
0.00220 0.02151 -0.05202
0.02471 -0.02016 0.14819
0.00209 0.02546 -0.02862
0.01123 0.01398 -0.07819
-0.00463 0.01031 -0.06630
-0.06306 0.04390 0.05153
-0.06306 0.04390 0.05153
-0.03433 -0.07711 0.24147
-0.04489 0.00283 -0.00113
-0.02536 -0.00859 -0.00153
-0.00080 0.02093 -0.04529
-0.03234 -0.01757 0.02541
-0.03691 -0.00722 -0.00309
-0.01820 0.02248 -0.00387
0.01298 0.00513 -0.02311
0.00140 -0.01192 -0.00062
-0.00650 -0.00961 0.00226
-0.00463 -0.00444 -0.00035
-0.01715 0.00017 0.00009
0.03076 -0.00365 0.00532
-0.00833 0.00204 0.00019
0.01660 0.00278 0.00321
0.01551 -0.00460 0.00273
-0.02910 0.00037 -0.00278
-0.01445 0.00251 -0.00009
-0.00569 -0.00457 0.00011
-0.01443 -0.00588 0.00059
-0.00329 -0.00351 0.00020
0.00155 -0.00449 0.00049
-0.02486 -0.00453 -0.00221
0.00295 -0.01117 0.00317
-0.00439 0.01860 -0.06091
-0.00283 0.01946 -0.05326
-0.00211 0.02056 -0.04638
-0.00170 0.02822 -0.03772
0.00017 0.01929 -0.05427
-0.02161 0.01953 -0.00862
0.00888 0.02888 -0.01689
0.01648 0.01979 -0.00524
0.01395 0.01520 -0.07326
-0.10611 0.09338 0.30304
-0.03807 0.03251 0.00456
0.00483 -0.01139 -0.00338
0.00849 0.02076 -0.04809
0.00681 0.01570 -0.07257
-0.03357 0.02687 -0.02225
-0.01015 0.01542 -0.05944
-0.06207 -0.00390 0.00736
-0.01237 0.01517 -0.05667
0.04988 0.00210 0.01884
-0.01065 -0.00477 -0.00087
-0.01022 0.01523 -0.05930
0.00861 0.01027 -0.07051
0.00882 0.01021 -0.07006
-0.01921 0.00635 -0.04805
-0.04190 -0.00392 0.00040
0.00725 0.01065 -0.07175
0.00323 0.01144 -0.07736
0.00970 0.00870 -0.06822
0.00711 0.00995 -0.07180
-0.00404 0.01086 -0.05850
0.00411 0.01127 -0.07596
0.01821 0.00859 -0.05561
0.02296 0.00889 -0.06291
0.00294 0.01155 -0.07752
0.00925 0.00898 -0.06808
0.01466 0.01743 -0.05906
0.00629 0.01164 -0.07216
0.00962 0.00913 -0.06720
0.00443 0.01737 -0.06686
0.03100 0.00700 -0.02915
0.03255 0.00657 -0.02654
0.02575 0.00772 -0.03667
-0.03110 0.00581 -0.02575
0.04310 0.00015 0.00004
0.05430 0.00208 0.01933
0.02746 0.00408 -0.02704
0.00613 0.01006 -0.06818
0.04133 0.01363 0.01023
0.00886 0.01947 -0.05294
0.03318 0.02885 -0.00441
0.02106 0.03076 0.00034
0.04177 -0.00191 0.01382
0.03449 0.00130 -0.00115
0.03508 -0.00352 0.00252
-0.08261 -0.00708 0.03281
-0.00466 0.01009 -0.07357
-0.06660 -0.00867 -0.00104
0.02505 0.02399 -0.03447
0.03272 -0.01300 0.03639
0.02304 0.01025 -0.04774
0.02404 0.02839 -0.00425
-0.03236 0.04136 0.03999
-0.06192 0.07564 0.17372
0.00959 0.02201 -0.04576
-0.01566 -0.00283 -0.01905
-0.01425 0.04958 0.06039
-0.01893 -0.00252 -0.00294
0.02238 -0.00007 -0.01492
0.02102 -0.00500 -0.00743
-0.01759 -0.00446 -0.00166
0.00837 0.02764 -0.01450
-0.01643 -0.00420 -0.00137
0.01229 0.02854 -0.02442
0.01229 0.02854 -0.02442
-0.00174 0.02659 -0.02191
0.01996 -0.00637 0.01220
0.01628 0.03061 -0.00026
0.01425 0.02948 -0.00292
0.01787 0.03744 0.01552
0.00717 0.02460 -0.03006
0.01464 -0.00456 0.00805
0.01282 -0.01015 0.00347
0.00383 0.01056 -0.07410
0.00703 0.02633 -0.02468
0.01169 0.03326 0.00703
0.00288 0.01845 -0.05275
-0.00586 0.00770 -0.05158
0.03510 -0.03923 0.19585
-0.00073 0.01098 -0.07687
-0.00633 0.01333 -0.00115
-0.00722 -0.00545 0.01035
-0.00501 0.02515 -0.02392
-0.00462 0.02254 -0.00324
0.00374 -0.00361 0.00170
0.00569 0.04696 0.05982
0.00318 0.04737 0.04301
0.02028 -0.00164 -0.00667
-0.00219 -0.00884 0.00204
0.00019 -0.01068 0.00190
0.01514 -0.00230 -0.00421
-0.00213 0.03648 0.02418
-0.00084 -0.01367 0.00527
-0.00157 0.02308 0.00352
-0.01900 0.00295 -0.00789
-0.02113 0.00613 -0.00182
-0.00070 0.03676 0.00341
0.00721 0.00987 -0.07225
-0.02331 -0.02584 0.11697
0.02690 -0.00895 0.03313
0.05962 0.00389 0.02195
0.05262 -0.00172 0.01867
-0.00512 0.05432 0.05662
-0.00432 0.00253 0.00019
0.00141 0.02534 -0.02996
0.00400 -0.00001 0.00361
0.03864 -0.06080 0.27771
-0.00496 0.00020 0.00105
-0.00345 0.01863 -0.06100
0.00513 -0.00827 0.00312
0.00692 -0.00408 -0.00093
-0.01789 -0.00187 -0.01560
0.03546 0.02900 0.00165
-0.00462 0.02448 -0.04218
-0.00739 0.01640 -0.00127
0.01045 -0.01425 0.01549
0.03361 0.02884 0.00054
-0.00414 0.00361 -0.02295
0.00759 -0.00616 0.01594
0.00946 0.03348 0.00736
0.01346 0.00991 -0.06241
0.01380 0.00803 -0.06199
-0.05516 0.00837 -0.00028
0.03486 0.00145 0.01097
-0.07026 0.04189 0.04264
-0.01085 -0.00308 -0.00286
0.01210 0.00244 0.00312
0.01098 0.01066 -0.06319
0.03230 0.00014 0.00608
0.03185 0.00906 0.00560
0.01476 0.05509 0.12588
-0.01114 -0.00177 -0.00966
0.00895 0.01050 -0.07309
0.01671 -0.00585 0.01542
0.01878 0.00977 -0.06920
0.01230 0.00826 -0.06253
0.00016 0.01141 -0.07954
-0.02902 0.02642 -0.02222
0.01033 0.01248 -0.04097
0.01562 0.01271 -0.02047
-0.06379 0.09044 0.19518
-0.01859 0.01957 0.00042
-0.06379 0.09044 0.19518
0.02297 -0.00440 0.00286
0.01969 -0.00092 -0.01076
0.02141 -0.00388 0.00000
0.00612 -0.01039 0.00385
-0.04742 -0.00019 -0.00581
0.00926 -0.00850 0.00438
0.01523 0.01223 -0.03910
0.01817 0.00706 -0.05466
0.02721 0.00019 0.00510
-0.03683 0.00064 -0.01322
-0.08476 -0.01353 0.01260
-0.00808 0.00354 0.00014
0.00502 0.01709 -0.06252
-0.03391 0.02602 -0.02551
-0.00942 -0.00398 -0.00107
0.02226 0.00343 0.00404
0.02729 -0.00578 0.00426
-0.01635 0.01791 -0.00196
-0.01446 0.00342 -0.00075
0.01794 -0.00357 0.00327
0.01524 0.00021 0.00320
0.02064 -0.00430 0.00199
-0.00482 -0.00461 0.00019
-0.00648 -0.00932 0.00125
-0.01217 0.00145 0.00080
0.00550 -0.00357 0.00164
-0.00227 0.00007 0.00219
-0.00217 -0.00742 0.00168
0.00925 -0.00594 0.00218
-0.00053 0.01212 -0.08279
0.01034 0.01747 -0.06352
0.00729 0.01665 -0.06293
-0.00621 0.01601 -0.06835
0.00451 0.01880 -0.05568
0.00077 0.01652 -0.06730
-0.00084 0.02053 -0.05509
-0.00084 0.02053 -0.05509
-0.00237 0.01939 -0.05333
0.00704 0.01891 -0.05800
-0.00775 0.02043 -0.04950
0.00196 0.01446 -0.07192
-0.00857 0.01841 -0.05898
-0.01408 -0.00383 0.00077
0.02707 -0.00396 0.00347
-0.00053 0.01213 -0.08275
0.00438 0.01447 -0.07458
0.05756 0.00220 0.01960
0.05502 0.03878 0.02488
-0.00915 0.00649 -0.05536
-0.01128 0.01712 -0.04558
-0.00552 0.01310 -0.06861
-0.00957 0.01755 -0.04820
-0.01298 0.03181 0.00161
0.00967 0.02338 -0.04038
-0.01548 -0.00836 -0.00003
0.00321 0.02647 -0.02578
-0.01150 0.05359 0.11361
-0.00309 0.01869 -0.05493
0.00318 0.04737 0.04301
0.00396 0.03949 0.06032
-0.00027 0.02628 -0.03694
0.00255 0.04892 0.05847
0.00840 0.01733 -0.05913
0.00096 0.01818 -0.06201
0.00572 0.02166 -0.05592
0.01245 0.01682 -0.06208
-0.00981 0.01666 -0.04537
0.00950 0.01746 -0.06428
0.01407 0.01690 -0.06069
0.01149 0.01444 -0.00180
0.00221 0.00352 0.00131
0.00883 0.00658 0.00284
-0.01357 0.02362 -0.01758
-0.01485 -0.00662 0.00031
-0.00440 0.01113 -0.07847
0.01058 -0.01081 0.00391
-0.00101 -0.01902 0.13613
0.01229 0.00344 0.00282
-0.00157 0.00840 -0.04584
-0.01914 -0.00760 0.00002
-0.01935 -0.00776 -0.00119
-0.01354 0.02585 0.01594
-0.01902 0.01990 -0.00596
0.01232 0.01745 -0.06104
-0.01250 0.02249 -0.03699
0.01911 -0.00015 0.00631
-0.00419 0.00279 -0.03530
0.04062 -0.00029 0.09996
0.01926 0.02045 0.00517
0.01604 -0.00055 -0.02177
-0.04310 -0.00443 0.02900
-0.03171 0.00068 -0.00103
-0.03218 0.00644 -0.00037
-0.03378 -0.00293 -0.00079
-0.00807 -0.00442 -0.00077
0.02897 -0.00415 0.00354
0.03258 -0.00086 0.01293
0.01008 0.01010 -0.06827
-0.04539 0.00605 0.00603
0.01410 0.01358 -0.00291
0.03519 0.03226 0.01260
-0.04752 -0.00096 0.00756
0.00357 0.00813 -0.00670
-0.00837 0.03960 0.03314
-0.06400 -0.00256 0.00628
0.00966 0.01569 -0.06403
-0.04347 0.00125 -0.01536
-0.11930 0.05677 0.10602
-0.12020 0.05768 0.10586
-0.12020 0.05768 0.10586
0.03493 0.00738 -0.01917
-0.00140 0.01484 -0.07817
-0.05107 0.00370 0.00447
0.01380 0.01799 -0.06061
0.02016 0.03357 0.00949
-0.00328 -0.00349 -0.00501
-0.00735 0.00801 -0.04293
0.00993 -0.00770 -0.00787
0.01238 -0.00515 0.00324
0.00826 -0.01115 0.00293
-0.01660 0.02095 -0.00429
0.01394 -0.00410 -0.00198
-0.04038 0.03155 0.00209
-0.03738 0.03134 0.00052
-0.00615 0.01024 -0.05396
-0.07484 -0.00634 0.01781
0.01558 -0.00702 0.00668
0.03459 -0.00434 0.00455
-0.04131 -0.00277 -0.00309
-0.03962 -0.00397 -0.00417
-0.00525 -0.00578 0.01205
0.01886 -0.00643 0.00548
0.01905 -0.00543 0.00398
0.00095 0.02190 -0.04018
-0.04760 -0.01656 0.06374
0.05434 -0.00173 0.01952
-0.00146 0.00134 -0.00312
0.02708 0.00321 0.00373
0.00505 0.01965 -0.00885
-0.00873 -0.00766 0.00018
0.00163 -0.00843 -0.00146
-0.01519 0.00997 0.06041
-0.00425 0.01881 -0.00030
-0.00201 0.01162 -0.08040
0.00523 0.01469 0.00104
0.02787 0.00376 -0.02142
0.01167 0.00763 -0.05747
0.02225 0.00190 -0.02885
0.00503 -0.00443 0.00075
0.00504 -0.00439 0.00038
-0.01835 0.00787 -0.05556
0.01864 0.01235 -0.08178
-0.01604 -0.00448 -0.00155
-0.04971 -0.00165 0.00552
-0.00024 0.00169 -0.02685
-0.03554 0.00273 -0.00425
0.01315 0.00338 0.00002
-0.00386 -0.00175 -0.01459
0.00543 0.02086 -0.04857
-0.02050 -0.00679 -0.00060
0.03342 0.00314 0.00435
-0.06161 -0.03193 0.14333
0.00631 -0.00566 -0.00405
0.00606 0.00946 -0.06794
-0.04602 -0.00327 0.00679
0.01774 0.02356 0.01972
0.01591 0.00341 0.00395
0.03034 -0.00566 0.00402
-0.00250 -0.00770 0.00151
-0.00298 -0.00945 0.00200
-0.01413 -0.00965 0.00014
0.00947 0.01651 -0.06432
0.00523 0.01781 -0.05521
-0.00354 0.02341 -0.02823
0.00114 0.01945 -0.05248
-0.07043 0.03979 0.03610
-0.00509 -0.00741 -0.00301
0.01524 0.00593 -0.03983
-0.00636 0.01150 -0.05343
-0.01537 -0.00722 -0.00037
-0.01525 -0.00590 -0.00048
0.00607 0.01899 -0.05607
0.00532 0.01701 -0.00474
-0.02422 -0.00456 -0.00109
0.00496 0.01997 -0.00843
0.00507 0.01918 -0.00580
-0.01270 -0.00606 -0.00011
0.00429 0.00831 0.00044
0.00278 -0.01049 0.00213
0.01109 -0.00607 0.00176
-0.02246 -0.00436 -0.00137
0.00150 0.00064 0.00085
0.00076 -0.00691 0.00132
0.05755 0.06055 0.14827
0.01260 -0.00655 0.00259
0.01260 -0.00655 0.00259
0.01417 0.02488 -0.01004
0.00034 -0.00602 0.00058
-0.00021 -0.00618 0.00085
-0.18233 0.09645 0.13909
-0.00814 -0.00613 0.00017
-0.00218 -0.00842 0.00250
0.00003 0.02783 -0.01039
0.01392 0.00945 -0.00255
-0.00269 0.02869 -0.01178
-0.00335 0.02243 -0.00691
-0.00508 -0.00418 -0.00057
-0.00499 0.01004 -0.07311
-0.00480 -0.00730 0.00159
-0.00465 -0.00598 0.00042
-0.00459 -0.01150 0.00087
-0.00422 -0.00809 0.00168
0.00768 -0.00716 0.00217
0.00821 -0.01234 0.00324
-0.00397 -0.00981 0.00119
0.01415 0.01137 -0.00527
-0.03742 -0.00941 0.02055
0.01420 0.00866 0.00027
0.00589 -0.00917 0.00250
-0.00492 0.01648 -0.00478
-0.00484 0.01738 -0.00525
0.00564 0.02150 -0.00715
0.00559 0.02092 -0.00668
-0.00610 0.02299 0.00169
0.00549 0.01987 -0.00716
0.00551 0.01958 -0.00622
0.00547 0.01911 -0.00582
-0.00180 -0.00947 0.00158
0.01392 -0.00578 0.00241
-0.00517 0.01911 -0.00575
-0.00517 0.01911 -0.00575
-0.00491 0.02237 -0.00689
-0.00491 0.02237 -0.00689
0.00502 -0.00585 0.00227
0.00528 0.01650 -0.00453
-0.00543 0.02038 -0.00621
-0.00759 0.00029 -0.00004
-0.01791 -0.00660 -0.00069
0.00515 0.01470 -0.00379
0.00515 0.02053 -0.00655
-0.00788 0.00075 -0.00002
0.01402 0.02548 -0.01017
0.00051 -0.00407 -0.00023
0.01250 -0.00683 0.00248
0.01418 0.02516 -0.01021
0.01445 0.02240 -0.00919
0.01951 0.00017 -0.02048
-0.00525 0.00325 -0.03904
0.01419 0.02554 -0.01036
0.00098 -0.00499 0.00055
0.01471 0.01952 -0.00885
0.00476 0.01514 -0.00395
0.00196 -0.00950 0.00368
-0.02398 -0.00621 -0.00050
0.00439 0.00990 -0.00158
0.00439 0.00990 -0.00158
0.00382 -0.01298 0.00120
0.01468 0.02461 -0.01067
-0.01704 -0.00995 -0.00038
0.00774 -0.00461 0.00102
0.00542 0.01569 -0.00406
-0.00482 0.02317 -0.00719
-0.00482 0.02317 -0.00719
0.00612 0.01344 -0.00273
-0.00138 -0.01386 0.00148
-0.01330 -0.00890 0.00133
-0.00451 -0.01045 0.00242
0.01416 0.02485 -0.01053
0.01469 0.02419 -0.00995
-0.01207 -0.00445 -0.00114
-0.01622 -0.00590 -0.00035
0.02217 -0.00401 0.00305
-0.00304 -0.00638 -0.00345
0.02511 -0.00504 0.00413
0.03299 0.00023 -0.02344
0.00780 0.01123 -0.06317
0.04655 0.00401 0.00071
-0.00407 0.02866 -0.00777
0.00911 0.02197 -0.03778
-0.00380 0.03384 -0.00068
0.01305 0.00592 -0.04791
-0.00845 0.02621 -0.02444
-0.00461 -0.00028 -0.02106
-0.04291 0.04942 0.07533
-0.00492 -0.00710 0.00218
0.02114 0.02044 -0.00154
-0.00717 0.01130 -0.07772
0.02215 0.00316 -0.03396
0.05566 0.00240 0.01628
0.05612 -0.00221 0.01740
0.03399 -0.00405 0.03631
0.05685 0.00460 0.01939
0.05366 0.00380 0.01471
0.00045 0.00477 -0.04481
-0.00533 0.02893 -0.00733
0.05671 0.00221 0.01923
0.07007 -0.00551 0.04023
0.06042 0.00380 0.00729
0.02234 0.01864 0.00421
0.05279 0.01228 0.01462
0.03567 -0.01404 0.06927
-0.06481 -0.00571 0.02484
0.04576 -0.00226 -0.01993
0.01089 0.00319 0.00185
0.00611 0.02162 -0.04603
0.05203 0.00244 0.01538
-0.00758 0.01869 -0.00125
0.06180 0.00596 0.00998
0.06018 0.00423 0.00634
0.05304 -0.00252 0.01882
0.01919 -0.00399 0.00263
0.06027 0.00515 0.00643
0.06105 -0.00035 0.00177
0.01086 0.00128 0.00462
0.00069 -0.00643 0.00412
0.00932 0.01599 -0.07097
-0.01052 -0.00412 -0.00275
-0.05439 -0.00236 0.00626
0.03669 0.00892 -0.00236
0.01545 -0.00677 -0.00406
-0.01088 0.02879 -0.01434
0.04766 0.00389 0.01861
0.06023 0.00116 0.00879
-0.02645 0.00484 -0.03897
0.06070 0.00359 0.00560
0.01008 -0.00508 0.00224
-0.01293 0.01667 -0.02480
0.00287 0.02389 -0.00823
0.00005 0.00619 -0.05237
0.06069 0.00284 0.00524
0.00124 0.01630 -0.06638
0.05855 -0.00284 0.00922
-0.03866 0.00075 -0.01252
0.01550 -0.00921 0.00290
0.00485 -0.00565 0.00240
0.06124 0.00208 0.00549
0.06113 0.00021 0.00529
0.00700 0.03583 0.02577
-0.00465 0.03324 0.00715
-0.02461 0.01429 -0.00849
-0.02461 0.01429 -0.00849
-0.00293 0.02072 -0.05183
0.01958 0.00335 -0.03674
0.01279 0.02398 -0.00476
-0.04593 -0.00242 0.00765
0.00121 0.02725 -0.02792
-0.01424 0.02809 -0.01240
0.01395 -0.00474 0.00337
0.01370 0.01099 0.00182
-0.01908 0.00322 -0.02151
0.06036 -0.00009 0.00179
0.06303 0.00192 0.00504
0.00128 0.00742 -0.05952
0.00706 -0.00730 0.00336
0.01242 -0.00409 0.00206
0.00369 0.02416 -0.03299
0.06003 0.00141 0.00973
0.03333 -0.00441 0.00646
-0.01994 0.01975 -0.05269
-0.02633 -0.00077 0.00553
-0.01615 0.02693 -0.02192
0.00784 0.01505 -0.00258
0.00784 0.01505 -0.00258
0.01102 -0.00635 0.00221
0.03393 -0.00321 -0.00416
-0.02226 -0.00561 -0.00212
0.07266 -0.00025 0.01699
-0.00407 0.00461 -0.04256
0.00716 0.01966 -0.03564
0.00920 0.02159 -0.03919
0.01021 0.01058 -0.06236
0.05532 0.00573 0.01730
0.00499 0.02950 -0.00230
0.06080 0.00133 0.00008
0.04394 0.00328 0.01821
0.00710 -0.00354 -0.00382
0.01198 -0.00762 -0.00422
0.02582 -0.00943 0.03572
0.03582 0.00317 0.00464
-0.01291 0.00070 -0.02262
-0.01749 0.02434 -0.01105
-0.02260 0.00029 -0.00164
-0.00977 0.00148 -0.03059
0.03813 0.01624 0.00794
-0.03007 -0.00434 -0.00371
0.03287 0.00250 0.00525
0.05329 0.00464 0.01660
-0.01293 -0.00129 -0.01264
-0.03614 -0.00362 -0.00267
-0.01050 0.00023 0.00022
-0.00563 -0.00793 0.00087
0.00084 -0.00638 0.00144
-0.00290 -0.00441 -0.00039
0.01373 0.01345 0.00175
-0.01075 -0.00445 -0.00110
0.02366 0.01121 0.00313
-0.00821 0.00257 -0.00015
-0.07197 0.00429 0.05305
0.00022 0.01626 -0.06437
0.00678 -0.00401 0.00089
-0.00247 -0.00357 0.00071
-0.03406 0.01392 -0.00903
0.01312 0.01320 -0.05261
-0.01191 0.01602 -0.04412
0.01125 -0.01038 0.00290
-0.08309 0.06664 0.14823
0.00344 0.00852 0.00163
-0.03061 -0.00280 -0.03384
-0.01183 0.03727 0.03431
-0.07016 0.03808 0.15511
-0.00670 0.02604 -0.03457
0.00745 -0.00399 0.00117
-0.05404 0.04060 0.03700
-0.19996 0.08394 0.21037
0.00837 0.02956 -0.01258
-0.03254 -0.02237 0.09767
-0.03874 0.00304 -0.00420
-0.03871 -0.00330 -0.00347
-0.03969 -0.00264 -0.00283
0.01063 -0.00719 0.00170
-0.06156 -0.00525 -0.01362
-0.06156 -0.00525 -0.01362
-0.05419 0.03878 0.03488
-0.03606 0.05455 0.11576
-0.04532 -0.00771 0.08857
-0.02926 -0.02286 0.10720
0.01396 -0.00230 -0.00118
0.01218 0.00940 -0.04808
0.00465 0.01876 -0.05535
-0.03339 0.03312 0.00866
-0.00550 -0.01201 0.05038
-0.03930 -0.04160 0.13837
0.01329 -0.00549 0.00291
-0.01706 -0.00269 -0.00213
0.01438 0.01047 0.00061
0.02381 0.00285 -0.04080
0.01392 0.00742 0.00329
-0.01911 0.06500 0.15230
-0.05225 0.00222 0.00367
0.00231 0.00885 -0.06438
0.00206 0.02468 -0.02858
0.01640 -0.00279 0.00198
0.02047 0.00408 -0.00950
0.00662 -0.00908 0.03119
0.01159 -0.00585 0.01774
0.01196 -0.00559 0.01667
0.01721 -0.00400 0.00233
0.00518 0.00526 -0.04982
0.00759 0.02176 -0.03702
0.01744 -0.00904 0.00406
0.01296 0.03852 0.01568
0.00664 0.00713 -0.03216
0.01163 0.00817 -0.06249
-0.05344 0.09138 0.21576
0.00506 0.04486 0.04186
0.01473 0.01495 -0.07383
-0.05298 -0.00206 0.00379
0.02348 0.02698 -0.01201
-0.04788 0.08603 0.21092
0.02035 0.02509 -0.00075
0.02044 0.02577 -0.00087
-0.01434 -0.00205 -0.00876
-0.07531 0.04674 0.06565
-0.00580 0.05962 0.12498
-0.00128 0.02287 -0.04278
-0.04481 -0.00071 -0.00366
-0.00622 0.00683 -0.03470
-0.00159 0.00347 -0.01416
0.00257 0.02297 -0.03925
0.06788 -0.00603 0.01452
0.00142 0.04569 0.07488
-0.04136 0.00041 -0.00768
-0.02102 -0.00179 -0.01058
0.00553 0.02166 0.06384
-0.06462 0.05540 0.10107
-0.06462 0.05540 0.10107
0.02370 0.01913 0.00220
-0.03493 0.07761 0.21907
0.00533 0.00277 -0.03216
-0.01530 -0.00357 -0.00046
-0.03155 0.00201 -0.00239
-0.03820 0.03949 0.03841
0.00078 0.05043 0.09348
0.00024 -0.02478 0.10375
-0.03481 -0.00753 0.05228
-0.01444 0.00357 -0.00083
-0.03644 0.00123 -0.01423
-0.08113 -0.01289 0.12724
0.02639 -0.00410 0.00758
0.06734 -0.00574 0.01515
-0.00308 -0.00703 -0.00145
0.02877 -0.00298 0.00506
-0.00918 0.00599 -0.04001
0.02948 -0.00331 0.00391
-0.01353 0.02173 -0.04222
-0.00359 0.02348 -0.03391
-0.01668 -0.00084 -0.01608
-0.14084 0.08039 0.20496
-0.05892 -0.00572 -0.01172
0.01351 0.00231 -0.02687
-0.06993 -0.00616 0.01134
-0.00538 -0.00431 -0.00036
-0.06528 0.04595 0.05537
-0.03024 0.03434 0.01279
0.00495 0.01625 -0.06886
0.00214 -0.00090 -0.01283
0.03358 -0.00255 0.00271
-0.00962 0.00072 -0.02297
0.03358 -0.00255 0.00271
-0.01438 0.00153 -0.04065
0.03747 0.01584 -0.02280
0.03381 -0.00276 0.00452
0.02147 0.05761 0.09241
-0.06478 -0.00655 -0.00636
0.00017 0.00109 -0.02183
0.00339 0.01724 -0.06217
0.03383 0.00065 0.00267
0.03580 0.00053 0.00521
0.03540 -0.00461 0.00851
-0.00105 0.02884 -0.01262
-0.01536 0.02690 -0.01878
0.07041 0.04303 0.05146
-0.02924 -0.00381 -0.00094
0.01312 0.00921 -0.05177
-0.01901 -0.00826 0.00372
-0.01346 0.00332 -0.04846
0.04087 -0.00194 0.01424
0.01103 0.02112 -0.04541
0.06200 0.00521 0.01857
0.01416 0.02143 -0.04085
-0.00821 -0.00345 -0.00059
0.04221 0.04855 0.06158
0.01777 0.01510 -0.04555
0.04424 0.00838 0.01849
-0.01549 -0.00835 -0.00016
-0.01064 -0.00762 0.00129
0.04546 0.00076 0.00027
-0.03871 0.00403 -0.00976
0.06023 -0.00238 0.01942
-0.01069 0.00020 0.00045
0.01674 0.00027 -0.01989
-0.03472 -0.01192 0.03555
-0.02653 0.00026 -0.00168
0.04638 0.00385 0.01879
-0.06296 -0.00663 -0.00032
0.07564 -0.02028 0.13756
0.01219 0.00688 -0.05638
-0.02137 0.00683 -0.05062
-0.33155 -0.02114 0.33350
0.05950 0.00238 0.02163
0.04879 0.00214 0.01817
0.00374 0.02051 -0.05338
0.05815 0.00210 0.02001
-0.01384 -0.00345 -0.00138
0.01494 0.00755 -0.05951
0.05627 -0.00119 0.01054
-0.00419 0.00503 -0.01446
0.05142 0.00498 0.01897
0.05241 0.00454 0.01919
0.00285 0.01160 -0.07549
-0.02384 0.02582 -0.03473
0.01651 0.02313 -0.04266
0.01651 0.02313 -0.04266
0.05604 0.00476 0.01758
0.05427 0.00944 0.01893
-0.04803 0.03694 0.02030
0.05536 -0.00132 0.01897
0.05496 0.00216 0.01921
0.02248 -0.00363 -0.00596
0.01667 0.00868 -0.04847
0.01799 -0.00546 0.00368
0.03084 0.02101 -0.05292
0.02760 0.00041 -0.01453
-0.00140 0.00906 0.09052
0.02015 0.03030 0.00245
-0.01810 0.00813 -0.00120
0.03098 0.02030 -0.03335
0.01618 -0.00550 0.01697
-0.03293 -0.08307 0.43967
-0.12798 0.05685 0.11160
-0.06301 -0.00339 -0.00386
0.03877 0.02746 -0.01388
0.00235 0.00776 -0.00061
-0.04014 0.03178 0.00321
0.02709 0.00777 -0.04270
0.00864 0.00218 -0.03357
-0.00480 0.00582 -0.04836
0.02904 0.00292 -0.02838
-0.03745 0.00380 -0.00292
-0.02466 0.02603 -0.03305
-0.02452 0.03118 0.00194
-0.00675 0.00952 -0.06445
0.02632 0.00157 -0.02112
0.00419 0.03271 0.00372
-0.00101 -0.01482 0.01938
0.01789 0.02729 -0.00126
0.01240 0.00499 -0.02207
-0.08603 0.04510 0.05988
-0.01181 0.00220 -0.00113
-0.01874 -0.00608 -0.00086
0.02176 0.01470 -0.05009
0.05895 0.00447 0.01995
0.00707 -0.00615 0.00272
-0.00493 -0.01586 0.02992
-0.00535 -0.00069 -0.01249
-0.01127 -0.00520 0.00016
0.01572 0.00349 0.00336
0.03241 -0.00192 -0.00079
-0.00881 0.00349 -0.03583
0.03633 0.01591 -0.02257
0.00204 0.00840 0.00142
-0.06761 -0.00476 0.00874
-0.01382 0.09476 0.29006
0.03019 0.02222 -0.03898
0.07191 0.05014 0.10379
0.04708 0.03244 0.01589
0.04708 0.03244 0.01589
-0.03846 0.05012 0.08784
-0.06252 -0.00504 -0.00883
-0.00817 0.01772 -0.06351
0.02660 0.02429 -0.03009
0.02334 0.00156 -0.02872
0.01339 0.00340 0.00363
-0.01945 0.00219 -0.00152
0.00632 0.03154 -0.00926
0.07154 -0.02412 0.06550
0.01376 -0.00485 0.00388
0.00885 0.00544 -0.04845
-0.03896 0.00431 -0.00457
0.03464 0.00350 0.00549
-0.00968 0.00197 0.00053
-0.00308 -0.01376 0.04702
0.06188 0.00455 0.01939
-0.07156 0.02081 0.21568
0.03636 -0.00526 0.01489
0.00269 0.01216 -0.07621
0.04244 0.00093 -0.00134
-0.01126 0.01093 0.05926
-0.06781 0.00849 -0.00520
-0.16042 -0.04499 0.43506
-0.01403 0.02327 -0.03740
-0.12153 0.05172 0.08995
0.00971 0.02827 0.04736
-0.02017 0.02448 -0.03075
-0.09824 -0.01259 0.11936
-0.03246 0.02987 -0.00794
0.00930 0.02260 -0.03793
0.05116 -0.00029 0.02011
-0.19992 -0.13721 0.63467
0.01086 0.02929 -0.00892
0.05008 0.00083 0.01114
0.02735 0.02703 -0.02471
-0.10075 -0.05855 0.48980
0.02723 0.03347 0.02225
-0.00586 0.00257 0.00034
0.01070 0.00196 0.00305
-0.06370 0.00106 -0.00933
0.00375 -0.00584 0.00185
0.05348 0.00407 0.01739
-0.00980 0.00256 -0.00019
-0.01935 0.00271 -0.00231
0.04478 0.00380 0.01859
0.05330 -0.00074 0.01939
-0.00578 0.00209 -0.02804
-0.06396 0.00660 -0.00333
0.01386 0.01890 -0.04235
-0.08794 0.03680 0.12071
0.06259 -0.00373 0.03780
0.01814 0.00853 -0.04777
-0.01103 0.02551 0.00671
-0.01146 -0.00662 0.00873
-0.00285 0.04956 0.06401
0.05314 0.00396 0.01850
-0.01800 0.02364 -0.03874
0.00497 -0.00575 0.00223
0.00357 0.01810 -0.00125
-0.03855 0.00098 -0.00278
-0.03912 -0.00415 -0.00318
0.01134 0.00021 0.00260
0.00176 -0.00542 0.00112
-0.01699 -0.00407 -0.00117
0.01583 -0.00673 0.00377
-0.00897 -0.01035 0.00159
0.04441 0.00499 0.01779
-0.02180 -0.00559 -0.00114
0.04763 0.00208 0.01883
0.00590 -0.00402 0.00089
0.02397 -0.00444 0.00546
0.01632 -0.00462 0.00300
-0.04943 -0.00200 0.00388
-0.00973 -0.01125 0.00075
0.02917 -0.00566 0.00509
-0.00115 0.02309 -0.03963
-0.05664 0.00444 0.00988
-0.00798 0.03228 0.01364
-0.07181 0.11481 0.35048
0.00998 0.00413 -0.05172
-0.00038 0.06351 0.11818
0.01567 0.02018 -0.04805
0.03441 -0.02293 0.11595
-0.01226 0.03169 0.00154
-0.01260 0.00566 0.00453
-0.00770 0.02369 -0.04411
-0.05958 0.05246 0.08731
0.01611 0.03242 -0.00215
0.01445 0.02031 0.12199
-0.04970 -0.00053 0.00570
-0.01624 -0.00879 -0.00015
0.00647 -0.00489 0.00165
0.00544 -0.00801 0.00144
0.00660 0.01206 -0.03281
0.00253 -0.01062 0.03059
-0.00210 -0.00540 -0.00290
-0.03567 -0.01119 0.02828
0.00599 -0.01114 0.01912
0.00861 -0.00309 -0.00775
-0.04612 -0.02527 0.08357
0.00897 -0.00773 0.00345
0.03172 0.02936 -0.00017
-0.03356 -0.02986 0.14589
0.03562 -0.00910 0.02740
0.02421 0.02991 0.01702
0.00086 0.01134 -0.07628
0.00630 0.01204 -0.02117
0.01889 -0.00009 0.00392
0.00261 0.01033 -0.06373
0.01833 -0.00402 0.00259
0.03223 -0.00487 0.00444
-0.01151 -0.00296 -0.00919
-0.01245 -0.00969 0.00066
-0.05948 -0.05545 0.28643
0.03197 0.01620 0.00453
-0.01237 0.03136 -0.00961
-0.01150 -0.00034 0.01902
-0.01045 0.03758 0.02100
0.03096 -0.00585 0.00716
0.02999 -0.00656 0.00250
0.02230 -0.00433 0.00220
0.01990 0.01550 0.01626
0.01482 -0.00342 -0.00319
-0.02128 0.05456 0.04368
0.00152 0.00290 0.00094
-0.03276 -0.00697 -0.00315
-0.01429 0.02716 -0.01775
0.01618 -0.00499 0.00309
0.00051 0.01062 -0.07417
-0.00304 0.00576 -0.03782
0.04333 0.03107 0.00757
-0.01650 0.02877 -0.00817
0.01020 0.00622 -0.05217
0.00775 -0.00263 -0.03373
0.01579 0.00705 -0.05284
-0.03253 -0.00369 -0.00232
-0.00939 -0.00767 0.02574
-0.01327 0.00520 -0.04693
0.01541 -0.00355 -0.00274
-0.01332 -0.00085 -0.01791
0.04387 0.03062 0.00867
-0.00729 0.00113 -0.02448
-0.01167 -0.00534 -0.00346
-0.01803 0.03071 -0.00335
-0.22574 -0.02587 0.45595
-0.00897 -0.01661 0.04160
-0.00693 -0.00803 0.00121
-0.00701 -0.00802 0.00121
0.03488 0.00344 0.00197
0.00426 0.00223 -0.03255
0.02509 -0.01582 0.07612
0.00650 0.00378 -0.03591
0.00099 0.00952 -0.06829
0.00257 0.00915 -0.06682
-0.00336 0.01055 -0.07564
0.00186 0.00834 -0.06170
0.01937 -0.01184 0.05253
-0.05353 0.03411 0.01408
0.01708 0.03808 0.03125
-0.00421 0.00153 -0.02463
0.00345 0.00160 -0.04288
-0.00974 0.00889 -0.05538
-0.01480 0.00111 -0.02560
0.00044 0.01524 -0.07087
-0.00214 0.03092 0.00686
-0.03302 0.02789 -0.01799
-0.00355 -0.01078 0.00234
-0.00311 -0.00195 -0.00529
0.01595 -0.01404 0.05031
0.02551 -0.00864 0.00538
-0.03010 -0.00398 0.02745
-0.07828 -0.04753 0.20843
-0.02088 0.02740 -0.00779
0.02191 -0.02020 0.10045
0.00299 0.03699 0.02464
-0.00219 -0.00444 -0.00037
-0.00224 -0.00776 0.00163
-0.00443 0.00018 -0.02338
-0.00045 -0.00922 0.00281
0.00979 0.01127 -0.06733
0.01470 0.02208 -0.05268
-0.03281 0.02723 -0.01738
-0.00329 0.00102 -0.02320
0.01839 -0.00533 -0.01146
0.00024 0.01192 -0.07916
-0.00122 0.02236 -0.03425
-0.00224 0.00898 -0.06564
0.04224 0.04241 0.05409
0.01910 -0.00519 0.00901
0.00858 -0.01188 0.00556
-0.02036 0.04827 0.07448
0.00347 0.00211 -0.02696
-0.00014 -0.00898 0.03434
0.00154 -0.02445 0.12029
0.00743 0.01014 -0.06807
0.01079 0.02277 -0.05102
0.00133 0.03439 0.01453
0.02025 0.00767 -0.02062
-0.00020 -0.00276 -0.00042
0.00746 -0.00883 0.00488
-0.00142 0.00555 -0.04645
0.00717 -0.00854 0.00260
0.00198 0.00558 -0.04634
0.00513 -0.00425 0.00252
0.00926 -0.00079 -0.01026
0.00690 -0.03855 0.20109
0.01779 0.00143 -0.02378
0.03798 -0.00499 0.00505
0.00605 -0.02622 0.13177
0.00201 -0.00468 0.00146
-0.01004 0.00926 -0.06192
0.00694 0.02964 -0.00697
0.00107 0.00084 -0.02021
-0.02463 0.00367 -0.03732
0.00697 0.01898 0.01756
-0.01036 0.00914 -0.06142
0.12426 -0.06286 0.31629
-0.09286 0.05517 0.09936
0.00429 0.02743 -0.01215
0.00643 0.03193 0.00507
-0.00427 0.02323 -0.03322
0.00254 0.00060 -0.01869
-0.01279 0.00940 -0.06553
0.00475 0.00732 -0.05567
-0.00713 -0.00639 0.00180
0.00243 0.00455 -0.02560
0.00948 0.00335 -0.03316
0.01080 0.00084 -0.01884
0.00996 0.00160 -0.00699
-0.00907 0.00946 -0.06949
0.01521 -0.01844 0.08894
-0.04067 -0.01187 0.04507
0.03300 -0.00283 0.00412
-0.00486 0.00437 -0.04028
0.00605 0.01611 -0.06707
-0.01739 0.02985 -0.00578
-0.00606 0.02383 -0.00408
0.00198 0.01117 -0.07476
0.05649 -0.01990 0.11716
0.03502 -0.00170 0.00561
0.01883 0.00912 -0.06607
-0.05000 -0.02803 0.13404
0.01541 -0.00494 0.01378
0.00761 0.00540 -0.04477
-0.01139 -0.02723 0.13490
0.02093 0.03512 0.03365
0.00557 0.00190 0.00303
-0.00553 0.00829 -0.06224
-0.00387 0.03210 0.01045
-0.04983 -0.00185 0.00745
0.00546 -0.01164 0.00219
-0.02284 -0.00440 -0.00263
0.01456 -0.00451 0.00211
0.00311 -0.00353 0.00103
-0.00517 -0.00467 0.00052
-0.01642 -0.00713 -0.00047
0.00415 -0.00834 0.00276
0.00468 -0.00842 0.00279
0.02397 0.00105 0.00433
-0.01731 0.02945 -0.00610
0.03516 -0.00059 0.00309
-0.01818 0.00253 -0.00109
-0.00620 -0.00895 0.00115
0.03491 -0.00012 -0.00547
0.00816 -0.00649 0.00219
0.00604 0.00262 0.00168
0.03251 0.02945 0.00212
-0.07152 0.03997 0.01998
0.02478 0.02850 -0.01496
0.03504 -0.00298 0.00527
-0.00199 0.02553 0.00908
-0.02125 0.02665 -0.00669
0.00013 -0.03113 0.00479
0.01253 0.01555 -0.07003
-0.00049 0.00606 -0.06298
0.00386 0.02079 -0.00143
-0.01323 0.01689 -0.04504
0.00605 0.02194 -0.05224
-0.03615 -0.01056 0.02929
-0.02063 0.06824 0.17680
0.00525 0.01664 -0.06407
-0.01237 -0.00259 -0.02121
0.01884 0.01208 -0.07948
0.03835 -0.00358 0.02563
0.00177 0.02606 -0.02222
0.01478 0.00772 -0.05879
-0.01450 -0.00741 0.00080
-0.01288 -0.00443 0.00004
0.00701 0.01686 -0.05907
-0.05060 0.00261 0.03362
0.02740 0.04237 0.03418
-0.04889 -0.00138 0.00845
0.02139 -0.00031 -0.01399
-0.01416 0.02460 -0.03064
0.04826 -0.00700 0.04697
0.00433 -0.00361 0.00146
0.01860 0.00694 -0.04548
-0.01860 -0.00403 0.00123
0.00036 0.02340 -0.03857
0.02269 0.00770 -0.04287
0.00534 0.01745 -0.06445
-0.00044 0.00748 -0.05575
-0.01481 0.02967 -0.01705
-0.02401 0.00124 0.00118
-0.01920 0.02563 -0.02848
0.01693 0.00683 -0.06281
0.00544 0.02903 -0.00971
0.01748 0.00089 -0.03759
0.00806 0.01035 -0.06985
0.01377 0.01080 0.00094
-0.00400 -0.01588 0.05602
-0.02240 -0.00517 0.00009
-0.00580 0.03201 -0.01445
0.00168 0.01798 -0.06839
-0.00002 -0.00242 -0.01561
-0.26019 0.13511 0.45577
-0.01572 -0.00557 -0.00036
0.01062 -0.00580 -0.00630
0.00132 0.01204 -0.08238
0.00176 0.01021 -0.04536
0.01633 0.01105 -0.06317
-0.02808 -0.00281 -0.00224
0.02062 -0.00294 0.00362
0.00323 0.02030 -0.06454
0.01340 -0.00104 -0.01104
-0.22114 -0.08587 0.41566
-0.01478 -0.00365 -0.00024
0.01644 0.02585 -0.02142
0.04087 0.03740 0.03685
-0.02332 -0.00333 -0.00294
0.01887 0.00155 -0.02784
-0.06161 -0.00444 -0.01083
-0.00281 0.01188 -0.08196
0.00299 -0.01177 0.00271
0.01801 0.03260 -0.00129
0.00707 0.01205 -0.07082
-0.07079 0.00966 0.00679
-0.00739 -0.01185 0.00137
0.07617 -0.04727 0.22603
-0.04818 0.00303 -0.00018
-0.02731 0.03024 -0.00700
0.05351 -0.02475 0.05376
-0.00351 -0.00930 0.00219
0.00097 0.02685 -0.01350
0.01266 0.01100 -0.05528
0.02547 -0.00770 0.00229
-0.00971 0.01510 -0.05736
-0.02247 0.00342 -0.02667
-0.01256 -0.01825 0.08418
-0.00101 -0.00346 0.00308
-0.04169 0.00340 -0.00686
-0.02591 -0.00461 -0.00210
-0.00666 0.02909 -0.03315
-0.06566 0.00085 -0.00266
0.00993 -0.00785 0.00332
0.01013 -0.00373 0.00334
0.02161 0.00270 0.00409
-0.00400 0.00923 -0.06165
0.00144 0.01003 -0.06643
-0.01639 0.04851 0.04334
0.01398 -0.00910 0.01875
-0.00427 0.01181 -0.07968
-0.11795 -0.01883 0.09318
-0.03540 0.01883 -0.00657
0.02593 -0.00098 0.01326
0.01890 0.00201 0.00247
0.04952 0.00042 0.00385
-0.07123 -0.00029 -0.00035
0.00479 -0.00844 0.00318
-0.05527 0.00675 0.00711
0.00322 -0.00732 0.00120
0.00069 -0.00581 0.00622
-0.00723 0.00955 -0.06435
-0.05803 0.00169 0.01195
-0.06480 0.00329 -0.00667
0.03026 0.00713 -0.03132
0.02411 -0.00525 0.00697
-0.01866 0.00324 0.00155
0.01612 0.00286 -0.03473
0.05945 -0.03375 0.11629
-0.01694 -0.00414 0.00216
0.02539 0.00108 -0.03460
0.01333 0.03325 -0.00594
-0.00977 -0.00037 -0.02130
0.00691 0.01038 -0.07103
0.00153 0.00987 -0.06718
-0.04019 0.00885 -0.01065
0.01570 0.01105 -0.07525
0.00792 0.01688 -0.06728
0.02397 0.00212 -0.00899
0.00651 0.03030 0.00729
-0.06679 0.00247 0.00003
0.00283 0.01133 -0.07430
-0.06555 0.00258 -0.00368
0.00125 -0.00506 0.00121
0.00462 -0.01204 0.00275
0.00961 -0.01074 0.00276
0.00516 0.01684 -0.07014
0.01206 0.01463 -0.07445
0.01375 0.01425 -0.07715
0.01924 0.00935 -0.06580
0.01893 0.00647 0.00403
-0.01769 -0.00296 -0.00073
-0.05147 0.00206 0.00826
-0.05455 0.00210 0.00644
-0.02624 -0.00446 -0.00274
0.01425 0.01384 -0.07719
0.00942 0.01564 -0.06947
-0.09920 0.04837 0.04791
0.00667 0.01629 -0.05813
-0.00388 0.02159 -0.00793
-0.01690 0.02410 -0.03377
0.01248 0.01427 -0.07526
-0.00563 0.02460 -0.03347
0.01275 0.01428 -0.07575
-0.00019 0.01832 -0.06201
0.00013 -0.03113 0.00479
0.01914 0.02070 -0.04508
0.01303 0.01491 -0.07445
0.01287 0.01461 -0.07577
-0.07919 0.03502 0.00676
-0.00319 0.02293 -0.04754
0.01051 0.01443 -0.07471
0.01047 0.01459 -0.07327
0.01035 0.01710 -0.06468
-0.01266 -0.00487 -0.00000
0.01523 -0.00483 0.00208
-0.00730 -0.01197 0.00123
0.00219 0.00350 0.00142
-0.01191 -0.00404 -0.00116
-0.03994 -0.00533 -0.00408
-0.13830 0.13776 0.41744
-0.07278 -0.00885 0.00508
-0.07278 -0.00885 0.00508
-0.07756 -0.01359 0.00707
-0.07338 -0.01148 0.00585
-0.07368 -0.01104 0.00628
-0.00638 -0.00891 0.00075
0.01040 -0.00645 0.00232
-0.02892 0.00271 -0.02833
-0.00934 -0.00683 -0.00123
-0.02714 -0.01092 0.03742
-0.07850 -0.01422 0.00687
-0.05824 -0.00404 -0.01387
-0.00552 0.01311 -0.00515
-0.00579 -0.00574 0.00008
-0.00558 0.01033 -0.07663
-0.07092 -0.00761 0.00457
-0.07092 -0.00761 0.00457
0.00531 0.00632 -0.05650
0.01190 -0.00029 -0.01960
-0.01280 -0.00887 0.00126
-0.06406 -0.00711 -0.00119
0.01059 -0.00902 0.03556
-0.00420 -0.00881 0.00143
-0.01612 -0.00915 0.01609
-0.00378 -0.00993 0.00080
-0.00394 -0.01045 0.00211
-0.03019 0.00323 -0.02809
-0.00346 0.01414 -0.08433
-0.03928 -0.01381 0.05567
0.00231 -0.01346 0.05966
-0.01583 -0.00950 -0.00017
-0.00538 0.00262 -0.03556
0.00945 0.01586 -0.06697
-0.18069 -0.13715 0.60760
0.00471 0.02769 -0.01206
-0.03296 0.03312 -0.01068
-0.00241 -0.01031 0.00223
-0.05256 -0.00306 0.01151
0.00740 -0.01252 0.00306
-0.13170 -0.02286 0.11600
-0.06836 -0.00470 0.01522
-0.06958 -0.00561 0.01781
-0.01890 -0.00515 -0.00047
-0.05973 -0.00652 0.00204
0.00225 0.02573 -0.03081
-0.07254 -0.00675 0.02447
0.00184 0.01567 -0.06893
-0.00051 -0.01096 -0.00001
-0.02056 -0.00433 -0.00159
-0.06372 -0.00516 0.01221
0.00544 0.02541 0.00524
0.00057 0.00271 -0.03246
0.00534 0.02424 0.00567
0.00533 0.02388 0.00579
-0.02739 -0.00734 0.01778
0.00512 0.02447 0.00554
-0.03026 -0.00332 -0.00387
-0.02445 -0.00945 -0.00015
-0.02518 -0.00560 -0.00032
0.00501 0.02233 0.00519
0.00501 0.02233 0.00519
0.00422 -0.01034 0.00243
-0.04585 -0.00033 -0.00675
-0.00937 0.04195 0.02344
-0.01106 0.00798 -0.06200
0.01963 0.01288 -0.07890
-0.01296 0.01472 -0.05674
-0.04358 0.00025 -0.01058
-0.02830 -0.00324 -0.00417
0.00486 0.00487 -0.04629
0.00627 -0.01414 0.06404
-0.00512 0.01410 -0.07286
-0.03999 -0.00206 0.00057
-0.00366 0.00815 -0.06113
0.00745 0.00698 -0.05442
0.00680 0.00423 -0.03831
-0.06700 -0.00462 0.00552
-0.01165 0.02460 -0.03157
-0.00258 0.01210 -0.08283
0.01275 0.02309 -0.03714
-0.02440 -0.00724 0.01799
-0.01109 0.00139 -0.03690
0.00458 0.02332 0.00495
-0.00320 -0.00930 -0.00897
-0.00282 -0.01709 0.07814
-0.01182 0.02581 -0.02273
-0.00279 -0.00365 0.00090
-0.02579 -0.06019 0.18235
-0.00293 0.00333 -0.03442
0.00013 0.00525 -0.04597
-0.00286 0.00746 -0.05724
0.02066 0.00552 -0.02436
0.01175 0.00529 -0.04501
0.00053 -0.01037 0.04131
-0.00251 0.00882 -0.06471
0.01031 -0.00610 0.01926
0.00552 0.02618 0.00586
-0.01863 -0.02628 0.12763
0.00520 0.02567 0.00570
0.00520 0.02567 0.00570
0.00514 0.02811 0.00636
0.00518 0.02517 0.00623
0.00337 0.01760 -0.06054
-0.05235 -0.00123 -0.00095
0.00483 0.02367 0.00542
-0.01554 0.00392 -0.00862
0.00285 0.00204 -0.01141
0.01644 0.00771 -0.05644
0.00436 -0.00572 0.00220
0.00129 0.00291 -0.03170
0.00484 0.01959 0.00494
-0.02626 -0.00919 0.00008
0.01324 0.00315 -0.03164
0.01214 -0.01555 0.05579
-0.02763 -0.01497 0.06378
-0.00013 0.01056 -0.07112
-0.00581 -0.00762 0.00661
0.01502 0.00252 -0.02777
0.02029 0.02193 -0.04322
-0.02700 -0.00522 -0.00020
-0.00439 0.00622 -0.05058
-0.02793 -0.00537 -0.00269
0.00487 0.02022 0.00457
-0.05017 -0.03273 0.16044
0.00814 -0.00782 0.00296
0.00509 0.02943 -0.00878
0.00753 -0.00112 0.01409
0.00497 0.02186 0.00471
-0.00430 -0.03985 0.20394
0.00507 0.01943 0.00492
0.00682 -0.00009 -0.01420
-0.00664 0.01012 -0.07237
-0.02737 -0.00294 -0.00202
-0.00450 0.02184 -0.05730
-0.01338 -0.02895 0.14232
-0.06461 -0.00220 0.00255
-0.12646 -0.04288 0.29136
-0.00408 0.01152 -0.08072
-0.00308 0.01276 -0.08650
-0.02249 -0.00582 -0.00117
0.00518 0.02135 0.00484
0.02251 0.01880 -0.05674
-0.00884 -0.01438 0.00607
-0.00028 0.01155 -0.05528
-0.06924 -0.00373 0.01547
-0.03356 0.00347 -0.02661
-0.00451 0.01131 -0.07879
-0.02544 -0.02231 0.10354
-0.03179 0.00346 -0.02651
0.00367 -0.01294 0.00103
0.00602 0.00006 0.00333
-0.00992 -0.00824 0.00093
-0.01035 -0.00998 0.00092
-0.00625 -0.00371 0.00107
0.00192 -0.00902 0.00329
0.00038 -0.00640 0.00024
-0.02049 -0.00733 -0.00067
-0.00505 -0.00357 0.00028
0.01094 -0.00626 0.00252
-0.03367 -0.00599 -0.00577
-0.00463 0.01208 -0.08296
-0.01319 -0.00304 -0.00040
-0.00548 -0.01358 0.00177
-0.01759 -0.00393 -0.00223
-0.02750 -0.00394 -0.00305
0.00417 -0.00465 0.00153
-0.00225 -0.03561 0.01600
-0.07932 -0.01499 0.00780
-0.00173 0.01059 -0.07586
-0.02244 0.02399 -0.03923
-0.00028 -0.00048 -0.02699
0.00524 0.02206 0.00517
-0.00717 0.01745 -0.07261
-0.09625 -0.01526 0.07445
0.00485 0.01609 -0.00424
0.00565 0.02569 -0.03034
0.00779 -0.01233 0.00274
0.00201 -0.00602 -0.02280
0.00031 0.02178 -0.05609
-0.03463 0.03975 0.03801
-0.00307 0.01926 -0.05879
-0.02237 0.03272 0.00990
-0.01963 0.02804 -0.00919
-0.01963 0.02804 -0.00919
-0.02622 0.03945 0.02607
-0.01857 0.02672 -0.00797
-0.00238 0.01835 -0.05738
-0.01881 0.02625 -0.00844
-0.01860 0.02572 -0.00810
0.01804 -0.01021 0.04349
0.01493 0.01120 -0.06047
0.01493 0.01120 -0.06047
-0.03699 0.00271 -0.02585
0.00176 0.00518 0.00358
-0.02550 0.00504 -0.03997
-0.04424 -0.00229 0.00699
0.01312 0.00402 0.00273
-0.00783 0.00914 -0.06688
0.00452 0.01068 -0.06856
0.00345 0.00352 0.00277
0.00583 0.01126 -0.07285
0.01582 0.00444 0.00631
0.00346 0.00310 0.00151
0.00394 0.00287 0.00382
0.00785 0.01054 -0.06592
0.01396 0.00316 0.00714
0.01380 0.00344 0.00433
0.00150 0.00204 0.00146
0.01076 0.00933 -0.05224
0.01444 0.00252 0.00786
0.00986 0.01054 -0.06515
0.00380 0.00855 -0.05556
0.00825 0.00894 -0.05436
0.02337 -0.00235 0.00042
0.01618 0.00206 0.00268
0.00879 -0.00014 0.00484
0.01010 -0.00086 0.00606
0.01124 0.00890 -0.05821
-0.00635 0.00174 -0.03009
0.01588 0.00592 -0.03670
-0.00249 -0.00467 0.01072
-0.00267 0.00660 -0.05362
-0.01269 -0.00521 -0.00065
-0.01078 -0.00383 0.00142
0.01278 -0.01092 0.04187
-0.01073 -0.00564 0.00012
-0.01627 -0.00655 0.00005
-0.00932 -0.00548 -0.00052
-0.00993 -0.00582 -0.00002
0.01318 0.00459 -0.04380
-0.01451 -0.00711 0.00188
0.00916 -0.00380 0.00350
-0.00021 0.01149 -0.07955
-0.01640 -0.00760 0.00058
-0.00842 -0.00664 0.00142
0.00342 0.00440 -0.04130
0.00170 -0.02925 0.12543
-0.02524 -0.00402 -0.00278
0.01053 0.00682 -0.05419
-0.00840 -0.00832 0.00315
0.00841 -0.00546 0.00207
0.00977 -0.00530 0.00162
0.00779 -0.00623 0.00337
-0.00950 -0.00894 0.00295
0.00480 -0.00659 0.00184
0.00048 -0.00828 0.00351
0.01890 -0.00539 0.00108
0.00415 -0.00836 0.00271
0.01860 -0.00650 0.00479
-0.00348 0.01076 -0.07763
-0.00478 -0.01013 0.00271
-0.00042 -0.00954 0.00331
0.00995 -0.00812 0.00423
0.01198 -0.00756 0.00341
0.00381 -0.01231 0.01787
-0.00084 -0.00966 0.00231
0.00068 -0.00965 0.00288
0.00030 -0.00978 0.00334
-0.00883 -0.00943 -0.00584
-0.00289 -0.01064 0.00264
-0.00018 -0.01087 0.00173
0.00124 -0.00914 -0.00630
0.00802 -0.01197 0.00578
0.00510 -0.01278 0.00599
0.00356 -0.01174 0.00078
0.00290 -0.01223 0.00183
0.00175 -0.01241 0.00153
0.01221 -0.01113 0.03460
0.00894 0.00382 -0.04070
-0.00142 -0.00263 -0.00930
-0.00248 -0.01155 0.00169
0.01788 -0.00189 0.01385
0.00964 0.00645 -0.03366
-0.35448 -0.10616 1.00000
-0.00938 -0.00651 -0.00154
0.00852 -0.00880 0.00446
0.00441 -0.00582 0.00194
