# .PCD v.7 - Point Cloud Data file format
VERSION .7
FIELDS x y z
SIZE 4 4 4
TYPE F F F
COUNT 1 1 1
WIDTH 1877
HEIGHT 1
VIEWPOINT 0 0 0 1 0 0 0
POINTS 1877
DATA ascii
0.00068 0.00237 -0.00256
0.14570 -0.04000 0.08963
-0.00307 -0.00189 0.01502
0.00607 -0.00270 -0.00434
-0.01580 0.00459 -0.00741
-0.00981 -0.00160 0.02287
0.01742 -0.00986 0.04272
-0.00764 0.00346 0.00107
0.01177 0.00029 0.01152
-0.00013 0.00272 0.03706
-0.00441 0.00329 -0.00196
-0.00051 0.00279 0.01836
-0.00033 0.00205 -0.00122
0.03205 -0.03514 0.02502
-0.00612 -0.00017 0.00046
-0.00577 0.00046 0.01904
0.02518 0.00139 0.05474
0.00550 0.00218 0.02870
0.04322 -0.00965 0.04087
0.00385 0.00078 0.02601
-0.00378 0.00371 0.02728
0.06929 -0.00670 0.05752
-0.01189 0.00361 -0.01878
0.00764 -0.00348 -0.00492
0.00500 -0.00288 -0.00478
0.01476 -0.00912 0.03140
-0.00079 -0.00235 0.00506
-0.00194 -0.00201 0.00446
0.00103 -0.00207 -0.00214
0.00380 -0.00505 0.02277
-0.01996 0.00272 0.00034
0.00733 -0.00331 -0.00640
0.00354 0.00180 0.01167
-0.00750 -0.00020 0.00166
0.01460 0.00178 0.02590
-0.03201 0.00822 -0.00056
-0.02434 0.00710 0.00319
-0.00319 -0.01165 0.00004
0.00591 -0.00289 -0.00421
0.00524 -0.01277 -0.00183
-0.00557 -0.00238 0.01554
0.00272 -0.00114 -0.00291
0.00062 -0.01194 -0.00043
-0.02465 0.00402 0.00149
-0.00183 -0.00130 -0.00098
-0.00209 -0.01729 0.00037
0.00513 -0.00490 0.01332
0.01548 -0.00709 0.01282
0.00503 -0.00298 -0.00392
0.02148 -0.00994 0.03226
-0.00154 -0.01128 0.00006
0.00074 0.00338 0.01789
-0.01603 0.00545 -0.00143
0.02061 -0.00111 0.01803
0.00378 0.00173 0.01151
-0.00436 0.00127 0.00638
0.03887 -0.00377 0.03216
0.01602 -0.00077 0.00759
0.00951 -0.00558 0.01137
0.00395 -0.00083 -0.00646
0.10282 -0.02719 0.01465
0.01097 -0.00163 -0.00644
0.21916 -0.06005 0.09935
0.01180 0.00260 0.03812
-0.00048 0.00350 0.01610
0.00743 -0.00174 -0.00579
0.00816 -0.00186 -0.00476
-0.00166 -0.00053 -0.00953
0.11553 -0.01395 0.06320
-0.00233 0.00342 0.00676
-0.00246 0.00295 -0.00148
0.00362 -0.00252 -0.00261
0.00082 0.00397 0.02579
0.00516 -0.01119 -0.00218
0.00779 -0.00325 -0.00510
0.02848 -0.00775 -0.00771
0.02549 -0.00352 -0.01388
0.00618 -0.00357 -0.00397
0.00005 0.00247 -0.00234
-0.01350 -0.00913 0.00242
-0.04017 0.00928 -0.00521
0.00650 -0.00351 -0.00407
-0.00093 0.00411 0.02581
-0.01753 0.00585 0.00179
-0.01027 0.00527 0.01396
-0.00219 0.00287 -0.00149
-0.02255 0.00995 0.00152
0.00678 -0.00221 0.01152
-0.01457 0.00195 -0.00708
0.00935 -0.01226 -0.00299
0.24221 -0.02855 0.23445
-0.00806 0.00226 -0.01703
0.00072 -0.00067 -0.00229
0.00408 0.00160 -0.00485
0.04190 -0.00648 0.01617
0.01859 -0.00925 0.02105
-0.00035 -0.00200 -0.00153
0.03549 -0.00516 -0.00367
0.00607 -0.00293 0.01844
-0.00200 -0.01661 0.00033
0.00118 -0.01158 -0.00153
0.00983 -0.00845 0.03709
-0.00027 -0.00162 -0.00160
0.03028 -0.00725 0.02648
-0.00182 -0.00608 -0.00068
0.00150 0.00250 0.02112
0.00701 0.00102 -0.00618
-0.00342 0.00249 -0.00094
0.01535 -0.00077 0.01366
-0.01500 0.00234 0.00796
0.02210 -0.00423 -0.01613
-0.00509 0.00321 -0.00513
0.00704 -0.00030 -0.00534
0.05302 -0.00238 0.06002
-0.04818 0.01089 -0.01001
0.01353 0.00053 0.00356
0.00727 0.00044 -0.00546
0.02347 -0.00422 -0.01458
0.00009 -0.00676 -0.00142
0.00947 -0.00409 -0.00491
0.00001 -0.00129 0.01276
-0.02618 0.00539 -0.00525
0.00204 0.00295 0.01275
0.04265 -0.00643 0.03804
-0.00350 0.00118 -0.01836
0.09266 -0.02424 0.09536
-0.00197 0.00231 -0.00217
0.02815 0.00097 0.00475
0.00661 -0.00192 -0.00479
0.01551 0.00423 -0.00485
0.00085 0.00230 -0.00299
-0.00316 -0.00069 -0.00776
0.00160 -0.00243 -0.00232
0.22096 -0.07761 0.25003
0.00026 0.00307 0.03011
-0.00744 0.00400 0.00111
-0.00789 -0.00061 0.00222
0.03246 0.00148 -0.00369
-0.00112 0.00350 0.01155
-0.00861 -0.01333 0.00760
-0.02127 0.00301 0.00230
0.00237 -0.01355 -0.00182
0.02449 0.00068 0.08112
0.02328 0.00070 -0.02039
0.00290 -0.00133 -0.00345
-0.01753 0.00230 0.00091
-0.01580 0.00082 0.01369
0.00786 0.00045 -0.00308
0.19126 -0.03362 0.15053
-0.00446 0.00261 -0.00665
0.00987 -0.00164 0.00007
0.00458 0.00446 -0.01129
0.00230 0.00262 0.02689
-0.00148 -0.00577 -0.00073
-0.01063 0.00315 -0.02148
0.08188 -0.01209 0.03192
0.08256 -0.00976 -0.01540
0.01792 -0.00526 0.01429
0.00013 0.00277 -0.00669
0.03199 0.00473 0.00440
0.00003 0.00163 -0.00964
0.01089 0.00189 0.02378
0.03120 -0.00254 0.01725
-0.02504 0.00665 0.00016
0.00622 -0.00294 -0.00440
0.00275 -0.00122 0.01615
0.06786 -0.00869 0.06261
-0.00502 0.00156 -0.01881
0.00018 -0.00161 -0.00179
0.00015 -0.00160 -0.00184
-0.00853 0.00351 0.00004
0.00638 -0.00146 -0.00498
-0.00353 0.00190 -0.00005
-0.01003 0.00298 -0.01061
0.02258 0.00353 -0.00284
-0.00329 0.00302 -0.00087
0.00217 -0.01355 0.00071
0.00822 -0.00351 0.03334
0.01177 0.00146 0.02261
-0.01206 0.00143 0.01041
0.01302 -0.00372 0.04407
0.01240 0.00032 0.01503
-0.00518 -0.00073 0.02354
0.00982 0.00245 0.01833
-0.00461 0.00232 -0.01400
0.00517 0.00233 0.03017
0.00340 -0.00063 -0.00346
0.00271 0.00119 -0.00830
-0.00113 -0.01222 0.00061
-0.00548 0.00432 0.01213
-0.01870 -0.01048 0.01047
0.01407 -0.00480 0.02639
0.00710 0.00075 0.00110
0.00834 -0.01007 0.01598
0.00000 -0.01198 0.00358
-0.01700 0.00604 -0.00074
-0.00997 0.00641 -0.00160
0.00050 -0.00617 -0.00063
-0.01615 0.00796 0.00536
0.00562 -0.01175 -0.00238
-0.00285 -0.00929 0.00037
0.02405 -0.00203 0.04581
0.08875 -0.01201 0.06639
0.00200 0.00134 -0.00767
0.00321 -0.01180 0.00102
-0.03330 0.00686 -0.00240
0.00501 -0.00127 -0.00345
0.00501 -0.00127 -0.00345
0.00633 -0.00137 -0.00496
-0.00170 -0.00573 -0.00076
0.14035 -0.03975 0.09932
0.00202 -0.00730 -0.00219
0.00219 -0.00594 -0.00203
0.00000 0.00194 -0.00223
0.01387 -0.00392 0.00511
-0.02050 0.00441 -0.00468
0.01774 -0.00455 0.00098
0.00974 -0.00238 -0.00586
-0.00080 -0.01189 0.00045
-0.00583 0.00128 0.00039
0.00243 0.00143 -0.00337
-0.00860 0.00348 -0.01192
0.00732 -0.00295 -0.00525
0.00229 -0.01368 -0.00073
-0.01292 0.00157 -0.00243
0.00439 0.00089 -0.00443
0.02628 -0.00347 -0.00212
0.00469 0.00122 0.00200
0.00107 -0.00092 -0.00238
-0.00498 0.00319 -0.00484
-0.00173 -0.01045 -0.00001
0.00632 -0.00113 -0.00486
0.00261 -0.00025 -0.00781
-0.00802 0.00355 0.01369
0.05037 -0.00625 0.02536
0.00339 0.00127 -0.00034
0.02953 -0.00173 0.05347
-0.00185 -0.00615 0.00012
-0.00606 0.00135 -0.00983
-0.00660 0.00286 0.01882
0.00099 0.00094 -0.00245
0.01209 -0.00002 -0.00910
0.00529 -0.01291 -0.00186
0.02261 -0.00289 -0.00990
0.00129 -0.00664 -0.00203
0.06765 0.00669 0.04535
-0.00186 -0.00611 0.00060
0.00632 -0.00197 -0.00476
0.00373 -0.00196 0.03342
-0.00147 -0.00197 -0.00106
-0.00280 -0.00002 -0.00427
0.03113 -0.01008 0.06669
-0.01940 0.00272 0.00035
0.20028 -0.00446 0.20430
-0.00536 -0.00592 0.00151
0.03252 -0.00730 0.01659
0.00125 -0.00092 -0.00219
-0.04065 0.00901 -0.00546
-0.00206 0.00163 -0.00760
-0.00912 -0.00144 0.01913
-0.00067 -0.00928 -0.00300
0.03515 -0.01087 0.01104
0.18633 -0.01442 0.07219
0.00360 0.00297 0.03362
0.00087 0.00158 -0.00715
0.00799 -0.00393 -0.00503
-0.01598 0.00469 0.00063
0.02711 -0.00236 0.02248
0.00170 -0.00626 -0.00128
0.01888 -0.00088 0.02272
-0.00967 -0.00081 0.01556
-0.00521 -0.00555 0.00126
0.01251 0.00298 0.02176
-0.00482 -0.00069 -0.00002
0.02247 -0.01176 0.02875
-0.00937 -0.00170 0.01201
0.00331 -0.01121 0.00089
-0.01554 0.00419 -0.01519
-0.01221 0.00407 0.00608
0.00484 0.00159 0.00102
0.32169 -0.03138 0.12812
-0.01011 0.00141 -0.02290
0.00193 -0.00673 -0.00233
0.00116 -0.00693 -0.00199
-0.03715 0.00729 -0.00494
0.01254 0.00039 0.01489
-0.00593 -0.00038 0.00040
-0.00205 -0.00138 -0.00647
0.01273 -0.00718 0.01270
0.00399 0.00277 0.01121
-0.00235 0.00083 -0.00868
-0.00947 0.00084 -0.02232
0.00116 -0.00842 -0.00141
-0.00130 -0.00588 -0.00052
-0.00476 0.00126 -0.00607
-0.00190 0.00005 0.01551
-0.00376 0.00268 -0.00153
0.00196 -0.00623 -0.00232
0.00095 -0.01081 -0.00130
-0.00175 -0.00618 -0.00071
-0.00295 0.00407 -0.00160
0.11470 -0.03444 0.12205
0.00707 -0.01002 -0.00224
0.02463 -0.00263 0.02009
0.01051 0.00332 0.02100
0.01356 0.00333 0.02593
0.00733 -0.00010 0.00122
-0.00065 -0.00159 0.02086
-0.00101 -0.00711 -0.00036
-0.01177 0.00482 -0.02339
0.03237 -0.00507 -0.00385
-0.00506 0.00253 -0.00875
-0.03094 0.00755 -0.00348
0.00147 -0.00757 -0.00217
-0.00829 -0.00169 0.02433
0.00224 0.00136 -0.00343
0.00209 0.00139 -0.00333
0.00766 -0.00376 -0.00426
0.00551 -0.00295 -0.00424
-0.03654 0.00741 -0.00603
0.07245 -0.01869 0.00226
0.01263 0.00034 0.01965
0.00375 -0.00255 0.00795
0.00079 0.00256 0.04123
0.00165 -0.01237 -0.00082
-0.03896 0.00770 -0.00287
-0.00543 0.00169 -0.00215
-0.01607 0.00539 0.01431
-0.01029 0.00049 -0.00388
-0.00158 -0.00109 0.01220
-0.00528 0.00220 -0.00099
0.00382 -0.01411 -0.00140
-0.00283 -0.00107 -0.00075
0.13292 -0.02039 0.06926
-0.00091 -0.01102 0.00027
-0.00544 -0.00214 0.01642
-0.00291 -0.00265 0.01239
0.00012 -0.00208 -0.00181
0.00789 -0.00248 0.03238
0.01971 -0.00278 -0.00996
-0.00440 0.00365 0.00110
0.00739 -0.00790 -0.00213
-0.00749 0.00325 -0.01165
-0.00117 -0.00151 -0.00069
-0.00563 0.00232 -0.01453
0.01119 -0.00412 0.02078
0.00333 -0.00376 0.00347
-0.00858 0.00077 -0.01087
0.00464 -0.01467 -0.00156
-0.00748 0.00000 0.01803
0.00290 -0.00434 -0.00264
0.01573 -0.00419 -0.00102
0.00604 -0.00987 -0.00314
-0.00877 -0.00041 0.00258
0.10462 -0.01558 0.06023
0.00146 -0.01064 -0.00092
-0.00419 -0.00349 0.02005
0.00369 0.00122 -0.00395
0.01103 -0.00509 0.00055
-0.00316 -0.00188 -0.00033
0.00789 -0.00374 -0.00593
0.00523 -0.01451 -0.00190
-0.01578 0.00416 -0.01807
0.00110 0.00179 -0.00735
0.00094 -0.00542 -0.00096
0.00586 -0.00218 -0.00456
-0.00086 0.00032 -0.00017
0.00081 -0.01073 -0.00095
0.00124 -0.01262 -0.00064
-0.00824 0.00346 -0.00967
0.00424 -0.00152 -0.00436
0.00955 -0.00256 -0.00479
0.16789 -0.03962 0.07076
0.00323 -0.01385 -0.00128
0.00410 -0.00508 0.02619
-0.02470 0.00281 0.00972
-0.01636 0.00164 0.00027
0.01047 -0.00356 -0.00819
0.00214 -0.00650 -0.00238
-0.00024 -0.00760 -0.00029
0.01057 0.00467 0.01717
0.00017 -0.01286 -0.00050
0.00090 -0.01322 -0.00065
-0.00849 0.00012 -0.00384
0.09859 -0.01551 0.06428
0.03149 -0.01011 0.02476
0.01144 0.00495 -0.00393
0.00266 -0.00052 -0.00359
-0.00102 0.00212 0.00830
0.00368 0.00035 -0.01690
0.02049 -0.00559 -0.01018
0.02448 -0.00599 0.02868
0.00357 -0.00130 -0.00781
-0.00975 0.00323 -0.01384
-0.01129 -0.00082 0.01759
0.00654 -0.00878 -0.00278
-0.00784 -0.00144 0.00967
-0.02536 0.00404 0.00654
-0.00501 -0.00138 0.00052
0.00876 -0.00386 -0.00622
0.00714 -0.00140 -0.00574
0.00852 -0.00172 0.00758
-0.00484 -0.00153 0.00037
-0.01272 0.00127 0.00103
-0.00347 0.00280 0.00483
-0.02055 0.00627 0.01119
0.00447 -0.00277 -0.00340
0.00512 0.00071 -0.00385
0.00635 -0.00106 0.00656
0.01146 -0.00026 -0.00142
-0.00199 -0.00172 -0.00101
0.01406 0.01071 0.04131
-0.00479 0.00357 -0.00028
0.00831 0.00253 0.01855
0.00726 -0.00299 -0.00809
0.01487 0.00089 -0.00787
0.03837 -0.00346 0.03506
-0.00156 -0.00371 -0.00172
-0.00538 -0.00040 -0.00068
-0.00705 -0.00053 -0.00030
-0.00136 -0.00982 -0.00071
0.06062 -0.01823 0.04242
-0.00415 -0.01034 0.00245
-0.00440 -0.00998 0.00180
0.00115 -0.00084 -0.00233
0.02260 -0.01764 -0.00621
-0.01598 0.00295 0.00473
-0.00173 -0.00366 -0.00169
0.08084 -0.06629 0.05050
0.01135 -0.02197 0.00815
0.00103 -0.01149 -0.00084
-0.00324 -0.00016 0.01105
0.02480 -0.00120 0.04524
-0.00577 0.00299 0.00038
0.01659 -0.00795 0.02037
0.00824 -0.00637 0.02006
-0.00653 0.00002 0.00042
-0.00225 -0.00923 0.00104
0.00576 -0.00823 -0.00315
0.01435 0.00632 0.00686
0.01232 -0.00544 0.04155
0.04271 -0.01201 0.03227
-0.00689 -0.00001 0.00237
0.01837 -0.00402 -0.00145
-0.00225 -0.00335 -0.00271
-0.00176 -0.00304 -0.00082
0.00028 -0.00034 0.01396
-0.00183 0.00067 -0.00873
-0.00598 0.00764 0.01198
-0.00877 0.00670 0.00509
0.00357 -0.00040 0.00662
0.00231 -0.00003 -0.01007
0.00182 -0.00725 -0.00174
-0.03720 0.00768 -0.00224
0.01704 -0.00508 -0.00604
0.01143 -0.00361 -0.00891
-0.00727 -0.00151 0.02117
-0.00025 -0.00522 0.02337
-0.00668 -0.00000 -0.00797
0.00212 -0.00395 -0.00279
0.00860 -0.00332 -0.00473
-0.00243 -0.01008 0.00025
0.02266 -0.00480 0.01148
-0.00184 -0.00964 0.00031
-0.00642 0.00181 -0.01286
0.02551 -0.00573 -0.00856
0.06312 0.00379 0.06518
-0.00478 0.00067 -0.01295
-0.00644 0.00751 0.00955
-0.00209 0.00089 -0.00326
0.03280 -0.00642 -0.01331
0.01391 0.00046 0.02704
-0.00753 0.00089 0.00207
0.02652 -0.00817 0.04625
-0.00169 -0.00704 -0.00009
-0.00169 -0.00704 -0.00009
-0.01397 0.00477 -0.02430
-0.00414 -0.01318 0.00090
0.02560 0.00042 0.03749
0.00299 0.00124 -0.00277
-0.00142 -0.00696 0.00001
-0.00802 0.00063 -0.00599
-0.00578 -0.00510 0.00232
0.08635 -0.01992 0.05821
0.05461 -0.01660 0.06979
-0.00636 -0.00507 0.00278
-0.00030 -0.00018 0.00548
-0.00451 0.00137 -0.01761
-0.04721 0.01020 -0.00731
-0.00963 0.00236 -0.01250
-0.00568 0.00319 0.00849
-0.00692 0.00295 -0.00683
0.06522 -0.02416 0.09202
0.51288 -0.07991 0.42138
-0.00394 -0.00959 0.00143
-0.00380 -0.00959 0.00151
-0.00564 -0.00020 -0.00209
-0.01938 0.00360 -0.00060
0.00079 -0.01060 -0.00123
0.00505 -0.01293 0.01626
0.00763 0.00171 0.02674
-0.01546 0.00498 0.00551
0.00365 0.00268 0.01152
-0.04233 0.00853 -0.00608
0.01051 0.00490 0.01317
-0.04473 0.00974 -0.00901
-0.00396 0.00211 0.00718
0.01136 -0.00784 0.04286
-0.03927 0.00936 -0.00660
-0.00704 0.00123 -0.01426
0.02566 0.00163 -0.01813
-0.00329 0.00067 -0.00189
0.00143 0.00599 0.00487
-0.00124 0.00639 -0.00778
0.02386 -0.00738 0.01468
0.00240 -0.00569 0.03226
-0.03193 0.00681 -0.00653
-0.00711 0.00095 -0.00148
-0.00867 0.00543 0.00820
0.00789 0.00106 0.01254
0.03089 -0.03320 0.01840
-0.00305 0.00017 0.01994
-0.00450 -0.00074 0.00005
-0.01702 0.01093 0.00922
0.00848 0.00007 0.00137
0.02230 -0.00147 0.01533
0.02431 -0.00192 0.01334
0.08396 -0.02034 0.08202
-0.00636 0.00098 -0.00515
0.00169 0.00159 -0.00091
0.02412 -0.01719 0.02310
-0.00189 -0.00572 -0.00040
-0.01146 0.00339 -0.01818
-0.00211 -0.00233 0.01007
0.00484 0.00159 0.00102
0.01984 -0.00907 0.03324
0.00163 -0.01065 -0.00215
0.00086 -0.00085 -0.00190
-0.00189 -0.00124 -0.00120
-0.00012 -0.00039 0.00450
0.05678 -0.01946 0.05997
-0.02528 0.00522 -0.00704
-0.00510 0.00252 -0.00359
0.00045 -0.01284 0.02642
-0.00465 -0.00519 0.02670
0.09596 -0.04015 0.09877
0.02245 -0.01162 0.02239
-0.04122 0.00879 -0.00610
0.02624 -0.01844 0.02560
-0.00699 0.00143 -0.00568
0.02797 -0.01349 0.02539
0.22598 -0.03958 0.05018
0.02234 -0.00286 -0.00939
0.10803 -0.01828 0.02265
0.02186 -0.00127 0.01668
0.08519 -0.01926 0.03864
0.02556 -0.03021 0.01521
0.01318 -0.00083 -0.00638
0.01254 -0.00259 -0.00018
0.05145 -0.01450 -0.00226
-0.00017 0.00342 0.01534
-0.00717 0.00049 -0.00703
-0.00378 -0.00990 0.00260
-0.00186 0.00215 -0.00226
-0.01499 -0.01226 0.01054
-0.01207 0.00634 -0.01393
-0.00990 0.00135 -0.01302
0.19280 -0.05538 0.12257
-0.00277 0.00299 0.00958
-0.02621 0.00444 0.01705
-0.00223 0.00254 -0.00832
-0.01683 -0.00345 0.00489
-0.00437 -0.01295 0.00262
-0.00154 0.00000 -0.00150
0.03208 0.00539 0.01442
-0.00432 0.00448 -0.01885
0.03858 0.00376 0.02774
0.00437 -0.00579 -0.00254
0.00133 -0.01246 -0.00073
-0.00643 0.00094 -0.01267
-0.00556 0.00060 -0.00107
0.00315 -0.00449 0.01702
0.00025 0.00253 -0.01081
0.15075 -0.04081 0.08341
-0.01610 0.01068 0.00886
0.01112 -0.02039 0.00630
0.00790 0.00175 0.00901
-0.02019 0.00715 0.00700
0.01080 0.00206 0.03383
-0.00218 -0.00484 -0.00063
-0.01106 0.00007 -0.01105
-0.00625 -0.00053 0.00020
0.02090 -0.00896 0.03468
-0.00318 -0.00123 -0.00041
-0.03718 0.00750 -0.00693
-0.00366 -0.00525 -0.01351
-0.00187 0.00334 0.00662
-0.01224 0.00372 -0.02297
0.00432 -0.00148 -0.00510
-0.00526 0.00339 -0.00487
0.00130 0.00225 -0.00266
-0.01119 0.00408 -0.00876
0.00286 0.00392 0.01379
0.00094 0.00263 -0.00824
-0.00723 -0.01185 0.00358
0.19030 -0.05716 0.17536
0.00526 -0.00177 0.02747
-0.01194 0.00477 0.01494
0.02990 -0.00875 -0.01062
0.14130 0.00371 0.06841
0.00456 -0.00245 -0.00429
-0.00214 0.00236 -0.00096
0.01020 -0.00041 -0.00442
0.02268 0.00472 0.00195
-0.00614 0.00277 -0.00767
-0.00077 -0.00124 -0.00635
-0.00174 0.00227 -0.00150
-0.00012 -0.00796 0.01192
-0.00076 -0.01118 0.00006
0.00224 -0.01271 -0.00011
0.00532 0.00141 0.00927
0.00609 -0.00171 0.00030
-0.00185 0.00069 -0.01706
0.00481 -0.00282 -0.00374
-0.02127 0.00731 0.00580
-0.04828 0.01057 -0.00853
0.00525 0.00089 -0.00449
-0.03789 0.01051 -0.00131
-0.00136 -0.00155 -0.00140
-0.00417 0.00253 -0.00677
0.00414 0.00187 -0.00207
0.01804 0.00154 0.07493
-0.00656 0.00280 -0.01642
0.02157 -0.00509 -0.00917
-0.00065 -0.00019 -0.00749
-0.00092 0.00286 -0.00210
-0.03186 0.00816 -0.00217
-0.00164 -0.01330 0.00145
-0.00706 0.00344 0.00246
0.00144 -0.00177 -0.00237
0.02445 -0.00442 -0.01213
0.03258 -0.00767 -0.01309
0.02116 0.00052 -0.02151
0.02609 -0.00613 -0.01115
0.03647 -0.01509 -0.02853
0.01237 0.00248 -0.01831
0.00100 0.00263 -0.00300
0.01118 0.00536 -0.00602
-0.00022 0.00197 -0.00221
-0.00071 0.00202 -0.00315
-0.01546 0.00469 -0.02511
-0.00472 -0.00130 0.00042
-0.00482 -0.00987 -0.00244
0.00998 -0.03201 0.03429
-0.00676 0.00292 -0.01499
0.02124 -0.00094 0.02446
0.00107 0.00203 0.00428
0.06784 -0.00955 0.07789
-0.00635 0.00166 -0.01809
-0.00328 0.00253 -0.01162
0.00318 0.00185 0.01091
0.02560 -0.00373 -0.01501
0.01163 -0.00190 -0.00112
-0.00903 0.00116 -0.00022
0.05902 -0.02231 0.05388
0.04112 -0.00135 -0.01230
0.04102 -0.03149 0.00323
-0.00616 0.00314 0.00002
0.00191 0.00503 0.02155
0.02587 0.00031 -0.02176
-0.00472 -0.00077 -0.00504
0.01076 -0.00425 -0.00780
0.00308 0.00100 -0.01164
-0.00619 0.00280 0.02952
-0.01127 0.00524 -0.01996
-0.00594 -0.00092 0.00075
-0.01314 0.00221 0.00517
-0.01412 0.00417 -0.02574
-0.00865 0.00542 -0.00732
-0.00620 0.00327 -0.02536
0.03860 -0.03742 0.01996
0.00228 0.00200 -0.00415
-0.00443 0.00418 0.00998
-0.00474 0.00048 -0.00100
-0.00575 0.00085 -0.00409
-0.01642 0.00463 -0.02036
-0.01364 0.00650 0.01020
0.00723 -0.00751 0.03382
-0.00420 -0.00167 0.00390
-0.00423 0.00224 -0.01293
-0.01065 0.00390 -0.01037
-0.00075 0.00273 -0.00062
0.00047 -0.00219 0.00358
0.10785 -0.08070 0.07443
-0.02009 0.00644 0.00409
0.02441 -0.01107 0.03758
-0.01038 -0.00086 0.01065
-0.01099 0.00370 -0.00788
-0.03931 0.00907 -0.00424
-0.00552 -0.01539 0.00913
0.00658 0.00190 0.03732
0.00769 -0.00375 -0.00435
-0.00556 0.00299 -0.01140
0.01742 -0.00785 0.02526
0.00350 0.00172 0.03671
0.00023 -0.00311 0.00706
0.04896 -0.00283 0.06265
0.00410 0.00154 0.01200
-0.00271 0.00036 -0.00863
0.10222 -0.01790 0.03399
0.04625 -0.00387 0.06963
0.16768 -0.02274 0.16048
0.36945 -0.10586 0.17841
-0.03214 0.00794 -0.00031
-0.00574 0.00432 0.01173
0.22521 -0.03646 0.16635
0.04581 -0.00424 0.06992
-0.00415 -0.00114 -0.00209
-0.00877 0.00412 0.02560
-0.00308 0.00230 -0.00434
0.00062 -0.01193 -0.00041
-0.00096 -0.00938 -0.00659
0.01827 -0.00149 0.00167
-0.00169 0.00282 -0.00164
0.00456 0.00427 0.02191
0.01829 -0.00001 0.01201
-0.00144 -0.00177 -0.00097
0.00088 -0.01226 -0.00038
-0.00431 0.00227 -0.01411
0.00097 -0.01376 -0.00182
0.00904 -0.00395 -0.00593
-0.00500 -0.00559 0.00320
0.01409 0.00038 0.02614
0.05126 -0.00596 0.05139
-0.00235 -0.01253 0.00196
-0.00426 -0.01255 0.00181
-0.00239 -0.01180 0.00096
-0.00225 0.00330 0.00894
0.00210 -0.00528 0.03550
-0.00625 0.00112 -0.01810
-0.00117 -0.00035 -0.00163
0.03044 -0.01294 0.04755
-0.00165 -0.00405 -0.00108
0.00391 -0.00899 0.00690
0.02264 -0.00716 -0.00255
-0.00626 0.00309 0.01501
0.00157 -0.01130 -0.00098
-0.00904 0.00637 -0.00805
-0.00290 -0.00550 -0.00110
0.20036 -0.01626 0.20094
-0.00702 0.00266 -0.01591
-0.00046 -0.01099 -0.00081
0.06204 -0.01979 0.03779
-0.00947 0.00318 -0.01408
-0.01950 0.00360 0.00263
0.00136 -0.01269 -0.00098
0.00131 -0.01260 -0.00110
0.00233 -0.00690 -0.00228
-0.00886 0.00415 -0.00092
-0.00341 -0.01236 0.00197
0.00601 -0.00283 -0.00384
-0.00412 0.00217 -0.01592
0.00298 0.00375 0.02351
0.00279 0.00282 -0.00058
-0.00493 0.00327 -0.01068
-0.00197 0.00385 0.01181
-0.00617 0.00243 -0.01449
-0.01750 0.00602 0.01048
0.00155 -0.00146 -0.00400
-0.00101 -0.01226 -0.00044
0.01611 -0.00546 -0.01127
0.02474 -0.00691 -0.01530
0.01127 0.00481 0.01046
0.00035 -0.00139 -0.00192
0.02543 -0.00032 0.01950
-0.00728 0.00139 -0.01455
-0.04103 0.01048 -0.00940
-0.04773 0.00809 -0.00892
-0.04599 0.01096 -0.00993
-0.00226 -0.00995 -0.00001
-0.02700 0.00649 -0.00645
0.02162 -0.00654 -0.00798
-0.00834 -0.00078 0.00359
-0.04628 0.01109 -0.00909
-0.00247 0.00426 0.01671
-0.01268 0.00462 0.00648
0.00160 -0.00018 -0.00299
0.00004 0.00015 -0.00246
0.00203 -0.01074 -0.00163
-0.00773 0.00264 -0.01871
-0.00882 0.00120 0.00075
-0.00550 0.00187 -0.01222
-0.01905 0.00809 -0.00970
-0.05072 0.01140 -0.01077
0.00481 -0.00186 0.02796
0.00337 -0.00062 -0.00329
-0.04916 0.01121 -0.01061
-0.00133 -0.01284 0.00048
0.01196 0.00377 0.04961
-0.02052 0.00526 -0.00432
-0.03385 0.01044 -0.00416
0.00106 -0.00123 -0.01310
-0.04767 0.01016 -0.00948
-0.01758 0.00629 0.00658
-0.00327 0.00219 -0.00123
-0.04781 0.01089 -0.00944
-0.03588 0.00741 -0.00493
-0.00148 -0.01251 0.00047
-0.04449 0.00945 -0.00754
-0.00073 0.00051 -0.00495
-0.00194 0.00340 0.01267
-0.00721 0.00124 -0.00489
-0.01853 0.00397 -0.01329
-0.04350 0.01039 -0.00675
-0.04672 0.01028 -0.00779
-0.04297 0.00991 -0.00891
-0.04530 0.01098 -0.00896
-0.04549 0.01122 -0.00774
0.02723 -0.00565 -0.01111
-0.01877 0.00377 -0.01293
-0.03630 0.00888 -0.00339
-0.04795 0.01102 -0.01014
-0.01248 0.00446 0.00311
-0.00625 0.00403 -0.00431
-0.00133 0.00594 -0.00144
-0.00211 -0.00560 -0.00035
-0.00513 0.00072 -0.01531
-0.02575 -0.00593 0.00672
0.00631 0.00199 0.00247
0.00021 -0.01295 -0.00022
-0.02634 -0.00568 0.00677
-0.00052 -0.00943 -0.00506
-0.00213 0.00457 0.00909
0.00704 0.00123 0.00449
-0.00330 0.00501 -0.00038
-0.00927 0.00188 -0.00964
-0.02438 0.00500 0.00660
-0.00506 0.00047 -0.00031
-0.01150 0.00256 -0.00891
-0.02513 -0.00119 0.00715
-0.00308 0.00105 -0.01103
0.01088 -0.00562 0.01988
-0.00360 0.00422 0.00180
-0.02852 0.00749 0.00615
0.00111 -0.00128 -0.00272
-0.00265 0.00245 -0.00231
0.00238 -0.00603 -0.00212
0.01087 0.00219 0.01580
0.00026 0.00335 0.00537
-0.00744 -0.00405 0.00278
0.02857 -0.00323 0.02174
-0.02908 0.01004 0.00535
-0.02508 -0.00205 0.00700
-0.02980 0.00588 0.00611
0.00168 -0.00716 -0.00196
-0.02873 0.00958 0.00559
0.00205 0.00149 -0.00362
-0.00048 -0.00410 -0.00222
-0.01461 0.00130 -0.00054
0.00154 0.00271 -0.01770
-0.00716 -0.00847 -0.00428
0.01122 -0.00186 -0.02360
0.00195 -0.00227 0.01896
-0.01375 0.00521 0.00302
-0.00053 -0.00081 0.00471
0.04581 -0.00199 0.01233
0.01822 -0.00386 -0.01228
0.00484 0.00474 0.00992
-0.00844 0.00429 0.02372
0.01102 0.00398 0.04858
0.05414 -0.01980 0.07868
-0.00048 -0.01133 -0.00433
0.03835 -0.01000 -0.00945
0.13009 -0.03745 0.09077
0.61721 -0.17212 0.30239
0.08679 -0.01305 0.06327
0.02420 -0.00938 0.04426
-0.00806 0.00487 0.01098
-0.00194 -0.01151 0.00159
-0.01786 0.00708 0.01001
-0.00259 -0.00472 -0.00073
0.02726 -0.00493 -0.01064
-0.02026 0.00277 0.00525
-0.00688 -0.00271 0.02064
-0.03339 0.00646 -0.00591
0.01469 -0.00757 0.02977
-0.00786 0.00074 -0.00603
-0.01898 0.00219 0.00919
0.01362 -0.00474 -0.00722
-0.00012 0.00148 -0.00667
0.06887 -0.01990 0.02512
0.01214 -0.00711 0.03475
-0.00893 -0.00021 0.00337
0.01365 0.00798 0.01333
0.01742 -0.00785 0.02526
0.03132 -0.00469 -0.00553
0.02759 -0.00374 0.00955
-0.02229 0.00750 0.00872
-0.00564 0.00268 -0.00041
-0.02799 0.00525 -0.00391
-0.03645 0.00831 -0.00700
-0.00491 0.00231 0.00114
0.02861 -0.00281 0.03015
0.01176 -0.00395 -0.01040
-0.01277 0.00108 -0.00054
-0.01702 0.00457 -0.00576
-0.00570 0.00527 0.02882
-0.00343 -0.00109 0.00518
0.01638 -0.00182 -0.00586
0.00559 0.00359 0.06940
-0.02284 0.00374 -0.00292
0.04561 -0.01237 -0.00601
0.03080 -0.01288 0.03388
0.02278 -0.00986 0.03786
-0.00231 -0.00326 0.02870
0.00048 0.00348 0.05027
0.02849 -0.00414 -0.00895
-0.00513 0.00169 0.00111
0.00312 0.00004 0.00337
0.00235 0.00010 -0.00041
-0.01192 0.00328 -0.02396
-0.00993 0.00335 0.00356
0.02444 -0.00319 0.01608
-0.04143 0.00860 -0.00703
0.01403 -0.00706 0.02704
0.00157 -0.01398 0.00752
0.01050 -0.00123 -0.00720
0.01551 -0.00243 -0.00596
0.00468 -0.00187 0.00092
-0.00564 -0.00000 -0.00447
0.03121 0.00451 0.11154
0.00726 0.00008 0.02290
-0.01269 0.00157 -0.00629
-0.00054 0.00613 -0.00232
-0.01235 0.00151 -0.01203
-0.00939 0.00872 0.00676
-0.03149 0.00570 0.00081
-0.04507 0.00912 -0.00642
-0.00400 0.00233 -0.00125
0.02954 -0.00876 -0.00869
-0.00573 0.00235 -0.01547
0.00854 -0.00639 0.02720
-0.01819 0.00491 0.00293
-0.00778 -0.00001 0.00116
0.09527 -0.02133 -0.00119
-0.00598 0.00352 0.01054
0.07592 -0.01173 0.03589
-0.03124 0.00637 -0.00424
0.02562 -0.00414 -0.01306
-0.04111 0.00875 -0.00619
-0.04385 0.00887 -0.00917
-0.01512 0.00280 -0.00178
-0.00141 0.00194 0.00357
-0.01599 0.00481 0.00509
-0.01690 0.00440 -0.01554
-0.00497 -0.00179 0.00924
-0.00012 -0.00150 -0.00203
-0.01057 0.00104 -0.00330
0.14862 -0.03584 0.05547
-0.00279 -0.00114 -0.00325
0.04078 -0.00642 0.02878
-0.00088 0.00010 0.00374
0.00466 0.00022 -0.00637
0.01797 -0.00795 0.00880
0.01204 -0.00378 0.01627
-0.00545 -0.00161 0.01414
0.00123 -0.00030 -0.00283
-0.00131 -0.00391 -0.00037
0.00362 -0.00251 0.01968
-0.04162 0.00885 -0.00533
-0.00029 0.00146 0.02625
-0.01277 0.00586 -0.01066
-0.01722 0.00727 -0.00307
-0.01887 0.00440 -0.00519
-0.03005 0.00522 -0.00357
0.02214 0.00031 0.01666
-0.00356 -0.00202 0.00516
0.06069 -0.02568 0.07713
0.02454 -0.00544 0.00969
0.00471 -0.00162 0.00778
-0.00038 0.00039 -0.01339
0.00580 -0.00897 -0.00302
0.00623 -0.00121 -0.00252
0.04633 -0.00999 0.02026
-0.01795 0.00369 0.00577
-0.00254 -0.00184 0.00035
-0.00450 -0.00101 0.00367
-0.01786 0.00185 0.00154
0.01156 0.00218 -0.00669
-0.00932 0.00166 -0.01527
-0.00648 0.00102 -0.01650
-0.01342 0.00906 0.07066
0.01355 0.00015 0.01362
-0.01537 0.00114 0.00579
0.00517 0.00402 -0.01393
-0.01689 0.00051 0.02334
-0.00882 0.00002 0.00121
0.01692 -0.00806 0.02542
0.02550 -0.00449 -0.01372
-0.02999 -0.00646 0.14905
-0.01210 0.00101 0.00301
-0.02138 0.00312 0.00159
0.00794 -0.00404 -0.00503
-0.03834 0.00777 -0.00545
-0.01444 0.00143 0.00204
-0.00446 0.00047 -0.00066
-0.00375 0.00267 -0.00046
0.02561 -0.00708 -0.01451
-0.01177 0.00050 0.00921
-0.00833 0.00153 -0.00642
-0.00491 0.00347 -0.00022
-0.00949 0.00457 0.00481
-0.00389 0.00327 -0.00067
-0.00705 0.00136 -0.01773
-0.00434 -0.00094 -0.00007
-0.02428 0.00192 0.02087
0.00074 -0.00388 -0.00343
0.02434 -0.00164 0.04129
-0.00857 0.00335 0.00208
0.00187 0.00296 0.03414
-0.00896 0.00341 -0.01341
-0.01375 0.00097 0.00552
-0.01060 0.00454 0.00088
-0.01686 0.00159 0.00696
0.02560 -0.00097 -0.00967
-0.00361 0.00319 -0.00128
-0.01854 0.00169 0.00849
0.00783 -0.00765 0.04372
-0.00653 -0.00053 0.00122
-0.00457 -0.00221 0.01647
0.00456 -0.00311 -0.00372
0.10170 -0.01633 0.05957
-0.04236 0.00985 -0.00701
0.02001 -0.00208 0.00251
0.07237 -0.01170 0.01660
0.00267 -0.00213 -0.00376
-0.03927 0.00936 -0.00660
-0.00768 -0.00072 0.00194
-0.01019 0.00081 -0.00162
-0.00772 0.00302 -0.01649
0.04691 -0.01234 -0.00255
0.04419 -0.01083 0.03734
0.08959 -0.01925 0.00781
-0.00728 0.00306 -0.00726
0.00872 0.00204 0.04642
-0.00118 -0.00607 -0.00029
-0.00697 0.00333 0.00089
-0.00098 0.00212 -0.00204
-0.03152 0.00665 -0.00240
-0.00817 0.00292 -0.01548
0.00171 0.00274 0.02370
0.06055 -0.01453 0.06638
0.00321 0.00353 0.02505
0.02034 0.00844 0.03533
0.00576 0.00265 -0.00017
-0.01087 0.00665 0.02013
-0.00320 0.00386 -0.00086
0.00055 -0.00111 -0.00859
-0.02060 0.00265 0.00892
-0.00774 0.00395 -0.00042
0.00531 -0.00069 -0.00433
-0.00685 0.00300 -0.00684
-0.01944 0.00802 0.00670
-0.00937 0.00609 -0.00680
0.00099 0.00173 -0.00261
0.00188 0.00380 0.05622
-0.00630 0.00366 -0.00092
-0.01449 0.00462 0.00089
-0.01570 0.00567 0.00459
0.06725 -0.01508 -0.00003
-0.04845 0.01029 -0.00972
-0.01499 0.00367 -0.01073
-0.01078 0.00346 -0.01412
-0.00723 0.00286 -0.01784
-0.01859 0.00291 -0.00287
0.02040 0.00096 0.03622
-0.00675 0.00310 -0.00365
-0.00654 0.00317 -0.00072
0.00784 -0.00115 -0.00859
0.00278 0.00126 0.00497
-0.00568 -0.00089 0.00238
0.06979 -0.01045 0.04282
-0.00936 0.00316 -0.01479
-0.01085 0.00355 -0.01201
-0.00579 0.00277 -0.00769
-0.01480 0.00338 -0.01831
0.00791 -0.00311 -0.00595
0.01788 -0.00761 0.04195
-0.01636 0.00175 -0.00029
0.03489 -0.00440 0.02678
-0.00755 0.00277 -0.01654
0.00334 -0.00090 -0.00045
0.00572 0.00147 0.01759
0.01429 0.00121 -0.01202
-0.01376 0.00049 0.00451
-0.01712 -0.00081 0.02428
0.00236 0.00220 0.01648
0.00480 0.00721 0.00168
0.00130 0.00224 -0.00267
-0.00490 0.00247 -0.01745
0.00388 0.00027 -0.00405
0.02229 -0.00104 0.02160
-0.00555 0.00406 0.00088
0.01434 -0.00124 0.01585
-0.00814 0.00279 -0.00006
-0.00660 0.00340 0.00804
0.00149 0.00219 -0.00269
-0.00853 0.00022 0.00112
-0.01472 0.00502 -0.00343
0.00838 -0.00423 0.00890
-0.01003 0.00396 0.00303
-0.00440 0.00103 -0.00303
-0.00282 -0.00324 0.01423
0.00530 0.00319 -0.00446
-0.01218 -0.00054 0.01882
0.00377 0.00512 0.05522
0.01924 -0.00894 0.02156
0.00138 0.00215 0.01137
-0.01084 0.00330 -0.01846
0.00904 0.00607 0.00093
-0.00614 0.00219 -0.01761
-0.00511 0.00536 0.00044
0.01984 -0.00688 0.04034
-0.01555 0.00438 0.00443
-0.01741 0.00479 0.01254
-0.00324 -0.00158 -0.00038
-0.00985 0.00392 0.00286
-0.00474 0.00024 -0.01111
-0.00795 0.00252 -0.01950
0.00147 0.00298 0.01115
-0.00651 -0.00551 0.00191
-0.01668 0.00281 0.00343
0.00674 -0.00250 0.00190
-0.02247 0.00685 0.00580
0.02300 -0.00491 -0.01586
-0.01077 0.00457 0.00099
-0.01513 0.00553 0.00408
-0.03253 0.00830 0.04250
-0.01963 0.00657 0.00839
0.02009 -0.01027 0.03519
-0.02089 0.00221 0.01115
-0.02572 0.00267 0.01653
-0.00258 -0.00150 0.00031
-0.00540 -0.00019 -0.00385
-0.00493 -0.00061 -0.00027
-0.00453 0.00555 0.00597
0.00270 -0.00043 -0.00352
-0.00146 -0.00139 -0.00110
-0.04254 0.00949 -0.00807
-0.02610 0.00298 0.01732
0.03538 -0.00331 0.03867
-0.01751 0.00507 0.00570
-0.01474 0.00419 -0.01355
0.00362 -0.00235 -0.00312
0.00813 -0.00244 -0.00685
0.01361 -0.00049 -0.00293
-0.01107 0.00346 -0.01686
-0.00486 0.00389 0.00755
0.06134 -0.00461 0.06977
-0.00050 0.00259 -0.00212
0.00244 0.00154 0.00152
-0.01528 0.00214 0.01396
-0.00301 0.00307 -0.00113
0.05830 -0.00453 0.06535
-0.00760 0.00091 0.00064
-0.00450 0.00014 0.00089
-0.00757 -0.00044 0.00070
-0.00825 0.00210 -0.01677
-0.00755 -0.00012 0.00299
-0.00818 0.00059 0.01774
-0.01068 0.00402 0.00106
-0.00813 0.00538 -0.01175
0.00619 0.00201 -0.00547
-0.01055 0.00147 0.00188
0.00232 0.00244 -0.00958
0.00566 -0.00313 -0.00565
-0.00861 0.00409 0.03577
-0.01979 0.00651 0.00673
0.01220 0.00103 0.01114
-0.02243 0.00656 0.02722
0.00561 0.00336 0.03075
0.01105 0.00267 0.03212
0.00845 -0.00352 0.02562
-0.00768 0.00308 -0.00767
0.10372 -0.01534 0.05982
-0.00864 0.00302 -0.01437
0.01178 0.00075 0.02358
-0.00057 -0.00685 0.00009
0.02035 -0.00526 -0.01476
-0.01186 0.00716 -0.00785
-0.01250 0.00492 0.00152
0.00303 0.00111 -0.00669
-0.00790 0.00289 -0.01375
0.00730 0.00274 0.01619
0.01204 0.00104 0.01059
-0.02447 0.00242 0.01580
0.00679 -0.00292 -0.00567
-0.00692 0.00289 -0.01615
-0.00034 0.00547 -0.00229
0.19599 -0.01272 0.01785
0.00501 0.00169 0.01970
0.00248 0.00177 -0.00344
-0.00764 0.00305 0.00151
-0.00978 0.00211 -0.01144
-0.00045 -0.00371 0.01543
0.00478 -0.00030 -0.00935
0.11812 -0.03052 0.09511
-0.02736 0.00556 -0.00096
-0.04096 0.00877 -0.00741
-0.00278 0.00262 0.02451
-0.01248 0.00254 -0.00282
0.01321 -0.00314 0.00776
-0.00572 -0.00006 -0.00801
-0.01174 0.00134 -0.00599
-0.00313 0.00254 0.00206
-0.00461 -0.00291 0.02630
0.00004 0.00158 -0.00211
-0.00536 0.00008 -0.01035
-0.02082 0.00173 0.01093
0.01412 0.00100 0.01415
0.03636 -0.00410 0.02593
-0.02621 0.00240 0.01753
-0.04571 0.00894 -0.00872
0.14741 -0.03599 0.10402
-0.01462 0.00318 -0.00325
-0.00650 -0.00076 0.00055
0.18497 -0.05003 0.04461
-0.00116 0.00419 0.00235
-0.01876 0.00692 0.00198
-0.00901 0.00214 -0.01112
-0.00316 -0.00006 0.00139
-0.02010 0.00658 0.00805
-0.03997 0.00944 -0.00402
0.00108 -0.00416 -0.00307
-0.00350 0.00007 -0.00041
0.01044 -0.01418 0.02825
-0.00496 0.00034 0.00386
-0.00528 0.00350 0.01935
-0.00557 0.00358 0.01948
0.29372 -0.08491 0.20415
-0.01789 0.00677 -0.00206
-0.00509 0.00446 -0.00158
-0.03745 0.00795 -0.00116
-0.03944 0.00770 -0.00388
-0.01349 0.00004 0.01073
-0.00151 -0.00037 -0.00108
-0.01524 0.00489 -0.00726
0.00172 0.00149 0.01076
-0.02165 0.00686 0.02666
-0.00408 0.00332 -0.01808
-0.02224 0.00619 0.01195
0.00331 -0.00212 -0.00477
0.02781 -0.00581 -0.01203
-0.01704 0.00331 -0.00090
0.01091 -0.00506 0.03662
0.01259 0.00168 -0.01782
0.00187 0.00203 0.00856
0.00296 0.00188 0.01290
-0.01399 0.00518 0.00181
0.03106 -0.00793 -0.01187
-0.01110 0.00465 0.00117
-0.01208 0.00547 0.01162
-0.01633 0.00344 -0.00084
-0.00558 -0.00017 -0.00374
-0.00986 0.00321 -0.01621
-0.00775 0.00278 -0.01696
-0.02084 0.00578 0.00964
-0.00243 -0.00158 0.00479
0.08952 -0.01411 0.03070
-0.00958 0.00562 0.01985
-0.01040 0.00338 -0.01819
-0.01685 0.00620 0.01034
-0.00348 0.00292 -0.00198
-0.02533 -0.00135 0.00702
0.00751 -0.00325 -0.00545
-0.01462 0.00471 -0.02531
-0.00272 -0.00215 0.00898
-0.01121 0.00256 -0.01590
0.04471 -0.00442 0.04970
0.06747 -0.01743 0.06542
-0.00088 0.00023 -0.00529
0.01574 -0.00403 0.01878
-0.01569 0.00092 0.00604
-0.01785 0.00605 -0.00331
-0.01742 0.00499 -0.00536
-0.00660 0.00462 -0.00850
-0.02326 0.00400 0.01330
-0.00083 0.00372 0.01169
-0.01552 0.00539 0.01000
-0.00828 0.00383 -0.01427
0.00359 0.00243 -0.00457
-0.01733 0.00605 0.02121
0.00909 -0.00661 0.02660
-0.01034 0.00768 -0.00131
-0.01502 -0.00528 -0.00363
0.00898 -0.00638 0.02709
-0.02396 0.00480 -0.01015
-0.01731 0.00529 0.00553
-0.00139 -0.00764 0.00015
-0.01228 0.00173 0.01980
-0.00179 -0.00075 0.00029
0.12547 -0.07671 0.12334
-0.00285 -0.00133 -0.00334
-0.01373 0.00280 0.00311
-0.01403 0.00066 0.00461
-0.01403 0.00066 0.00461
0.01018 0.00373 -0.00743
-0.01685 0.00495 -0.00304
-0.01241 0.00395 -0.00903
-0.01241 0.00395 -0.00903
0.01184 0.00107 0.01076
0.00315 0.00160 0.00872
-0.00727 0.00465 0.00198
-0.01115 0.00342 -0.01986
0.01162 0.00354 0.01523
-0.01625 0.00509 0.00210
0.00520 -0.00345 -0.00311
-0.03180 0.00747 -0.00907
0.00433 0.00231 0.00758
-0.00227 -0.00133 -0.00070
-0.01007 0.00628 -0.00554
-0.00786 0.00162 0.00008
0.01160 -0.02709 0.04100
-0.00843 0.00482 0.00247
-0.01596 0.00505 0.00511
-0.01365 0.00022 0.00816
-0.00763 0.00091 -0.01860
0.00120 -0.00189 -0.00232
0.01370 0.00618 0.00633
0.05903 -0.01119 0.00629
-0.01016 0.00227 0.00149
0.02105 -0.00329 -0.01048
0.00241 -0.00207 -0.00562
0.03590 0.01858 0.05688
-0.02645 0.00492 0.01652
0.00803 -0.00352 -0.00504
-0.01027 0.00329 -0.01619
0.00827 -0.00619 0.03468
0.00326 0.00286 0.01010
-0.01477 0.00537 0.00106
-0.01135 0.00079 -0.00150
0.02277 -0.00578 -0.01468
0.00236 0.00273 -0.00377
-0.00663 0.00020 0.01156
-0.00085 0.00240 -0.00209
-0.01392 0.00526 0.00310
-0.00417 -0.01007 0.00205
-0.00008 -0.00352 0.02994
-0.00183 0.00025 -0.00128
0.06912 -0.00907 0.04124
0.05368 -0.01853 0.04260
-0.00476 0.00097 -0.00786
-0.01828 -0.00917 0.00682
0.02820 -0.00190 0.00371
-0.00248 0.00560 0.02391
-0.00614 -0.00050 0.02310
0.00272 0.00342 0.00775
-0.00948 0.00291 -0.00794
0.00915 -0.00219 0.01578
0.00491 -0.00151 0.00046
-0.01505 -0.00273 0.00755
0.00211 0.00268 -0.00349
0.04628 -0.00884 -0.00370
-0.00563 -0.00676 0.00200
-0.00925 0.00554 0.02625
-0.01607 0.00603 -0.00005
0.07818 -0.00936 0.08031
-0.00465 0.00054 0.00163
-0.00076 -0.00342 -0.00210
-0.00297 -0.00359 0.01909
-0.02900 0.00351 0.02070
0.00574 -0.00118 -0.00631
0.12417 -0.01252 0.09556
-0.00330 0.00314 -0.00568
-0.00563 0.00049 -0.01031
-0.00389 -0.00076 -0.00003
-0.00281 -0.00155 0.00625
0.00094 -0.00034 -0.01178
-0.01442 0.00132 0.00468
-0.02080 0.00611 0.00970
0.07620 -0.01975 0.02133
0.01009 0.00401 0.03135
0.00008 -0.00443 -0.00165
0.04848 -0.04170 0.04516
-0.00034 -0.00436 -0.00233
-0.02646 0.00509 0.01682
-0.02154 0.00357 0.01141
-0.00995 0.00253 -0.01655
-0.00968 0.00589 0.01394
0.01219 -0.00021 0.00032
0.05800 -0.00576 0.06763
-0.01387 0.00586 0.01275
-0.01374 0.00522 0.00296
-0.01249 0.00394 -0.01113
0.00841 0.00122 0.01704
0.00829 0.00133 -0.00355
-0.00283 -0.01310 0.00076
0.00363 -0.00132 -0.00319
-0.00682 0.00048 -0.00486
-0.00621 0.00679 0.02502
-0.00467 -0.00093 0.00026
-0.00170 -0.00726 -0.00062
-0.01524 0.00198 -0.00016
0.00038 -0.00035 -0.00201
-0.01016 0.00253 -0.01721
-0.00016 0.00142 -0.01168
0.00635 -0.01293 -0.00263
0.02248 -0.00065 -0.00935
0.02231 -0.00117 0.03367
-0.02404 0.00398 0.01433
-0.02404 0.00398 0.01433
-0.00401 -0.00945 0.00112
0.02491 -0.01663 0.01864
-0.01041 0.00093 0.00165
0.00909 0.00353 0.08222
-0.03141 0.00661 -0.00469
0.00618 0.00742 0.00717
-0.01602 0.00116 0.00948
-0.00517 0.00020 -0.01043
-0.01142 -0.00031 0.01533
0.00116 -0.00308 0.00706
-0.01192 0.00136 -0.00842
0.06724 -0.02180 0.06076
-0.00745 -0.00485 0.00317
-0.01768 0.00166 0.00760
0.00727 -0.00554 0.02764
-0.00315 -0.00126 -0.00023
-0.00500 -0.00079 0.00013
-0.03683 0.00710 -0.00267
-0.00447 -0.00069 -0.00308
-0.00805 -0.00018 0.00132
0.00681 -0.00484 0.01919
-0.00518 -0.00544 0.00296
-0.01650 0.00500 -0.00122
-0.00967 0.00016 0.00151
-0.01381 0.00021 0.01366
-0.00211 -0.00241 0.00988
-0.01752 0.00304 0.01690
0.00246 0.00461 -0.00411
-0.01027 0.00026 0.00227
0.01375 -0.00473 -0.00727
-0.01915 0.00229 0.00276
0.00477 -0.00102 0.00410
-0.00762 0.00381 0.00124
0.02696 -0.01045 0.03218
0.00782 -0.00576 0.01814
-0.02046 0.00227 0.00901
-0.02082 0.00236 0.00815
-0.00989 0.00064 -0.00458
-0.01113 0.00339 -0.02044
-0.00649 -0.00052 0.00091
-0.00499 0.00455 0.00111
-0.00604 0.00003 -0.00017
0.00764 -0.00675 0.03775
-0.02227 0.00315 0.00744
-0.01319 0.00502 0.00151
-0.01635 0.00266 0.00605
-0.00153 -0.00220 0.01169
-0.03988 0.00833 -0.00416
0.02881 0.00330 0.01931
-0.00819 0.00126 -0.00580
-0.01546 0.00103 0.00771
-0.01236 0.00021 0.00775
-0.00538 -0.00429 0.00156
-0.00195 -0.00161 0.00434
-0.01458 0.00079 0.00482
-0.01389 0.00325 -0.01091
-0.02112 0.00418 0.01018
0.01971 -0.00806 0.03563
-0.01162 -0.00102 -0.01436
-0.01874 0.00566 0.00756
-0.02123 0.00222 0.01017
0.05900 -0.02181 0.06884
0.01370 -0.00470 0.01680
0.01729 -0.00507 0.00969
-0.00754 -0.00075 0.00167
0.01716 -0.00485 0.00523
-0.01047 -0.00839 0.00362
0.04604 -0.01464 0.02848
-0.00523 -0.00086 0.00076
-0.01288 0.00382 -0.01489
-0.00859 0.00457 -0.00045
-0.00833 0.00485 0.00578
-0.01485 0.00071 0.00536
-0.00331 -0.00020 0.00358
-0.01171 -0.00082 -0.01433
0.00734 -0.00321 0.02253
-0.01569 0.00176 -0.00070
-0.00256 -0.00243 -0.00852
0.01075 -0.00801 0.03250
-0.01031 0.00345 -0.01257
-0.01144 -0.00461 0.05563
-0.03944 0.00774 -0.00619
0.01459 -0.00497 -0.00640
0.02191 -0.00675 -0.00592
0.05922 -0.01992 0.04858
0.03545 -0.01333 0.01872
0.01592 0.00237 0.01602
-0.00992 0.00085 -0.00753
-0.01378 0.00046 0.00517
0.13167 -0.02358 0.02475
-0.02076 0.00200 0.00810
-0.00554 0.00676 -0.00803
0.00569 0.00595 -0.00565
0.01544 -0.00514 -0.00779
-0.01581 0.00045 0.01024
-0.01685 0.00226 -0.00403
0.00746 -0.00403 0.02362
0.04477 -0.00597 0.01461
-0.01431 0.00468 0.00355
0.00905 -0.00378 -0.00553
-0.01035 -0.00838 0.00407
0.00014 0.00013 -0.00223
-0.00346 0.00115 -0.01245
0.04030 0.00766 0.03824
-0.00363 0.00500 -0.01595
0.01266 -0.00456 0.02676
-0.01562 0.00256 0.00532
0.16461 -0.04490 0.06372
-0.01813 0.00248 0.00164
-0.01463 0.00233 0.00599
-0.02828 0.00265 0.01984
0.00469 -0.00837 0.00296
-0.00236 -0.00178 0.01133
-0.01516 0.00373 0.00761
-0.01612 -0.00014 0.02363
-0.00297 0.00019 -0.00258
-0.02978 0.00397 0.03973
0.00607 0.00367 0.03634
-0.01011 0.00402 -0.00737
-0.00956 0.00309 -0.01795
-0.00986 0.00325 -0.01553
-0.01224 0.00707 -0.01070
-0.00485 0.00115 -0.01544
-0.00189 -0.00612 0.00006
-0.00235 -0.00010 -0.00121
0.00504 0.00610 -0.00201
-0.00821 0.00243 -0.01899
0.00101 -0.01228 -0.00056
-0.00529 -0.00127 0.00489
-0.00769 0.00180 -0.02081
0.00027 -0.00191 -0.00177
-0.01077 0.00457 0.00099
-0.01774 0.00313 -0.00023
-0.02088 0.00199 0.00823
0.20627 -0.05764 0.10839
0.01884 -0.00607 -0.00456
-0.01646 0.02443 0.08218
-0.01574 0.00244 -0.01090
-0.00927 0.00151 -0.02176
0.00470 -0.00924 0.00482
0.08413 -0.02501 0.03144
-0.00626 0.00700 -0.00572
-0.02104 -0.00240 0.00601
-0.00603 0.00651 0.00222
-0.02104 -0.00240 0.00601
0.01498 0.00748 0.02145
0.02017 -0.00725 0.04363
-0.00621 0.00444 0.01322
-0.00998 0.00586 -0.00042
0.00793 -0.00349 -0.00488
0.06694 -0.01076 0.02756
0.00444 -0.00105 0.01200
0.04367 -0.01286 0.01185
-0.01223 0.00298 -0.01229
-0.01360 0.01026 0.00851
0.00939 0.00488 -0.00790
-0.00504 0.00072 -0.01401
0.08625 -0.02456 0.05548
-0.00318 0.00833 0.00293
0.02485 -0.00606 -0.00710
-0.00417 -0.00278 0.02181
-0.02265 0.00373 -0.00050
-0.00223 -0.00149 0.00390
-0.01787 0.00215 -0.00218
-0.01598 0.00126 0.00289
-0.00959 0.00056 -0.00224
-0.00149 -0.00177 -0.00106
-0.07986 0.00817 0.17757
0.00684 0.00612 -0.00535
-0.00117 -0.00655 -0.00029
-0.00151 0.00296 0.00234
-0.00374 0.00473 0.02570
-0.01147 0.01123 0.01226
0.04409 0.00163 0.00145
0.54316 -0.14258 0.19573
0.03000 -0.00874 -0.00317
-0.00893 0.00390 -0.00503
0.06437 0.00452 0.03013
0.08652 0.00865 0.05684
-0.00892 0.00077 -0.00500
-0.03903 0.00924 -0.00460
-0.01133 0.00374 -0.01480
-0.01452 0.00412 0.01285
-0.01832 0.00491 -0.00033
0.00581 0.00019 0.01081
-0.00667 0.00325 0.00263
-0.01962 0.00236 0.00083
-0.00002 -0.00029 -0.00209
-0.01197 0.00045 0.00274
-0.01091 0.00328 -0.01843
-0.00792 0.00300 -0.01038
0.00020 -0.00333 0.02510
-0.00063 -0.01101 -0.00091
-0.00051 0.00257 -0.00215
0.01107 0.00029 0.00907
0.00817 0.00201 0.01077
0.00868 0.00318 0.03689
0.00913 0.00026 0.00897
-0.01133 0.00212 -0.01578
0.00122 -0.00396 0.02013
-0.00645 0.00279 -0.01626
-0.01042 0.00431 -0.00946
-0.01245 0.00193 -0.01151
-0.00570 0.00384 0.00468
-0.01777 0.01135 0.00328
-0.01238 0.00357 -0.01782
0.07121 -0.00977 0.05045
0.02001 -0.00492 0.01328
-0.01907 0.00586 0.00898
-0.04385 0.00960 -0.00477
0.02137 0.00187 0.05043
0.00016 0.00209 0.01788
-0.01165 0.00171 -0.01443
-0.01578 0.00757 0.07139
-0.00614 0.00908 0.00316
-0.01021 0.00469 -0.02283
0.00801 -0.00626 0.07472
-0.00793 0.00102 -0.00164
0.01684 -0.00261 -0.00277
-0.01134 0.00147 -0.00914
0.00897 -0.00364 -0.00624
-0.02490 0.00430 0.00677
0.00603 0.00426 0.00243
0.04942 0.00236 0.02597
0.00212 -0.00325 0.01598
-0.01176 0.00073 0.00379
-0.00064 -0.00101 -0.00874
-0.01908 0.00659 0.00930
-0.00475 0.00445 0.01864
0.00048 0.00329 0.01551
0.07654 -0.00623 0.07775
-0.01024 0.00343 0.01666
-0.00098 0.00419 0.02421
-0.00711 0.00888 0.00644
-0.00364 0.00484 -0.01556
0.04517 0.00419 0.01758
-0.00235 0.00584 0.02487
0.04429 0.00028 -0.00287
0.04429 0.00028 -0.00287
0.01349 -0.00434 -0.00587
0.01091 -0.00061 -0.00425
0.01247 0.00434 -0.00267
-0.00992 0.00725 -0.00239
0.00030 -0.00356 0.01873
0.06665 -0.01697 0.03596
0.51378 -0.13257 0.45853
-0.01468 0.00421 -0.01909
-0.01151 0.00398 -0.01246
0.16742 -0.02866 0.26986
0.00064 0.00102 0.02891
-0.00278 -0.00039 0.00470
0.06323 -0.02021 0.06339
-0.00097 -0.00170 0.00249
0.03390 -0.00000 -0.00306
0.00196 -0.00730 0.00562
0.00149 0.00421 -0.00629
0.00205 0.00176 0.00684
-0.02238 0.00458 0.00903
0.00954 0.00123 0.00307
0.03204 -0.01298 0.04469
0.00032 -0.00406 0.01535
-0.02250 0.00261 0.00692
-0.01718 0.00166 0.00641
-0.00210 0.00598 -0.00427
0.00384 0.00279 -0.00306
-0.01195 0.00195 0.00376
0.00248 0.00245 0.01869
0.00305 -0.00106 0.00971
-0.00606 -0.00204 0.01755
-0.00776 -0.00128 0.01223
0.00178 -0.00044 -0.00235
-0.00913 0.00174 -0.02195
0.02725 -0.00044 0.02012
0.02130 -0.00845 0.02964
0.06867 -0.04741 0.10806
0.07570 -0.01876 0.03808
0.00565 -0.00111 -0.00248
-0.00293 0.00439 0.00598
0.00111 0.00567 -0.00444
0.00120 0.00124 -0.00719
-0.00441 0.00282 0.01087
-0.00934 0.00394 -0.02454
-0.01567 0.01085 0.00412
-0.01296 0.00383 -0.01485
0.00581 -0.00558 0.01568
-0.00621 0.00266 0.00463
0.00500 0.00039 0.00204
0.01757 -0.00225 0.00543
0.00020 -0.01253 -0.00001
-0.00070 0.00262 -0.00207
0.00194 0.00911 0.01276
0.13264 -0.03112 0.08738
-0.00041 -0.00062 -0.01427
-0.00377 0.00217 -0.00158
-0.00836 0.00198 -0.02101
-0.01363 0.01021 0.00771
0.03116 -0.00043 0.04755
-0.00566 0.00516 -0.01226
-0.01325 0.00977 0.00410
-0.01747 0.00490 0.00032
-0.01638 0.00116 0.00722
-0.00310 -0.00444 0.02817
0.00847 -0.00249 -0.00520
0.09656 -0.02783 0.09233
0.00105 0.00596 -0.00354
0.02617 0.00648 0.01878
-0.01027 0.00077 -0.00537
-0.00096 0.00559 0.00126
-0.00847 0.00744 0.00988
0.01653 -0.00891 0.08068
-0.00133 -0.01282 0.00044
-0.01096 0.00399 -0.02238
-0.00547 0.00916 0.00335
-0.00036 0.00628 -0.00890
-0.00577 0.00146 -0.01452
0.02265 0.00461 0.00096
-0.02070 0.00540 0.00512
0.00538 -0.00462 0.01595
-0.02433 0.00483 0.00051
-0.00577 0.00159 -0.01761
-0.01276 0.00498 0.00202
0.00702 0.00107 -0.00559
0.00705 -0.00351 0.03077
0.03508 -0.01176 0.02494
-0.00146 -0.00213 0.01251
0.08892 0.00520 0.02131
0.01852 0.00162 -0.01367
-0.01183 0.00701 -0.00813
0.10594 -0.01508 0.05275
-0.00347 0.00101 -0.01453
-0.01068 -0.00004 0.00244
-0.00584 -0.00162 0.00563
-0.00779 0.00189 -0.01597
-0.00990 0.00368 0.00573
-0.04044 0.00814 -0.00541
0.00571 -0.00328 -0.00408
0.00668 -0.00358 0.02667
-0.00445 -0.00920 0.00139
0.00434 -0.00148 0.00273
-0.00431 -0.00048 -0.00351
-0.00154 0.00204 -0.01470
-0.00477 0.00472 0.02260
-0.00544 0.00253 0.01781
-0.00488 -0.00037 0.01794
-0.00538 0.00232 -0.01190
-0.00308 0.00285 0.01002
0.11904 -0.03299 0.05786
0.01192 -0.00796 0.03844
-0.00027 0.00213 0.01466
-0.01699 0.00110 0.00627
-0.00652 0.00270 -0.01175
-0.02097 0.00625 0.01070
-0.04437 0.01047 -0.00838
-0.00153 -0.00193 -0.00113
0.01594 -0.00048 0.01647
-0.01225 0.00379 0.00274
0.00816 0.00079 -0.00663
-0.00479 0.00247 -0.00134
0.01320 -0.00562 0.00683
-0.01817 0.00162 0.00548
-0.00323 0.00283 0.01030
0.27126 -0.04258 0.18526
-0.01014 0.00329 -0.01535
0.02271 0.00377 -0.00131
0.03539 0.00339 0.00661
0.00162 0.00413 -0.01359
-0.00341 0.00113 -0.01066
0.03057 -0.00376 0.01706
0.00161 -0.00048 -0.00259
-0.00042 -0.00148 0.02032
-0.01899 0.00333 0.00844
-0.02170 0.00572 -0.00209
0.02747 0.00353 -0.00230
0.00280 0.00722 0.00211
-0.00533 -0.00089 -0.00058
-0.01551 0.00844 0.00804
0.00349 -0.00232 -0.00276
0.00339 -0.00229 -0.00287
-0.02832 0.00768 -0.00381
-0.00946 0.00234 -0.02289
-0.00154 0.00948 0.00606
0.00899 0.00753 -0.00120
-0.01990 0.01050 0.00569
-0.01158 0.00348 -0.01328
0.00711 0.00179 0.03600
0.02236 -0.00124 0.03085
-0.01750 0.00142 0.00778
-0.01750 0.00142 0.00778
0.01591 0.00593 -0.00020
-0.00424 0.00218 -0.00729
-0.00570 -0.00125 0.00525
-0.00205 0.00108 -0.01718
0.01473 0.00602 -0.00083
-0.01538 0.00537 0.00930
0.00086 0.00401 0.02470
0.02635 0.00380 0.00568
0.00380 -0.00174 0.00179
0.00394 -0.00180 0.00194
-0.00882 0.00300 -0.01532
-0.01376 0.00992 0.00831
0.02402 -0.00782 -0.00066
-0.02792 0.00472 -0.00165
-0.00887 -0.00172 0.02266
0.04148 -0.01030 0.07222
0.02329 0.00707 0.00533
-0.00602 0.00240 -0.01505
0.01587 0.00035 -0.01302
-0.00596 0.00339 0.01115
-0.00589 0.00153 -0.01543
-0.01011 -0.00040 0.00574
0.01412 0.00497 -0.00840
-0.00128 0.00621 -0.00629
0.03673 -0.01216 0.01588
-0.01185 0.00033 0.00246
0.00417 0.00142 0.00964
-0.01318 0.00367 -0.01998
0.01849 -0.00074 0.02311
-0.00148 -0.00103 0.01299
-0.00076 0.00270 0.01798
-0.00265 0.00202 -0.01034
0.02917 0.00928 0.03400
0.04266 -0.00523 0.02884
0.00130 -0.00186 -0.00207
-0.00086 -0.01282 0.00078
0.00245 0.00145 0.00044
-0.00423 0.00211 -0.01673
-0.01353 0.00909 0.00126
0.01232 -0.00038 0.00088
-0.00220 0.00086 -0.00981
0.00088 0.00770 0.00323
0.02519 -0.00763 -0.00728
-0.01873 0.00468 0.00249
-0.01679 0.00432 0.03413
-0.00157 0.00177 -0.01190
0.02347 -0.00120 0.03859
0.01032 0.00377 -0.01263
0.00697 -0.00305 -0.00367
0.00642 -0.00289 -0.00414
-0.00791 0.00115 -0.02062
0.00246 0.00538 -0.00720
-0.01478 0.00408 -0.01328
-0.00922 0.00292 -0.02074
-0.00789 0.00276 -0.01694
0.02170 -0.00507 0.01494
-0.01956 0.00175 0.00875
-0.01652 0.01112 0.00879
0.00285 -0.00267 0.02392
-0.02226 0.00403 0.00654
0.01656 -0.00724 0.05623
-0.01087 0.00162 0.00261
0.00728 -0.00001 -0.00567
-0.01588 0.01155 0.01226
0.02191 -0.00300 0.01539
0.01372 -0.00508 -0.00537
-0.00415 0.00220 -0.01316
-0.00803 0.00983 0.00560
-0.01093 0.00499 0.00653
0.01656 0.00088 0.01946
0.00851 -0.00405 0.00555
-0.00665 0.00325 0.00264
-0.00053 -0.00016 0.00084
0.16741 -0.02093 0.05481
0.01202 0.00062 0.02267
0.01370 -0.00508 -0.00587
0.01311 -0.00611 0.02062
-0.01092 0.00381 0.00347
