# .PCD v.7 - Point Cloud Data file format
VERSION .7
FIELDS x y z
SIZE 4 4 4
TYPE F F F
COUNT 1 1 1
WIDTH 1873
HEIGHT 1
VIEWPOINT 0 0 0 1 0 0 0
POINTS 1873
DATA ascii
-0.10453 -0.00595 -0.01938
0.04502 0.05993 -0.01571
-0.09354 -0.07306 0.05449
-0.02837 -0.01964 0.00053
-0.08976 -0.02187 0.00054
-0.03402 0.08169 -0.03861
-0.00227 0.00007 -0.08301
-0.00380 -0.04728 0.02843
-0.11227 -0.01662 -0.00126
0.03208 0.03070 -0.00859
-0.05657 0.07300 -0.05059
-0.00603 0.04084 -0.02942
0.02002 0.02676 -0.01619
0.00397 0.02672 -0.01877
-0.03835 0.02399 -0.01820
0.02510 0.03048 -0.02131
-0.09591 0.02429 -0.02245
0.06010 -0.03755 0.05436
0.06731 0.06324 -0.01221
0.04888 0.03973 -0.00981
0.06909 0.04637 -0.00425
0.04077 -0.00208 0.01891
0.02144 0.04179 -0.02267
0.02772 0.11110 -0.02399
0.01599 -0.00976 0.03202
-0.07993 0.03916 -0.03957
0.07626 -0.02487 0.04935
0.09286 0.05386 -0.00808
0.03709 0.04931 -0.02098
-0.12698 0.17702 0.08450
0.09639 0.03670 0.00868
0.06225 0.00775 0.02134
0.08591 0.08161 -0.02511
-0.06523 0.17075 0.10933
-0.08399 -0.01956 -0.00710
-0.07217 -0.03881 0.03950
0.00357 -0.02592 0.01414
0.07501 -0.02839 0.05789
0.09883 -0.01851 0.06271
0.06513 0.01756 0.01647
0.07979 0.00397 0.01424
0.01882 0.00008 0.00008
-0.01414 -0.04040 0.02317
0.08125 0.05079 0.00262
-0.08664 0.03726 -0.03895
-0.10598 -0.04468 0.02043
0.04642 -0.06469 0.08595
-0.11883 -0.08232 0.05128
-0.08005 0.03277 -0.03793
0.06162 -0.09839 0.12428
-0.09272 -0.09657 0.06243
-0.01011 -0.05045 0.01833
-0.11430 -0.08905 0.04954
0.01267 0.03835 -0.03446
-0.10642 -0.02775 -0.00771
-0.08048 0.00227 -0.01214
0.04541 -0.01220 0.03335
0.03546 0.05816 -0.02042
-0.10110 -0.01857 -0.01112
-0.09382 0.02981 -0.04066
0.05961 0.01142 0.01814
0.07565 0.00100 0.02992
0.07991 -0.04751 0.07855
-0.08498 0.06490 -0.05763
-0.08105 -0.00063 -0.01276
-0.11393 -0.02601 -0.01541
-0.04548 -0.01893 -0.00490
0.06201 0.02895 0.00734
0.04798 -0.06238 0.08375
0.05717 -0.07022 0.08617
-0.07343 -0.02279 -0.00139
-0.09690 -0.03380 0.00571
-0.00963 -0.01671 0.00822
0.03498 0.02510 -0.00420
0.03064 -0.01831 0.01751
-0.09108 0.00264 -0.01759
0.04827 0.02868 -0.00325
0.03681 0.02630 -0.00161
0.00706 -0.00813 0.00227
0.02374 -0.00895 0.00969
0.06112 -0.02559 0.04527
-0.12450 -0.12544 0.17488
0.08849 -0.07299 0.10351
-0.05673 0.06929 -0.06612
0.03975 0.05408 -0.02048
-0.03748 0.03629 -0.04155
0.06535 -0.07434 0.10565
0.05077 0.05916 -0.07042
0.03364 -0.02124 0.05203
0.03835 -0.02785 0.08442
0.04808 0.07525 -0.04742
0.04719 0.07210 -0.04153
-0.02050 0.04908 -0.05367
-0.01234 0.14478 0.07801
0.04637 0.04103 -0.02266
0.04928 -0.01963 0.03920
0.02954 -0.01474 0.02782
-0.09035 0.07745 -0.05001
-0.01018 0.08055 -0.04006
0.02825 0.03676 -0.11308
-0.06429 0.07677 -0.04395
0.06077 0.04671 -0.01548
0.05731 -0.04716 0.06961
0.05611 -0.02867 0.04783
0.04313 -0.01109 0.02617
-0.03543 0.03484 -0.03874
-0.10194 -0.01143 -0.01538
0.06432 -0.06446 0.07895
-0.03007 0.01164 -0.00424
0.09501 0.03607 0.01177
-0.08106 0.05014 -0.04659
-0.07724 -0.08300 0.06531
-0.02132 0.02131 -0.02219
0.00126 -0.02520 0.03129
0.08377 0.00745 0.02461
0.08519 0.04703 0.04512
0.08756 -0.02152 0.06541
0.07872 -0.00425 0.03585
0.08100 0.04717 -0.00236
0.08337 -0.01610 0.04143
-0.05312 0.04430 -0.07433
-0.03822 0.07001 -0.05846
0.06463 0.06106 -0.01460
-0.05511 0.03126 -0.04003
-0.05311 -0.01337 -0.00277
-0.06409 0.01829 -0.03347
-0.01099 0.03480 -0.03105
-0.07076 0.05489 -0.05207
0.03606 0.02463 -0.00572
-0.11629 -0.05901 0.02782
0.04413 -0.04649 0.09693
-0.08215 -0.07575 0.05387
-0.06165 0.03993 -0.04262
0.00152 0.02256 -0.02219
0.04388 0.00101 0.00773
0.06595 0.01561 0.01786
0.03448 0.03849 -0.01890
-0.08799 0.04290 -0.04443
-0.00837 -0.01672 0.00016
-0.01516 0.03768 -0.03033
0.05416 0.06271 -0.03362
-0.00650 -0.00461 0.00601
-0.06136 0.11134 0.01190
-0.08864 0.03512 -0.03937
-0.01604 0.10246 -0.01823
-0.01073 0.03744 -0.03816
0.05569 -0.00188 0.02203
-0.09363 -0.09950 0.07447
-0.02475 0.00358 -0.01696
-0.06602 -0.00860 -0.00930
-0.09049 -0.05094 0.01999
0.03160 -0.02034 0.02374
-0.11105 -0.05794 0.02758
-0.05849 -0.01655 -0.00934
-0.05704 0.01757 -0.04560
0.03692 0.02300 -0.04828
0.02949 0.02759 -0.00004
0.02573 0.02570 -0.01296
0.07769 0.03273 0.02608
0.06171 0.03042 0.00597
0.07233 0.04905 -0.00370
0.07943 0.06959 -0.01090
-0.03275 0.02069 -0.02224
-0.01615 0.03769 -0.03168
-0.11581 -0.07064 0.03837
-0.07012 -0.00480 -0.02432
-0.02994 -0.01276 0.00700
-0.07537 0.03274 -0.03526
0.07894 0.04523 -0.00501
-0.09158 -0.06184 0.03858
-0.06555 0.03585 -0.03974
-0.05531 0.03421 -0.04597
0.09824 0.03706 0.00676
-0.02633 -0.02609 0.01022
0.00904 0.02310 -0.03055
0.05670 -0.04308 0.07098
-0.03552 0.01629 -0.02070
0.06155 -0.02129 0.03952
-0.08551 0.01533 -0.03000
0.09949 0.03871 0.00751
0.01070 0.03928 -0.03359
0.05772 0.00147 0.02665
-0.10472 0.20499 0.13170
-0.00358 0.03799 -0.02872
-0.04546 0.06364 -0.04620
-0.07661 0.01873 -0.01882
-0.01797 0.02118 -0.02106
0.06548 0.03087 0.00676
0.04242 -0.06335 0.08799
-0.08369 0.02406 -0.01507
0.04118 0.04727 -0.01523
-0.04988 -0.02856 0.00251
0.06357 0.01772 0.01829
-0.02461 -0.00543 -0.00506
0.05780 0.05562 -0.00810
-0.08096 -0.00040 -0.01619
-0.00585 0.01979 -0.02009
0.08540 -0.04280 0.08128
-0.06660 -0.00973 -0.00603
0.04759 0.00097 0.02070
0.05710 -0.03379 0.04876
-0.06303 -0.00830 -0.00856
-0.05323 0.01722 -0.01952
-0.07863 0.03399 -0.03853
-0.00471 0.04530 -0.02730
0.05446 -0.00115 0.02198
-0.03854 0.01964 -0.02427
-0.07914 -0.05942 0.03455
0.06668 0.01693 0.01368
0.02782 0.03721 -0.10707
-0.00320 0.01144 -0.15592
0.09599 -0.00825 0.03623
0.04201 0.01270 0.01346
-0.04362 -0.01606 -0.01083
-0.01426 0.02032 -0.14153
-0.07416 0.03828 -0.03841
0.05045 0.04606 -0.02056
-0.04971 0.06542 -0.05084
-0.03344 0.03568 -0.03603
-0.07125 -0.01748 -0.00594
0.08421 0.01203 0.03057
0.05982 0.03205 0.00368
0.04316 0.03139 0.00796
0.04648 -0.02589 0.05691
0.03355 -0.00952 0.01248
-0.02178 0.02148 -0.02570
-0.07192 0.05590 -0.04581
0.04524 -0.06894 0.10342
-0.05335 -0.00280 -0.01386
0.06206 0.00867 0.02443
0.03756 -0.00801 0.00947
-0.07843 0.01231 -0.01985
-0.06509 0.01623 -0.02224
0.00158 0.02374 -0.01740
-0.11964 -0.08769 0.05697
-0.01646 0.04530 -0.02346
-0.04863 0.04489 -0.03425
0.07660 -0.07001 0.08739
0.01385 0.04594 -0.02468
0.08105 -0.04418 0.07507
0.04542 -0.02282 0.04634
0.06822 -0.01724 0.04052
-0.04882 -0.01379 -0.00698
-0.03163 -0.00849 -0.00095
-0.06006 -0.00816 -0.00722
-0.04638 0.01531 -0.01693
0.00342 0.02332 -0.01812
0.01059 0.02448 -0.01863
-0.01625 -0.03154 0.00172
-0.07579 0.04179 -0.04185
0.07574 -0.01078 0.04140
-0.06187 0.06108 -0.08719
0.04531 0.06744 -0.02981
-0.00040 0.02430 -0.01147
-0.10815 -0.00990 -0.02106
0.03448 -0.00248 0.00718
0.04895 -0.02443 0.04203
-0.04553 0.07473 -0.05435
0.06802 -0.05779 0.07095
0.07121 -0.06559 0.08015
0.03777 -0.00108 0.01062
-0.02699 0.02120 -0.01968
0.06436 -0.01831 0.04255
0.08718 -0.00523 0.03261
-0.09414 -0.04503 0.01046
0.09806 -0.00409 0.03402
-0.04691 0.00553 -0.01441
0.08100 0.00146 0.03089
-0.02752 0.01522 -0.01407
-0.08992 -0.00537 -0.01575
-0.07004 -0.02612 -0.01187
0.07500 -0.03579 0.03404
-0.00577 0.00689 -0.16125
-0.06101 -0.01575 -0.00045
-0.06936 0.05301 -0.04867
0.04321 -0.02945 0.06802
0.04021 -0.02185 0.05208
0.08534 0.04369 0.00216
0.07493 0.03002 0.01063
0.05741 0.04284 -0.01751
0.08101 0.05181 0.00024
-0.04643 0.05091 -0.03968
-0.08195 -0.00779 -0.01373
-0.01110 0.02296 -0.02030
-0.05604 -0.03077 -0.03478
-0.01384 0.03686 -0.03860
-0.05801 -0.00653 -0.00650
0.04972 0.00725 0.00765
-0.10796 -0.02103 0.00198
0.06408 0.01554 0.01933
-0.05202 0.01794 -0.02104
0.03131 0.03990 0.12221
-0.09125 -0.00091 -0.01483
-0.06823 0.02199 -0.03766
0.03168 0.04199 -0.02393
-0.08018 0.00132 -0.01412
0.08813 -0.06062 0.09447
0.09272 0.05157 -0.00310
-0.04448 0.05126 -0.03838
-0.08949 -0.04234 0.01806
0.05815 -0.02322 0.04285
0.07700 0.07064 -0.01390
-0.06260 0.03286 -0.04198
0.03730 0.06003 -0.02538
-0.04256 0.01727 -0.02198
0.04508 0.07075 -0.02845
-0.07621 0.06821 -0.04670
-0.05185 0.05109 -0.03745
-0.01381 0.05707 -0.06193
0.04424 0.00914 0.00955
0.05226 0.03828 -0.01794
-0.08231 0.02283 -0.01229
-0.08152 -0.04027 0.01410
-0.10035 -0.02042 -0.01072
-0.00848 0.02066 -0.01398
-0.06046 -0.01053 -0.00576
0.05877 -0.02351 0.05134
0.09252 0.00088 0.02846
-0.01683 -0.03112 0.00835
0.05282 0.00158 0.02119
0.10102 -0.01560 0.05587
0.09067 0.01114 0.02835
0.07731 0.03371 0.00962
-0.03609 -0.16748 0.13902
-0.07761 0.03218 -0.04362
-0.04359 0.03322 -0.04091
0.02073 0.04150 -0.02700
0.00874 -0.02661 0.11206
-0.06641 -0.02164 0.00169
-0.01186 -0.00527 -0.00141
-0.08264 -0.01388 -0.00693
-0.00363 -0.01425 -0.02762
-0.02454 -0.01392 -0.00228
-0.03648 -0.01093 -0.01570
0.08561 -0.06825 0.09915
-0.03327 0.00661 -0.01312
-0.05569 0.02206 -0.02830
-0.05169 0.02258 -0.02732
0.09339 -0.03375 0.06632
-0.04580 0.02274 -0.02716
-0.03893 0.02328 -0.02790
-0.00861 -0.00968 0.00506
-0.01624 0.02375 -0.02781
0.04161 0.03454 -0.01757
0.06178 -0.06890 0.09099
-0.11059 -0.04257 0.01171
0.06192 -0.02026 0.03457
-0.07062 -0.01624 -0.00466
-0.05620 -0.01049 -0.00429
0.08303 -0.00047 0.02777
-0.05761 0.03337 -0.02934
-0.03743 0.03422 -0.03413
-0.01465 0.03517 -0.03235
0.04848 0.04021 -0.01742
0.06117 0.03133 0.00593
0.00512 0.03674 -0.02517
0.04650 0.03922 -0.02342
-0.06228 0.06117 -0.09030
-0.02418 0.02000 -0.02795
-0.07125 -0.02296 0.00796
0.00460 -0.02079 0.01090
-0.02749 0.04171 -0.03521
-0.08137 -0.01930 0.00367
-0.11279 -0.08335 0.04902
-0.04495 0.04526 -0.03930
-0.10846 -0.02455 -0.01050
-0.03229 -0.00675 -0.00294
-0.08345 0.01976 -0.02454
0.08821 -0.02553 0.05872
-0.10705 -0.04848 0.01721
0.01182 -0.00219 0.00380
0.02708 0.00281 0.00653
0.05915 0.03318 -0.01429
0.00732 0.03982 -0.02725
0.05070 -0.05187 0.06054
-0.04064 0.10558 -0.00888
0.00159 0.05851 -0.00264
-0.01961 0.06134 -0.08398
0.00435 0.04901 -0.10327
0.04395 0.02925 0.00083
-0.00617 0.00348 -0.00265
0.00100 0.03434 -0.12206
0.06970 0.04450 0.00069
0.07364 0.04827 -0.00526
-0.05725 0.03131 -0.04050
-0.07644 0.02250 -0.03447
0.04451 -0.03997 0.06399
-0.01364 -0.00366 -0.17530
-0.02084 0.06418 -0.07502
-0.07642 0.07024 -0.05264
-0.06888 0.02313 -0.03747
-0.06896 -0.07193 0.06681
0.08549 -0.00952 0.05211
0.05667 -0.06024 0.08158
-0.02792 0.04861 -0.02729
0.04523 0.06852 -0.05516
0.03241 -0.02615 0.02553
0.05575 -0.00238 0.02431
-0.04972 0.01779 -0.01186
-0.05578 0.01875 -0.02375
0.07498 -0.03724 0.05546
-0.08308 0.07506 -0.05966
-0.00092 0.01034 0.03065
-0.00116 0.04694 -0.02477
-0.03438 -0.00688 -0.00758
-0.03002 -0.00573 -0.00320
0.01715 0.00214 0.00459
-0.07375 0.05608 -0.04766
-0.08538 0.03344 -0.04183
-0.05527 -0.01684 -0.00059
-0.08569 -0.03269 0.00856
-0.08874 0.01656 -0.02566
0.05150 -0.00434 0.02472
-0.09185 0.05104 -0.03815
-0.00305 -0.04510 0.03131
0.03199 0.07396 -0.05215
-0.02385 0.00268 -0.01172
-0.01446 -0.03962 0.03336
0.08563 -0.00551 0.03413
0.03542 -0.00638 0.01067
-0.05643 -0.00077 -0.00514
0.08154 0.00286 0.00743
0.05901 0.03708 -0.01016
-0.00717 -0.01296 0.00550
-0.01066 -0.01829 0.00090
-0.05145 0.01901 -0.02525
-0.07701 0.03767 -0.03634
-0.07098 0.02456 -0.03249
0.06234 -0.11812 0.13807
0.05216 -0.08246 0.13190
-0.10244 -0.05051 0.01372
-0.08454 -0.04345 0.01441
-0.04269 -0.02398 -0.00013
-0.07991 0.04366 -0.05011
0.08721 -0.02446 0.05272
-0.05951 -0.01445 -0.00102
-0.06418 -0.00978 -0.00518
-0.09434 -0.00596 -0.01453
0.00738 0.03837 -0.02778
-0.04769 0.04381 -0.03940
-0.05162 0.06274 -0.06399
-0.00405 0.08337 -0.05213
-0.05052 0.00362 -0.00853
0.07354 0.01570 0.01995
0.06197 -0.00283 -0.00761
-0.05306 -0.01722 0.00056
-0.08597 0.03167 -0.03828
-0.00746 0.03604 -0.02877
-0.08386 0.05843 -0.06853
0.02054 0.04508 -0.03440
-0.01861 0.02012 -0.02287
-0.07400 0.04494 -0.04493
-0.07934 0.05017 -0.04169
-0.05156 0.05832 -0.05011
-0.05379 0.01756 -0.02485
-0.07691 0.06124 -0.03141
-0.10470 -0.08236 0.05420
-0.10916 -0.14194 0.11445
-0.01393 0.02024 -0.01103
0.05667 -0.06836 0.08711
0.07380 0.03697 -0.01546
-0.07885 -0.04236 0.01911
-0.09872 -0.02078 -0.01089
-0.00112 0.04358 -0.03178
-0.08086 0.04931 -0.04344
-0.04833 0.03578 -0.04288
-0.00997 0.02965 0.00616
-0.07812 0.03402 -0.03680
-0.09345 -0.00384 -0.01643
-0.00273 -0.03730 0.01851
0.04314 -0.00026 0.01640
-0.04977 -0.00121 -0.00381
-0.04876 -0.00549 -0.02711
-0.06923 0.03736 -0.03627
0.06101 0.01244 0.01792
-0.07838 0.01804 -0.02679
-0.03348 0.01813 -0.02342
-0.01657 0.02018 -0.02136
0.02313 0.02578 -0.00235
-0.00726 0.03709 -0.03237
0.02394 0.04011 -0.02578
0.03776 0.04092 -0.02224
-0.08222 0.03845 -0.04341
-0.10165 -0.08061 0.04742
0.01860 -0.00479 0.00982
-0.08066 -0.06201 0.03913
-0.08438 -0.06659 0.07117
0.03528 -0.00916 0.01467
0.02189 0.04535 -0.03096
-0.01502 0.04451 -0.03103
-0.01924 0.01792 -0.02046
0.02055 -0.00441 0.00877
-0.08916 -0.02827 0.00206
0.06410 0.00932 -0.02129
0.05040 -0.08048 0.11454
0.05884 0.01762 0.01327
0.06351 0.03647 -0.00515
-0.07506 -0.00890 -0.00566
0.06141 -0.06838 0.08065
-0.07210 -0.02483 0.00090
-0.05338 0.02170 -0.01955
0.07442 0.04163 -0.01552
0.05936 -0.04120 0.05989
-0.02356 0.04513 -0.02596
-0.06446 0.05611 -0.07843
-0.03878 0.02627 -0.03728
0.03359 0.04083 -0.02385
0.01726 0.03273 -0.02374
-0.04451 -0.00489 -0.00793
0.09465 0.00468 0.02987
-0.09368 0.09636 -0.02501
0.06678 -0.08355 0.10557
0.07753 -0.08923 0.11061
-0.00432 -0.05089 0.02474
-0.11275 -0.07379 0.04357
0.05536 0.05019 -0.02116
-0.00315 -0.02686 0.03076
0.09122 -0.02024 0.04484
-0.03642 0.00001 -0.01070
-0.09523 -0.08178 0.04680
-0.08928 0.01539 -0.03367
-0.05582 -0.01608 0.00004
-0.09508 -0.00775 -0.01374
-0.06727 0.04093 -0.04346
-0.08967 0.05362 -0.05273
-0.04979 0.05534 -0.05320
-0.01232 -0.02205 0.00651
0.07834 -0.00247 0.03473
0.05112 0.05224 -0.01632
0.02631 -0.02630 0.03275
-0.05869 0.00094 -0.01307
-0.08210 0.01533 -0.02268
-0.06650 0.01736 -0.03672
-0.08823 0.01846 -0.05063
-0.06857 0.03315 -0.03587
-0.08125 0.03201 -0.03750
0.02864 0.04389 -0.02814
-0.07203 0.01514 -0.02645
0.05165 -0.03647 0.05974
-0.07045 -0.02964 0.00892
-0.10658 -0.02719 -0.00422
-0.08801 0.07425 -0.06060
0.06872 0.03790 -0.00528
0.05066 -0.01163 0.03218
0.04720 0.07496 -0.01744
-0.05549 0.00000 -0.00488
-0.06435 0.03319 -0.04069
-0.07218 0.03563 -0.04881
-0.08543 0.01374 -0.02227
-0.08332 0.05656 -0.05469
0.03257 0.02686 -0.01094
-0.04834 0.02147 -0.02071
-0.09504 -0.00889 -0.01640
0.05873 0.04826 -0.01907
-0.09980 -0.09279 0.04865
0.03186 -0.01677 0.01297
0.03918 0.07785 -0.04619
-0.09161 -0.03246 0.00528
0.02241 0.05027 -0.02502
-0.02595 0.07056 -0.05498
-0.06406 -0.00117 -0.01194
-0.01060 -0.04137 0.01328
-0.10337 -0.12919 0.09508
0.06207 0.02643 0.00780
0.02329 0.02667 -0.00472
-0.06345 -0.02407 0.00085
0.06104 -0.00146 0.02511
0.03294 -0.01890 0.02343
-0.04467 0.04170 -0.04600
-0.06757 -0.03535 0.03659
0.04234 -0.00269 0.01960
-0.06181 0.07104 -0.05828
-0.08348 -0.08128 0.06259
0.08029 -0.03394 0.06247
-0.03618 -0.00975 -0.00118
-0.05160 0.03124 -0.04288
-0.01979 0.03177 -0.04013
-0.01138 -0.00732 -0.00221
-0.01613 0.06999 -0.05429
0.05813 -0.02861 0.04290
-0.03892 0.04924 -0.04493
-0.12316 -0.08419 0.05630
-0.10214 -0.03021 -0.00439
0.08795 -0.02191 0.05438
0.06887 -0.01118 0.03461
0.08397 -0.01443 0.04081
-0.05463 -0.00250 -0.00290
-0.09662 0.01861 -0.04110
-0.08309 -0.07035 0.05009
-0.11324 -0.07822 0.04583
-0.05957 0.05058 -0.06077
-0.02192 0.03453 -0.03615
0.06959 -0.07315 0.09225
0.08313 0.06052 -0.01112
0.05052 -0.10462 0.11259
0.05665 -0.01072 0.03066
0.05891 -0.07491 0.08696
-0.09048 0.02336 -0.02649
0.04579 -0.03280 0.04852
-0.05436 0.03885 -0.03892
-0.04146 0.15702 0.08253
-0.07468 0.01673 -0.02647
0.06479 0.03319 0.00063
0.07608 0.02953 0.00752
-0.02572 0.04906 -0.02844
0.07062 0.06191 -0.01732
-0.07577 0.06743 -0.05096
0.01838 0.04326 -0.02645
-0.05444 0.05744 -0.08729
0.06907 -0.06393 0.08787
-0.08318 -0.04150 0.02096
0.03314 -0.01154 0.00859
-0.00893 -0.00352 -0.00181
-0.10662 -0.04308 0.01360
0.06753 -0.05852 0.09103
0.06571 -0.01062 0.03610
-0.04434 0.06289 -0.04627
-0.04866 0.04607 -0.04060
0.06364 0.01610 0.01618
-0.07713 0.01997 -0.03842
0.04503 0.00195 0.01831
-0.09032 0.00311 -0.01209
-0.10166 -0.04084 0.01681
-0.05400 0.03440 -0.03973
-0.06212 0.01685 -0.02473
-0.06418 0.03550 -0.04526
-0.05397 0.04814 -0.04304
-0.07092 0.04348 -0.04140
-0.07510 0.03815 -0.03494
0.07077 -0.01051 0.03208
0.07156 0.01315 0.02575
0.05850 0.05554 -0.01889
-0.06930 0.01764 -0.03726
-0.08365 0.06008 -0.06279
-0.07766 -0.00549 -0.00992
0.06862 -0.02680 0.04529
-0.07813 -0.00181 -0.01104
-0.05316 0.04951 -0.04032
-0.07513 0.00408 -0.01881
-0.00105 -0.03550 0.03433
0.09331 0.04322 0.00889
0.05044 0.01127 0.01584
-0.00351 0.02443 -0.00771
-0.04990 -0.00926 -0.00135
-0.09511 0.01622 -0.03139
0.05754 -0.07795 0.10105
0.05395 -0.12282 0.14868
0.03855 -0.06116 0.12090
-0.01428 -0.04529 0.00862
-0.03831 -0.00387 -0.00769
0.03669 -0.00023 0.01586
0.01131 0.04320 -0.02716
0.04287 0.04259 -0.02256
0.05720 -0.03272 0.04966
0.01806 -0.00924 0.00694
-0.06594 0.03224 -0.04365
0.00599 -0.04685 0.02819
-0.00448 0.02090 -0.15552
-0.09283 -0.01557 -0.00971
-0.05907 0.05620 -0.02803
0.02315 -0.01101 0.01091
-0.02738 0.02177 -0.02669
-0.04202 0.02257 -0.02125
-0.03317 0.01339 -0.06949
-0.07900 0.06222 -0.05098
-0.01874 0.02330 -0.02734
0.05512 0.03865 -0.01382
0.01638 -0.00781 0.00980
-0.05571 0.02619 -0.03945
0.04107 0.01280 0.01742
-0.04037 0.01883 -0.02587
-0.10612 -0.09615 0.06376
-0.03905 0.05839 -0.05247
-0.01453 0.03560 -0.02946
0.03418 0.03736 -0.02488
-0.02092 0.07670 -0.05222
0.04277 0.01115 0.01255
0.02313 0.07425 -0.05336
0.01992 0.02539 -0.02810
0.04747 0.00147 0.01681
-0.05142 -0.00488 -0.00280
-0.00228 -0.03493 0.01563
-0.08601 0.05587 -0.03111
0.00912 -0.00373 0.00245
-0.02121 0.03529 -0.03042
-0.09927 0.02070 -0.03835
0.07837 -0.00041 0.04063
-0.03205 0.00354 -0.01165
0.08545 0.00593 0.02596
-0.04356 -0.00951 -0.00536
-0.00604 -0.02676 0.01554
-0.01391 -0.03594 0.00605
-0.09910 0.05160 -0.04155
0.01152 0.07290 -0.05076
0.03557 0.05747 -0.07273
0.05330 -0.00876 0.02657
-0.06251 0.06534 -0.07137
0.03853 -0.05294 0.11337
-0.02046 0.05915 -0.03660
0.01822 0.00024 0.00959
-0.02797 0.08208 -0.02749
-0.00123 0.05352 -0.09439
0.03550 -0.01714 0.01841
-0.05142 -0.01069 -0.00203
0.08707 0.04176 -0.00382
0.04932 -0.09457 0.13993
-0.02318 0.01097 -0.02064
-0.08755 -0.03406 0.00841
-0.07303 0.05006 -0.04020
-0.07928 -0.03684 0.01658
0.02199 0.06640 -0.06063
-0.08849 -0.03689 0.00328
-0.07389 -0.03751 0.01692
-0.08547 -0.05124 0.02443
0.05298 -0.04075 0.06051
0.08700 -0.03070 0.05808
-0.01405 -0.00677 -0.17406
0.06326 0.05160 -0.01797
-0.05147 0.04181 -0.04978
-0.01872 -0.03816 0.02563
-0.06262 0.01319 -0.09404
-0.07446 0.05921 -0.04088
-0.07675 0.06538 -0.05681
-0.08457 0.03288 -0.03643
0.09270 0.00539 0.02124
0.02868 0.02715 -0.01117
0.02021 0.07517 -0.02573
-0.05940 0.06373 -0.06776
-0.02386 0.01744 -0.03448
-0.04805 0.05730 -0.08855
0.05695 0.03808 -0.01419
0.00756 0.05241 -0.08201
0.02136 0.07734 -0.04110
0.00244 0.03999 -0.02796
-0.06577 0.02407 -0.03528
0.07834 0.05152 -0.01350
0.06696 0.02789 -0.01049
-0.06630 0.06101 -0.07015
0.03120 0.04590 -0.01952
-0.03711 0.04382 -0.10421
-0.06637 0.01962 -0.03148
-0.05295 0.04931 -0.07323
-0.01358 0.00625 -0.13405
-0.08566 -0.03198 -0.01029
0.01603 0.07134 -0.04558
0.09405 -0.01295 -0.00033
0.02981 0.08399 -0.03269
-0.07900 -0.01819 -0.00251
0.05479 0.00077 0.01926
-0.01147 0.02458 -0.02462
-0.00551 0.03161 -0.01675
-0.04056 0.02682 -0.03546
-0.02051 0.04327 -0.03390
-0.07244 -0.04339 0.02197
-0.04778 0.01946 -0.02309
-0.08304 0.05459 -0.04090
-0.08617 0.06615 -0.04596
-0.08296 0.04259 -0.03410
-0.00352 0.06405 -0.00866
0.06286 0.01691 0.01433
0.00362 0.05475 -0.09500
-0.02597 -0.00978 -0.00489
-0.02915 0.02098 -0.03096
0.01342 0.01625 -0.03735
0.06460 0.06149 -0.01693
0.01752 0.01589 0.00318
0.04294 0.07116 -0.03578
-0.07909 0.04463 -0.04188
-0.02970 -0.00731 -0.00750
0.00004 -0.03226 0.02172
-0.03886 0.03743 -0.03157
0.04048 0.05350 -0.02314
0.01140 -0.00219 0.01197
0.05680 -0.01879 0.04094
-0.00910 -0.04403 0.02232
0.06949 -0.02356 0.04860
0.01600 0.02706 -0.12989
0.05410 0.03247 -0.01338
-0.02030 0.01691 -0.02504
0.05653 -0.00536 0.02417
-0.07414 -0.01216 -0.00404
-0.04982 0.00114 -0.00670
0.04176 0.00994 0.01134
0.04201 0.02497 -0.00329
0.02047 0.12305 0.04179
-0.06464 0.02418 -0.03934
-0.03848 -0.01198 -0.00857
0.09019 -0.02798 0.05211
0.08587 0.00194 0.02614
0.05185 -0.12223 0.14343
-0.08496 -0.03664 0.00786
-0.08363 -0.08414 0.05741
-0.00837 -0.00092 -0.01191
-0.04214 0.11621 0.00973
0.05994 -0.01870 0.03906
0.00926 0.05371 -0.08572
-0.07110 0.17499 0.09454
0.05542 -0.03732 0.05882
-0.05493 0.03873 -0.04196
0.02633 0.05994 -0.07749
-0.04765 -0.00482 -0.02653
-0.09762 -0.00455 -0.01592
0.06751 0.05598 -0.01090
-0.07224 -0.00145 -0.01235
-0.07016 -0.01043 -0.00814
0.03329 0.04290 -0.02163
-0.08545 0.02047 -0.02870
-0.06650 -0.00769 -0.00777
-0.05326 0.01926 -0.01863
-0.10801 -0.04786 0.01234
-0.06980 -0.01197 -0.00931
0.04535 -0.00887 0.02240
-0.05850 0.01870 -0.02250
-0.08084 0.01823 -0.03159
-0.07028 0.03626 -0.02088
-0.01681 -0.02493 0.00409
-0.05662 0.03219 -0.04279
-0.00438 0.00118 0.00306
-0.06896 0.03232 -0.02233
-0.04737 -0.03724 0.00377
-0.00961 -0.01263 0.00081
-0.08112 0.00302 -0.01413
0.00225 0.15769 0.10110
-0.09724 -0.03078 0.00515
-0.07574 -0.03188 0.01293
-0.10873 -0.07776 0.05008
0.01604 0.08576 -0.04355
0.00022 0.03774 -0.02646
-0.08590 -0.07983 0.09226
-0.08431 -0.04500 0.01235
0.01342 0.02886 -0.07273
-0.08734 -0.03626 0.01145
-0.08409 -0.03806 0.00687
-0.08410 -0.02877 0.00771
0.01797 0.03789 -0.02666
-0.00600 -0.00893 0.06223
-0.05653 0.03036 -0.04142
0.00168 -0.02290 0.00745
0.08009 0.01337 0.02586
-0.07595 -0.02897 0.00877
0.08107 -0.02740 0.05426
-0.09237 -0.03412 0.00539
-0.03578 0.03729 -0.03706
0.02458 0.03733 -0.02641
-0.07479 0.04555 0.16434
-0.10284 -0.04489 0.00729
0.06663 -0.07080 0.08915
0.06744 -0.12175 0.15084
-0.07021 -0.03406 0.01461
0.09031 0.00212 0.02669
-0.08984 0.01532 -0.02822
-0.10012 -0.04756 0.01797
0.03707 -0.05716 0.11024
0.08231 -0.00399 0.02947
0.04776 -0.04032 0.08501
-0.04721 0.00453 0.04962
-0.06828 -0.01143 -0.00495
0.01666 -0.01328 -0.00527
0.08835 -0.01823 0.05139
0.07467 0.00865 0.02682
-0.06723 0.02857 -0.04149
-0.08230 -0.02876 -0.00010
0.07551 -0.02435 0.05376
0.07416 0.04587 -0.00284
0.00375 -0.01888 0.00939
-0.05959 -0.00915 -0.00549
0.09570 0.00414 0.02758
-0.00669 -0.03126 0.01390
-0.00774 0.03672 -0.02969
-0.06996 0.02490 -0.03792
-0.10037 -0.00388 -0.01988
0.09030 -0.00849 0.04181
0.09476 0.00270 0.03031
-0.08241 0.01693 -0.02530
0.03866 0.04452 -0.01886
-0.00423 0.03861 -0.03018
-0.06479 -0.00535 -0.00532
0.07724 0.00762 0.02614
0.06852 0.06049 -0.01295
-0.07277 0.04561 -0.04230
-0.00930 0.03717 -0.03188
-0.07086 0.04137 -0.04098
-0.08834 -0.02750 0.00913
-0.04781 -0.03389 0.00576
0.09546 -0.00947 0.04055
-0.08431 0.04066 -0.04324
-0.02524 -0.00812 -0.00612
-0.07874 -0.04525 0.01862
0.02897 0.02588 -0.00465
-0.00609 -0.03189 0.01737
0.05946 -0.12475 0.14379
0.07658 -0.06596 0.08789
0.03297 0.00105 0.01337
-0.04936 0.01805 -0.02081
-0.09121 -0.05476 0.02176
-0.05485 -0.01237 -0.00059
-0.07575 -0.00362 -0.01168
-0.00296 -0.00198 0.00193
-0.09509 -0.00922 -0.01349
0.09487 -0.01586 0.04379
-0.01899 -0.01888 0.00273
-0.00100 -0.01901 0.00708
-0.05156 0.01813 -0.01899
-0.07282 -0.01355 -0.00532
-0.05974 0.03030 -0.04352
0.06180 0.04747 -0.00404
0.06331 -0.08770 0.10910
-0.01682 0.03540 -0.03386
0.06055 0.06055 -0.02337
-0.03009 0.07161 -0.04961
-0.00571 0.03932 -0.03147
-0.02652 0.04005 -0.03297
-0.07854 0.03644 -0.04002
-0.00173 0.01437 -0.00971
0.02529 0.04733 -0.01199
-0.10154 -0.07879 0.04338
0.02081 0.01578 0.00422
-0.00286 0.00132 0.00734
0.02580 -0.00164 0.00765
0.01404 0.02452 -0.00591
-0.03137 0.07981 -0.04836
-0.05538 -0.00262 -0.00619
0.07697 -0.00928 0.03536
0.09966 0.05097 0.00696
0.06299 0.01473 0.01808
-0.08602 0.01853 -0.02942
-0.01990 0.06745 -0.05430
-0.06338 0.03986 -0.04001
-0.07752 0.02320 -0.03440
-0.04436 0.03189 -0.03749
-0.07427 -0.05748 0.04593
0.07534 0.05538 -0.02856
-0.00929 0.07074 -0.05520
-0.01891 0.07649 -0.04624
0.06059 0.06003 -0.01751
-0.07860 -0.01252 -0.00718
0.09444 0.03792 0.00718
0.06376 0.06761 -0.01529
-0.01250 0.08275 -0.05037
-0.09376 -0.07804 0.04611
0.05700 0.00786 0.01677
-0.01635 0.06287 -0.04673
-0.02945 0.07080 -0.05484
-0.07718 0.02569 -0.04470
0.09040 0.06067 0.01492
-0.08026 0.02189 -0.03227
-0.26006 0.28436 0.30663
0.02858 0.01939 -0.14255
-0.00561 -0.04465 0.02216
0.09210 -0.00584 0.03899
0.08342 0.01643 0.03117
-0.04431 0.06553 -0.07837
-0.06238 0.02896 -0.03970
0.07853 0.05516 -0.00516
-0.09299 -0.00037 -0.01924
0.07604 0.00878 0.02310
0.04844 -0.00460 0.02616
-0.06668 0.03359 -0.04308
0.06989 -0.08679 0.11086
0.04761 0.00695 0.01531
0.04399 0.04245 -0.11658
0.07746 0.03997 0.00278
0.07807 0.03806 -0.00025
-0.02050 0.07294 -0.04616
0.04982 -0.02843 0.05329
0.09686 0.03736 -0.00277
-0.08610 -0.00887 -0.00999
0.08076 0.05758 0.01784
-0.04341 -0.01231 -0.00586
-0.08645 0.02211 -0.03169
0.05818 0.00194 0.02102
0.08339 0.00846 0.01725
-0.08873 0.01977 -0.02889
0.03390 0.04225 -0.03345
0.02875 0.05791 0.00632
-0.02773 0.08011 -0.03709
-0.05787 0.02980 -0.04238
0.01370 0.04132 -0.00802
-0.00298 0.06312 -0.01489
0.05770 0.00955 0.00934
-0.08068 -0.05383 0.03935
-0.09800 -0.04158 0.01352
-0.00609 -0.04260 0.02560
-0.07223 -0.02357 0.00143
-0.06131 0.05032 -0.02258
0.07536 -0.02029 0.04647
0.04277 -0.00843 0.02416
-0.05015 -0.00559 -0.00118
0.04849 -0.00603 0.02836
-0.08651 0.01770 -0.02980
-0.10585 -0.02148 -0.02152
0.04748 0.01106 0.01190
-0.05802 0.03156 -0.04285
-0.04301 0.03340 -0.03955
-0.06930 0.04108 -0.04266
0.04477 -0.00684 0.01778
0.09248 -0.00411 0.03694
-0.08725 0.01554 -0.02437
-0.01749 0.07414 -0.05551
-0.01528 0.24906 0.21204
-0.03493 0.02062 -0.02704
-0.02041 0.04517 -0.10854
0.03297 -0.00621 0.01040
0.04853 -0.01166 0.03808
-0.00035 0.13049 0.00624
-0.01466 -0.00648 -0.00400
-0.09981 -0.02571 0.00459
-0.05325 0.06784 -0.06159
-0.00291 0.03242 -0.13595
-0.06424 -0.01855 0.00152
-0.01876 0.04701 -0.10896
-0.01750 0.04649 -0.10981
-0.02858 -0.01473 -0.00324
0.07841 0.06604 -0.00636
0.00305 -0.01047 0.00299
-0.09202 -0.01097 -0.01212
-0.05458 -0.01115 0.00014
-0.00737 0.00508 0.03613
-0.03149 0.06593 -0.02423
-0.04961 0.06225 -0.07275
-0.04842 -0.00013 -0.00926
0.05176 0.00656 0.02354
0.05016 0.03065 -0.00957
-0.00411 0.05367 -0.01996
-0.03859 0.02378 -0.03153
0.07333 0.04856 -0.00066
0.03149 0.02994 -0.01956
0.01793 0.02161 -0.01598
-0.08864 -0.03270 0.00756
-0.04646 0.02689 -0.03403
0.04632 0.03547 -0.01531
0.02562 0.03289 -0.02612
0.04294 0.02552 0.01319
-0.04373 0.06779 -0.04949
-0.05858 0.02911 -0.03589
0.00514 0.04281 -0.02928
-0.04611 0.05201 -0.04322
-0.02122 0.07569 -0.05134
0.03017 0.03978 -0.10770
0.05261 -0.02559 0.04496
0.08594 0.00012 0.02508
0.05242 -0.04617 0.06373
0.02763 -0.02899 0.02642
0.09102 -0.06957 0.09622
-0.06506 -0.00413 -0.00889
0.03287 0.02454 -0.02298
0.02898 0.04242 -0.02303
-0.08615 -0.08216 0.05339
-0.07798 -0.04904 0.02499
0.07977 -0.04932 0.07995
-0.02649 0.05279 -0.02518
-0.05766 0.01484 -0.01912
0.07037 0.03009 0.01088
0.07344 0.07937 -0.01799
0.01192 0.00001 0.00071
0.00582 0.03621 -0.02926
-0.03518 0.07898 -0.02926
0.01682 0.06689 -0.07671
-0.00703 0.00244 0.02241
-0.00639 0.07177 -0.06280
0.05513 0.04401 -0.00501
-0.00656 -0.04536 0.02977
0.09914 0.03931 -0.00172
0.08059 -0.00530 0.03515
-0.05617 -0.00461 -0.00460
0.08252 -0.03474 0.06672
-0.07868 0.00136 -0.01493
0.03571 0.00622 0.00684
0.06076 0.03612 -0.01109
0.09236 0.04000 0.00107
-0.40054 0.42258 0.63424
0.00127 0.03199 -0.03346
-0.04784 0.00476 -0.00654
-0.11136 -0.06294 0.03391
-0.11978 -0.08793 0.04670
-0.02430 0.03099 -0.03765
-0.09806 -0.10491 0.07841
-0.10844 -0.09432 0.06057
-0.03359 0.02771 -0.03205
-0.02394 0.03336 -0.00982
-0.04489 0.08383 0.05009
0.07947 0.06873 -0.00978
0.03409 0.00174 0.00986
0.11600 0.03627 0.02901
0.07376 0.01981 0.01505
0.04101 0.05488 -0.03413
-0.08493 0.01902 -0.02669
-0.01786 0.04740 -0.11369
-0.05325 0.00340 0.00375
-0.04613 0.04975 -0.03669
0.07309 0.04255 -0.00209
-0.09017 -0.08319 0.05149
0.04469 0.07675 -0.03044
-0.05157 -0.01644 0.00038
0.08218 0.06519 -0.01335
-0.03160 0.06826 -0.05812
0.06464 -0.06943 0.08901
-0.07656 0.01759 -0.02594
0.04551 -0.05807 0.07954
0.04549 -0.02888 0.04248
0.05600 -0.00360 0.02379
-0.04420 -0.03434 0.00717
-0.02301 -0.02439 0.00990
-0.00594 0.07567 -0.05148
0.09302 -0.00156 0.03665
0.03855 0.05592 -0.03214
0.08697 0.08521 -0.02547
-0.05675 0.01667 -0.02115
-0.09032 -0.01143 -0.00713
0.00949 -0.06480 0.03388
0.09306 0.03886 -0.00632
-0.05017 0.03495 -0.03557
-0.03710 -0.01420 -0.00983
0.08745 0.05691 -0.00296
-0.03128 0.07424 -0.03592
0.03789 0.04107 -0.01843
0.01464 -0.00069 0.00760
0.10166 0.03717 0.01640
0.07656 0.03651 0.00167
-0.05124 -0.00947 -0.00163
0.06079 0.04786 -0.01939
-0.05319 -0.00819 -0.00656
-0.00783 0.02730 -0.13195
-0.01810 0.01910 -0.01909
0.07533 0.02426 0.01634
-0.04895 0.04958 -0.03731
0.02803 -0.00779 0.01793
-0.10481 -0.09258 0.04911
-0.08031 -0.06187 0.04164
0.02512 -0.03007 0.02091
-0.03221 -0.00369 -0.00723
0.09507 -0.01893 0.05131
0.02624 0.02347 -0.00601
-0.03584 0.06251 -0.01972
-0.04620 0.05489 -0.04553
-0.03445 0.07509 -0.02920
-0.08111 0.01454 -0.02189
-0.06177 0.09493 0.00824
-0.04040 -0.00828 -0.00879
0.04131 -0.06247 0.11241
-0.07363 -0.01037 -0.00570
0.01606 0.07355 -0.05088
0.05386 -0.03691 0.05427
-0.00139 0.04058 -0.11772
-0.05421 0.05174 -0.04281
-0.02998 0.04121 -0.03707
-0.10925 -0.04751 0.01037
0.04253 -0.02851 0.05207
0.03541 0.05434 -0.00402
-0.04541 0.05763 -0.04551
-0.01153 -0.04845 0.03026
0.04899 -0.04118 0.06492
-0.05700 -0.04094 0.02597
0.03661 -0.02638 0.04970
-0.11047 -0.03028 -0.00122
-0.05909 -0.00721 -0.00301
-0.05291 0.01800 -0.02106
-0.02142 0.04353 -0.02263
-0.10742 -0.12145 0.09052
-0.10826 -0.10777 0.07503
-0.09383 -0.09366 0.06401
-0.06576 0.13599 0.04971
-0.04275 0.03415 -0.03343
0.01304 -0.00597 0.00662
0.04615 0.02857 -0.00221
0.07604 -0.04151 0.06695
-0.00883 -0.03926 0.02074
-0.04175 -0.02867 0.00548
-0.04571 -0.02745 0.00600
-0.09166 -0.03196 0.00306
-0.01066 -0.02125 0.00801
-0.00876 0.08038 -0.03914
0.01720 0.19189 0.14977
0.02355 -0.00681 0.00766
0.03965 -0.00399 0.01287
0.02674 -0.00568 0.01142
0.07621 0.00557 0.03079
0.07426 0.05020 -0.00498
-0.09542 0.01956 -0.03804
0.02655 0.05956 -0.07873
0.08401 0.08398 -0.02852
-0.06184 -0.00621 -0.00795
0.04154 -0.02159 0.05092
-0.10153 -0.04137 0.01333
0.01639 0.00746 0.00155
0.03943 -0.05861 0.10731
-0.03141 0.04095 -0.02937
0.07717 -0.07941 0.10440
0.02077 0.25591 0.54227
-0.00538 0.03064 -0.06888
0.02444 0.05154 -0.01487
-0.06494 0.01612 -0.02410
-0.00880 0.01221 0.02711
0.01992 0.01412 0.02475
-0.02168 0.03570 -0.03540
0.07577 0.04944 -0.01013
0.07449 0.06064 -0.00578
0.03952 -0.05059 0.09899
-0.11406 -0.04756 0.01218
0.05680 -0.11107 0.13475
-0.11524 -0.03739 -0.00096
0.08221 0.05001 -0.01565
0.05255 -0.02780 0.04901
0.03886 -0.02583 0.06020
-0.04565 0.03247 -0.04278
-0.08357 0.10101 -0.00700
0.08457 0.05221 -0.00005
-0.05075 0.02978 -0.02657
0.06896 0.06119 -0.01726
-0.03971 -0.03223 0.00843
-0.09300 -0.00095 -0.01519
-0.06425 -0.01370 -0.00402
-0.05645 -0.01075 -0.00014
0.09247 0.05945 0.00832
0.01854 0.01651 0.00216
0.03764 0.04196 -0.02126
0.03303 0.00238 0.01759
-0.02007 0.02053 -0.02323
0.08438 0.05763 -0.00136
-0.08217 0.00239 -0.01530
0.04904 0.00304 0.01652
0.06265 -0.08729 0.11645
-0.03058 0.03498 -0.03723
0.05280 -0.01848 0.03439
-0.10778 -0.08600 0.04352
-0.07176 -0.01862 -0.00172
0.00202 0.05783 -0.09904
-0.00384 0.09738 -0.04622
-0.03122 0.03092 -0.01411
0.00462 0.02588 -0.13509
-0.00897 0.09732 -0.04206
0.02999 0.02549 -0.13646
-0.06910 0.02340 -0.04052
-0.03459 0.08082 -0.03123
-0.04725 0.01311 -0.02365
-0.02705 0.08093 -0.04178
-0.08205 -0.03683 0.00656
0.01273 -0.01936 0.01560
-0.00618 0.10236 -0.04121
-0.02644 0.08228 -0.02076
-0.10299 -0.01457 -0.01330
-0.07650 -0.00784 -0.00908
-0.00346 0.12388 -0.01377
-0.01302 0.01594 -0.03366
0.03941 0.03527 -0.02372
0.03162 -0.00261 0.01349
0.02306 0.00309 0.00023
0.05317 -0.09522 0.12583
0.03504 0.01561 0.00395
0.01373 0.02109 -0.00573
-0.07907 -0.05014 0.03184
0.09059 0.04702 0.00127
0.06174 -0.07418 0.09182
0.05354 -0.03721 0.05995
0.04163 -0.05796 0.07965
0.04217 -0.00621 0.01531
0.08082 -0.02563 0.06264
0.05725 -0.00054 0.02399
0.08242 0.05643 -0.00960
-0.09074 0.07624 -0.05338
-0.05467 0.01854 -0.02469
-0.05162 0.06941 -0.05993
-0.09090 -0.07005 0.06955
-0.11285 -0.06142 0.03470
-0.04522 0.04572 -0.04067
0.04321 -0.02997 0.04183
0.05398 -0.02914 0.04718
0.02920 -0.02507 0.02384
0.05569 -0.02349 0.04412
-0.07019 -0.03182 0.00685
0.04572 0.00880 -0.02159
-0.04914 -0.02058 -0.00873
-0.05903 -0.01850 0.00090
0.03891 -0.00727 0.01428
0.08913 0.08163 -0.03718
0.03791 -0.03680 0.10313
0.10302 0.05848 0.00487
-0.01012 -0.03835 0.02582
-0.05704 -0.02470 0.00023
0.08600 0.04608 -0.00194
-0.08878 -0.00043 -0.01255
-0.08717 -0.04490 0.01221
-0.12133 -0.08348 0.04846
0.06994 0.04467 -0.00228
-0.02196 0.01973 -0.02122
-0.10078 -0.09193 0.06245
0.09400 0.01060 0.02677
0.05303 -0.00050 0.02156
-0.05434 0.00109 -0.00273
-0.04926 0.07216 -0.05536
0.06581 -0.04801 0.08037
0.03050 -0.03026 0.02753
0.06874 -0.07297 0.09323
0.07001 -0.01847 0.04087
-0.06488 -0.00873 -0.00790
-0.09281 -0.06098 0.03412
-0.07719 -0.04953 0.02689
-0.07427 -0.01709 -0.00412
0.07793 0.09105 -0.00027
-0.09207 -0.04384 0.01627
0.09851 0.03647 0.00021
-0.09851 -0.03725 0.00815
-0.01318 -0.01005 0.00063
0.03888 0.02617 -0.00464
-0.08404 -0.01444 0.00600
0.04090 -0.00696 0.02000
0.04127 -0.02562 0.06450
-0.06806 -0.01470 -0.00552
0.03763 0.00189 0.01636
-0.09143 -0.06364 0.02937
-0.01089 0.02115 -0.01747
0.00921 0.02197 -0.02017
-0.10680 -0.03151 -0.01265
-0.10560 -0.03063 0.00536
0.05187 -0.04864 0.07306
-0.09758 -0.01389 -0.01054
-0.00981 -0.00783 0.00705
-0.02225 -0.02558 0.00828
0.04184 -0.01504 0.03437
0.07654 -0.07529 0.10327
-0.06216 -0.00570 0.00128
0.03407 -0.02662 0.01758
-0.03598 0.01722 -0.02459
0.05419 -0.08945 0.12115
-0.00242 -0.04083 0.02119
0.02386 0.00226 -0.00225
-0.09159 0.04272 -0.04761
-0.08555 -0.03655 0.00107
0.05404 -0.01267 0.03107
0.08218 0.07103 -0.00134
-0.02378 -0.01048 -0.00282
-0.07964 0.06725 -0.06532
0.02332 -0.00683 0.01143
-0.04274 -0.01830 -0.00819
0.04392 -0.00287 0.02004
0.03042 -0.00026 0.00778
0.04830 0.00493 0.01841
0.03779 -0.00046 0.01048
0.06551 0.01347 0.02068
0.03990 0.00208 0.01111
-0.07897 0.01737 -0.02756
-0.07943 -0.03961 0.01000
-0.08500 -0.07713 0.05022
0.01872 0.04878 -0.03825
-0.09053 -0.03015 0.00587
-0.06807 -0.02042 -0.03585
0.04327 -0.03349 0.03025
-0.11224 -0.01271 -0.01039
-0.06824 -0.04128 0.02069
0.05651 -0.02481 0.04697
0.00058 -0.02037 0.01053
0.04407 -0.02099 0.05671
-0.05678 -0.01691 -0.00063
0.02254 -0.00467 0.00614
-0.05877 -0.01035 -0.00427
-0.05767 0.00252 -0.00873
-0.08906 0.00200 -0.01711
-0.09060 0.01801 -0.02848
0.04173 0.03067 0.00259
0.04971 -0.04430 0.07673
-0.08194 -0.09221 0.06281
-0.10416 -0.02063 -0.01666
-0.01549 0.02123 -0.02020
0.04200 -0.01247 0.03196
0.06199 -0.01873 0.03796
-0.04613 -0.02720 0.00078
-0.08519 -0.07285 0.04937
0.08149 -0.04167 0.06424
0.05041 -0.01776 0.03549
0.05726 0.00945 0.02358
0.03563 0.01342 0.00887
0.00232 -0.03189 0.01558
-0.01936 -0.03789 0.03350
-0.09332 -0.02724 0.01064
-0.02033 -0.02012 0.00435
-0.05648 -0.01580 -0.00296
0.05413 -0.00667 0.03217
0.02049 -0.00954 -0.00326
-0.02731 -0.01909 0.02706
0.06361 0.07409 -0.02311
0.01548 -0.00977 0.00148
-0.02316 0.03562 -0.03490
0.05758 -0.07626 0.10053
-0.08387 0.04849 -0.06893
-0.08234 -0.05335 0.03056
-0.08393 -0.01341 -0.00945
0.04650 0.04228 -0.02497
-0.08576 0.01502 -0.02240
0.03946 0.02536 0.00389
-0.00765 -0.00055 0.00162
0.09500 0.04220 0.00936
0.05092 0.03571 -0.01380
0.05731 -0.09094 0.11010
0.01685 0.02627 -0.02660
0.04137 0.03010 0.00011
-0.02541 0.02386 -0.03081
-0.11464 -0.03519 -0.00465
-0.01137 -0.04880 0.02661
0.04444 -0.00531 0.02374
-0.07707 0.02293 -0.03798
-0.03333 -0.01135 -0.00523
0.04549 0.03460 -0.00763
-0.06142 0.02640 -0.03178
-0.04786 0.02593 -0.03924
-0.09293 -0.01543 -0.02728
0.00956 0.02101 -0.14134
0.06265 -0.03752 0.05564
-0.08266 0.03606 -0.04183
-0.11521 -0.10297 0.06574
-0.07118 -0.02204 -0.00269
-0.08216 0.04296 -0.04184
0.02305 0.00413 0.00569
-0.08329 0.04746 -0.04284
-0.10800 -0.09220 0.05410
-0.04551 -0.03773 0.01360
0.03824 -0.06181 0.10658
-0.09229 -0.05213 0.00567
-0.02186 -0.02623 0.00607
0.00171 0.03551 -0.03457
0.06956 -0.00682 0.03337
-0.03148 0.09689 -0.05451
-0.09628 -0.09257 0.06294
0.03786 -0.00557 0.01413
-0.01336 0.03905 -0.04285
0.07009 -0.01484 0.03532
-0.02041 0.01982 -0.00979
-0.03489 0.02094 -0.02712
0.05694 0.02959 -0.00695
0.06180 -0.10117 0.13839
0.07248 0.01448 0.02155
-0.01265 -0.02531 0.01000
-0.00927 -0.02495 0.01188
-0.07613 0.06515 -0.04975
0.09377 0.05034 -0.00476
0.00688 -0.01830 0.01576
-0.07913 -0.00610 -0.01170
-0.07271 -0.04314 0.00917
-0.06584 -0.04209 0.01575
0.05669 -0.03805 0.06529
-0.07553 0.01259 -0.01934
0.00130 -0.02112 0.01016
-0.04790 -0.01927 -0.01097
0.08375 0.00449 0.02802
-0.09133 0.01542 -0.03997
0.03290 -0.00998 0.01537
0.04799 -0.06464 0.08548
0.08514 0.05790 -0.00648
0.04534 -0.04427 0.05894
-0.08881 0.05653 -0.04403
-0.01314 -0.02422 -0.00495
-0.04701 -0.02326 -0.00634
0.02841 0.02164 -0.13421
-0.10800 -0.02474 -0.00605
0.04145 0.02853 0.00212
-0.09422 -0.06172 0.02785
-0.06771 -0.02095 -0.00733
0.06816 -0.07955 0.09499
0.03067 -0.02040 0.02168
-0.05206 0.01585 -0.02332
-0.00862 -0.01650 0.06781
-0.01545 0.01814 0.00096
0.05380 0.00472 0.01464
-0.07229 -0.03534 0.01908
0.03778 0.00806 0.01415
0.11588 -0.07587 -0.02334
0.02830 -0.08576 0.10515
0.01855 -0.05313 0.07632
-0.03335 -0.02992 0.02672
0.08510 -0.06344 0.10492
-0.09092 -0.02224 -0.00247
-0.02480 -0.01944 -0.00299
-0.10020 -0.01379 0.00717
-0.06509 -0.02595 0.00600
-0.00526 0.00808 0.16554
-0.05840 -0.01968 0.00708
-0.04828 0.01866 -0.01786
0.04940 -0.08492 0.11542
0.01969 0.02654 -0.01112
0.01063 0.03699 -0.01862
-0.02056 -0.02403 0.00918
-0.00235 0.09836 -0.04424
-0.11189 -0.05219 0.01702
-0.07528 -0.04768 0.02156
-0.05330 -0.00006 -0.00602
-0.02356 0.04498 -0.09838
-0.04776 -0.03718 0.00939
0.06440 0.01503 0.01022
0.06986 0.05672 -0.02329
-0.06210 0.09049 -0.05479
0.05752 -0.12965 0.15372
-0.11263 -0.09407 0.05720
-0.09636 0.00365 -0.01565
0.03207 0.09030 -0.07698
-0.08509 -0.04279 0.00934
0.05889 -0.02499 0.04183
0.07828 -0.03854 0.08028
0.00152 0.00666 0.00598
0.07891 0.06831 -0.00854
-0.02682 0.06464 -0.05670
-0.08234 -0.06035 0.03688
-0.02733 -0.00911 0.00815
-0.05256 0.01875 -0.03014
0.06584 0.00893 0.03231
-0.09794 -0.07562 0.05760
-0.11082 -0.08354 0.06617
-0.09460 -0.04834 0.01468
-0.10327 -0.12897 0.11227
-0.08623 -0.04578 0.01328
-0.10029 -0.02783 0.00751
-0.04605 -0.00942 -0.00492
-0.09748 -0.02306 -0.00596
0.03589 0.02584 -0.00826
0.09828 0.04501 0.00554
0.02991 0.02746 -0.01732
0.03896 0.02850 -0.00760
0.03368 -0.00709 0.01390
0.03965 0.01151 0.01330
0.01073 0.02340 -0.00988
-0.01004 -0.02668 0.01648
-0.01562 -0.02327 0.00628
0.08182 -0.00787 0.03893
-0.07863 -0.02888 0.01070
-0.11316 -0.10411 0.06875
-0.10425 -0.07405 0.04883
0.07168 -0.02214 0.04681
-0.07158 0.07466 -0.06426
-0.11451 -0.10854 0.06445
0.01976 0.04057 -0.02081
-0.11041 -0.12890 0.09369
0.05686 -0.10882 0.13718
-0.07991 0.07492 -0.05891
-0.03452 0.09705 -0.04481
0.01544 0.03680 -0.11408
-0.07631 0.07451 -0.05938
0.04943 0.05323 -0.09471
0.08404 0.16230 0.04276
-0.00260 0.06857 -0.08565
0.09547 0.05558 0.00556
-0.08353 -0.06952 0.05632
0.07116 0.08046 -0.01750
0.04501 -0.01031 0.03546
0.00115 0.11026 0.00173
0.06388 -0.10630 0.13137
-0.10280 -0.02999 -0.03883
-0.08806 -0.07607 0.05801
-0.10818 -0.12082 0.09371
0.00787 0.02287 -0.01470
0.01084 0.01776 -0.11752
-0.05614 0.01929 -0.01814
0.02203 0.00294 0.01179
-0.09640 -0.08145 0.05923
-0.10032 -0.02418 -0.01048
-0.00715 -0.02560 0.01004
0.04341 -0.03760 0.05995
-0.11659 -0.05839 0.02305
0.07875 -0.02021 0.06516
0.07088 -0.06608 0.08815
-0.09219 0.03258 -0.04005
0.04013 0.00850 0.00646
0.05651 -0.01347 0.03436
-0.10739 -0.03204 0.00245
0.03470 -0.00211 0.01271
-0.03390 -0.00864 -0.00588
0.06979 0.07028 -0.02660
-0.02012 -0.02457 0.00969
-0.04413 -0.03852 0.00124
-0.05673 0.02021 -0.03020
-0.08778 -0.05245 0.03165
-0.03551 0.02211 0.01245
0.05959 -0.09366 0.12225
0.03682 0.01145 0.00445
0.03364 -0.00280 0.00940
-0.08047 -0.00092 -0.01142
-0.03867 0.01859 0.01994
-0.00045 0.06070 -0.00424
0.03244 -0.00736 0.01628
-0.07834 -0.00350 -0.01269
-0.02475 0.02307 -0.08733
0.07544 -0.01388 0.04021
-0.37912 0.50383 0.62597
0.06262 -0.06538 0.08346
-0.33301 0.31357 0.71695
0.00079 0.06638 -0.00647
0.01327 -0.00626 0.00380
-0.07950 0.02517 -0.04138
-0.43489 0.47327 0.72202
0.07930 0.03627 -0.00244
0.07353 0.05182 -0.00805
-0.08398 -0.09665 0.07546
0.06827 0.05173 -0.00738
0.07242 0.06888 -0.01043
-0.01482 0.03640 0.05466
0.03712 0.04541 -0.02576
-0.04502 0.05915 -0.08018
-0.08549 0.01582 -0.02537
0.00835 -0.02076 0.01228
0.01013 0.05679 0.10445
0.03827 0.02758 -0.01158
-0.10189 -0.05766 0.01796
-0.00225 0.03473 -0.12616
-0.07882 -0.08206 0.05151
-0.00192 -0.03516 0.00186
-0.01653 -0.00483 -0.00231
0.05703 0.01592 -0.15034
-0.03765 -0.02974 0.05567
-0.10740 -0.04722 0.01933
-0.07695 0.05054 -0.04217
-0.07811 0.02056 -0.02824
-0.05305 0.04156 -0.03392
0.08008 0.03569 -0.00247
0.07327 0.06791 -0.01261
-0.09540 -0.06128 0.03834
0.09256 0.01210 0.02567
0.07898 -0.05515 0.08576
0.06601 0.04790 -0.01535
0.06605 0.04932 -0.01455
0.03892 0.03604 -0.04382
-0.04272 0.03118 -0.03852
0.00202 -0.01501 0.00608
-0.08279 0.06446 -0.05770
-0.03640 0.06229 -0.01001
0.02777 0.02788 -0.01347
-0.00090 0.06550 -0.00842
-0.05136 0.03180 -0.03969
0.08057 0.03605 -0.00688
0.06528 0.06776 -0.00870
0.11235 -0.00738 0.05567
-0.05289 0.03662 -0.04169
-0.07542 0.02543 -0.04205
0.07386 -0.03489 0.06341
-0.07628 -0.01320 -0.00470
0.07522 0.04154 -0.00699
-0.04559 0.04333 -0.03721
-0.05091 0.06278 -0.04635
0.05870 0.05169 -0.01763
-0.05499 -0.02067 -0.00090
-0.04219 0.05911 -0.04817
-0.07829 0.05469 -0.04165
-0.05089 0.03358 -0.04149
-0.07722 -0.03079 0.00670
0.05851 0.01473 0.01635
-0.05751 -0.01997 -0.00092
0.10054 0.00052 0.04693
-0.02958 0.03387 -0.03269
-0.08662 0.03435 -0.05251
0.06454 0.05665 -0.01163
0.05200 0.02995 0.00290
0.04410 0.00212 0.01545
-0.03356 0.06631 -0.01920
-0.09684 -0.09757 0.06662
-0.02154 0.03560 -0.02327
-0.10614 -0.01956 -0.00737
0.07670 -0.04861 0.07944
0.08111 -0.08511 0.11227
0.07517 0.04777 -0.00084
0.06140 0.04647 -0.01422
0.07320 0.06373 -0.02461
-0.04288 0.05712 -0.04823
-0.05116 0.06253 -0.05029
-0.10462 -0.01305 -0.01507
-0.10464 -0.01242 -0.01827
0.04827 0.04803 -0.00953
0.06796 0.04650 -0.02330
0.03104 0.04432 -0.02132
0.06315 -0.01577 0.03694
0.09533 0.04740 0.00100
-0.09762 -0.01631 -0.01296
-0.08465 0.05348 -0.05060
0.07410 0.00351 0.02753
0.04485 0.06991 -0.02998
0.03919 0.03739 -0.01781
0.06034 0.00572 0.02151
0.06055 -0.05035 0.09732
0.03356 0.05717 0.00680
-0.07846 -0.00068 -0.01214
0.07212 0.04602 -0.00181
0.03589 0.04060 -0.02034
-0.08147 0.02488 -0.02718
0.05033 0.02806 0.00203
-0.03645 -0.03696 0.01502
0.02822 0.04177 -0.01343
-0.02186 0.04048 -0.03648
0.04600 0.04886 -0.02146
-0.08309 0.06257 -0.05722
0.02707 0.02408 -0.00687
0.03860 0.03971 -0.02094
-0.00880 -0.05493 0.03218
-0.01587 -0.01036 0.00073
-0.05448 0.03590 -0.04810
0.04533 0.06656 -0.02744
-0.07693 -0.00641 -0.00929
0.05598 -0.04654 0.07046
-0.03247 -0.00793 -0.00561
-0.00954 0.02096 -0.02074
0.08896 0.00602 0.02431
0.07666 0.01364 0.02288
-0.07900 0.03619 -0.04024
-0.07594 0.06524 -0.04624
-0.05572 0.00486 -0.01112
-0.09303 -0.09059 0.05980
-0.08285 0.05255 -0.04512
-0.07601 -0.02429 0.00486
-0.08963 0.01764 -0.02684
-0.01882 0.03463 -0.03202
0.06711 -0.02502 0.05248
0.07125 0.01808 0.01866
0.09058 -0.01267 0.04345
-0.08271 -0.07907 0.06640
-0.09094 -0.04057 0.01391
0.03771 0.03902 -0.02036
-0.00779 0.03874 -0.03070
0.04128 0.04409 -0.02038
0.04571 0.04237 -0.02044
-0.01414 -0.05146 0.02470
-0.01161 0.04041 -0.03457
0.05836 -0.10648 0.14002
0.08889 -0.07344 0.10558
0.04225 0.05284 -0.01825
-0.00343 0.03010 -0.03167
0.04096 0.06686 -0.03507
0.00404 0.04099 -0.02976
-0.02008 0.03789 -0.03524
0.06652 0.03499 0.00635
0.00510 0.02238 -0.14004
-0.03577 0.04211 -0.04029
0.04364 0.04308 -0.00869
0.06331 0.06914 -0.04193
-0.02389 -0.00597 -0.00970
-0.08302 0.06089 -0.04769
0.03401 -0.02844 0.06835
0.06771 0.03288 -0.01690
0.06379 0.07228 -0.02467
0.07913 -0.00253 0.02742
0.02058 -0.00248 0.00580
-0.10312 -0.00728 -0.01794
0.07539 -0.00111 0.02628
0.03416 0.00038 0.00962
0.09153 0.04002 -0.01505
-0.08717 0.01782 -0.02157
0.08503 0.03900 0.01323
0.06593 0.06296 -0.01381
0.03070 -0.00039 0.00040
0.02984 0.02121 -0.12886
-0.07748 0.06446 -0.05345
0.05295 -0.07070 0.08326
0.01915 0.06725 -0.06343
0.01347 0.01136 -0.00254
-0.10219 -0.00920 -0.01756
0.00796 0.10741 0.01788
-0.08245 -0.08212 0.06517
0.03899 -0.05538 0.10546
0.03991 0.00229 0.02082
-0.10243 -0.06072 0.02694
0.06218 0.06369 -0.04836
-0.00582 -0.02854 0.01789
0.06824 -0.02511 0.05059
0.03606 0.02702 -0.00569
0.07819 -0.09811 0.13667
0.06593 -0.07830 0.09570
0.04441 -0.03559 0.06661
0.05404 -0.04270 0.06240
0.09879 -0.01739 0.06243
0.08278 -0.02276 0.05286
-0.00528 0.03578 -0.02956
-0.11111 -0.01871 -0.01089
0.06543 0.06277 -0.06222
0.08458 -0.07300 0.09970
0.04007 0.02881 -0.00108
0.09603 0.01179 0.02512
-0.00429 -0.04611 0.02765
0.09422 0.03964 -0.00115
-0.00276 0.01870 -0.05330
0.02438 0.02257 -0.02366
-0.08751 0.05123 -0.04704
0.07805 0.01390 0.02232
0.07799 0.01655 0.02359
-0.01288 -0.02719 0.01203
-0.04729 0.04535 -0.03798
0.05183 -0.02831 0.04108
0.04176 -0.00720 0.07099
0.07922 0.00318 0.02822
0.07825 0.00380 0.02597
0.03322 0.07461 -0.04486
0.04288 -0.01239 0.02488
0.07216 0.03047 0.00978
-0.07504 0.02224 -0.03455
0.04390 -0.07060 0.12726
-0.04352 0.05808 -0.05722
0.06042 0.06992 -0.03959
0.01298 -0.00855 -0.02022
-0.02790 0.07910 -0.03518
-0.09175 -0.06484 0.03694
0.04023 0.03995 -0.01908
0.08132 0.06738 -0.01443
0.01439 0.02870 -0.13670
-0.06958 -0.03487 0.01795
-0.07959 -0.07235 0.07206
-0.01207 -0.02033 0.00928
0.06532 -0.05513 0.08141
0.08005 -0.03749 0.07392
-0.10560 -0.02241 -0.00568
0.09117 -0.00439 0.00757
-0.07982 -0.00413 -0.01405
-0.01210 0.05679 0.03809
0.03550 0.02681 -0.13451
0.03419 0.04015 -0.02146
-0.07939 -0.02250 -0.00626
0.05990 -0.03547 0.05664
0.02409 0.02485 -0.01059
0.01098 0.02507 -0.01384
0.07887 0.03559 0.00817
0.03559 -0.05155 0.09119
0.08455 0.03967 0.00054
-0.01058 -0.05489 0.03537
-0.00043 -0.00148 -0.12002
-0.02742 0.03386 -0.03467
0.04006 0.06819 -0.03183
-0.00824 0.07129 -0.05949
0.08403 -0.00413 0.02430
0.02087 0.01179 0.01331
0.07915 0.07187 -0.00942
-0.08155 -0.08853 0.06764
-0.01110 -0.02066 -0.00109
-0.06633 -0.01610 -0.00277
-0.03992 0.01918 -0.02792
0.00341 0.04228 0.04689
0.05863 0.03087 0.01504
0.07126 0.06742 -0.01007
0.00938 0.07740 0.00605
0.02597 0.02352 -0.12758
0.02863 0.05807 -0.06928
-0.00409 0.09430 -0.02112
0.02891 -0.00726 0.01064
0.05778 -0.00057 0.02164
-0.01330 -0.05060 0.00631
-0.09557 0.03015 -0.03640
0.06895 0.05467 -0.01001
0.05950 -0.11403 0.13049
0.05142 -0.03107 0.04301
-0.00001 -0.01459 0.00413
0.04058 -0.01972 0.03067
-0.08244 0.07064 -0.05601
-0.03205 0.08263 -0.03102
0.05591 0.03763 -0.12090
0.03032 0.07537 -0.04577
-0.00886 -0.05613 0.03420
0.06373 -0.03221 0.05116
-0.11172 -0.01587 -0.00965
0.03028 0.03293 -0.02035
-0.11412 -0.06593 0.03911
-0.08645 -0.04070 0.01772
-0.04828 0.05088 -0.04260
0.04010 0.05903 -0.02293
-0.11882 -0.05130 0.01672
-0.09641 -0.04579 0.00376
0.03659 -0.00892 0.01774
-0.10369 -0.01644 -0.00726
0.02651 0.01476 -0.12123
0.04284 -0.05208 0.09861
0.09625 0.00000 0.03383
0.07363 0.01539 0.02156
-0.00725 0.02602 -0.14752
0.06501 0.06558 -0.03485
0.08420 0.04160 -0.00263
-0.01016 -0.01809 -0.19472
0.03935 0.02769 -0.13483
0.01699 0.03710 -0.02490
0.07758 0.05918 -0.00751
0.04146 -0.06765 0.12074
-0.10120 -0.07203 0.04908
0.09597 -0.00556 0.05528
0.07205 0.05501 -0.00435
-0.09643 -0.06117 0.02524
