# .PCD v.7 - Point Cloud Data file format
VERSION .7
FIELDS x y z
SIZE 4 4 4
TYPE F F F
COUNT 1 1 1
WIDTH 1875
HEIGHT 1
VIEWPOINT 0 0 0 1 0 0 0
POINTS 1875
DATA ascii
-0.00798 -0.05849 0.08010
0.03845 -0.07480 0.08295
0.03845 -0.07478 0.08287
-0.00025 -0.07121 0.08306
-0.00025 -0.07120 0.08305
-0.02043 -0.06688 0.08250
-0.01704 -0.07953 0.08544
0.02278 -0.08294 0.08528
0.02265 -0.08276 0.08493
0.04032 -0.06663 0.08095
-0.00340 -0.07434 0.08386
-0.00223 -0.06641 0.08196
-0.00223 -0.06642 0.08196
-0.02244 -0.06654 0.08256
-0.02237 -0.06633 0.08223
-0.03605 -0.06344 0.08207
-0.03606 -0.06331 0.08201
0.04356 -0.07479 0.08284
-0.01983 -0.08306 0.08633
0.00730 -0.06625 0.08166
-0.00960 -0.07482 0.08408
0.02605 -0.05470 0.07847
0.00647 -0.07497 0.08379
0.01060 -0.06499 0.08125
0.01057 -0.06496 0.08119
0.05966 -0.06658 0.08076
0.02577 -0.05667 0.07890
0.03088 -0.07089 0.08210
0.03096 -0.07093 0.08220
0.00911 -0.07238 0.08428
0.02206 -0.05794 0.07924
-0.01022 -0.08143 0.08572
-0.03558 -0.06662 0.08278
-0.03558 -0.06662 0.08278
-0.02993 -0.05862 0.08071
-0.02808 -0.07958 0.08570
-0.02809 -0.07958 0.08569
0.03583 -0.05663 0.07874
0.04576 -0.07478 0.08284
0.04577 -0.07480 0.08287
-0.02467 -0.08776 0.08748
0.03912 -0.07895 0.08380
0.03296 -0.06276 0.08018
-0.04468 -0.06668 0.08310
0.03220 -0.05675 0.07893
-0.03364 -0.07511 0.08476
-0.00356 -0.07116 0.08311
-0.02245 -0.08766 0.08749
-0.02245 -0.08765 0.08748
0.01267 -0.05673 0.07920
0.01267 -0.05673 0.07920
-0.01470 -0.07320 0.08377
-0.01016 -0.08270 0.08602
0.00205 -0.08263 0.08595
-0.03812 -0.05858 0.08092
-0.03088 -0.08314 0.08663
0.04679 -0.08285 0.08478
0.00113 -0.06505 0.08151
0.00982 -0.07103 0.08275
-0.01735 -0.05693 0.08019
-0.05599 -0.07163 0.08456
0.02815 -0.08116 0.08495
-0.02438 -0.06512 0.08214
-0.00807 -0.07109 0.08316
-0.05561 -0.06346 0.08262
-0.04077 -0.07517 0.08506
-0.02989 -0.05689 0.08035
-0.02326 -0.05873 0.08062
-0.00876 0.00736 -0.00377
-0.02576 -0.08317 0.08649
-0.02827 -0.05485 0.07981
0.01919 -0.07510 0.08356
0.00834 -0.07306 0.08322
-0.02851 -0.05888 0.08074
0.01696 -0.08929 0.08701
-0.00711 -0.06509 0.08167
-0.00711 -0.06509 0.08167
0.01275 -0.05875 0.07974
-0.03089 -0.07341 0.08431
-0.00821 -0.07514 0.08409
-0.00821 -0.07514 0.08409
0.02887 -0.05666 0.07921
-0.01059 -0.08947 0.08756
-0.05291 -0.06703 0.08338
0.03898 -0.08100 0.08435
0.05639 -0.07480 0.08271
-0.02571 -0.08140 0.08605
0.05213 -0.07882 0.08345
0.02585 -0.05872 0.07944
0.02428 -0.08928 0.08691
0.05418 -0.08280 0.08464
-0.04481 -0.07968 0.08614
0.02097 -0.08311 0.08515
-0.04735 -0.07522 0.08519
-0.04254 -0.07963 0.08605
-0.04254 -0.07962 0.08605
-0.01104 -0.08081 0.08546
-0.00312 -0.05655 0.07936
0.00515 -0.07298 0.08334
0.00515 -0.07281 0.08322
-0.00337 -0.08748 0.08695
-0.00338 -0.08746 0.08694
-0.00882 0.00957 -0.00359
-0.02151 -0.07280 0.08381
-0.05067 -0.06692 0.08332
-0.00516 -0.05735 0.07987
-0.01326 -0.08135 0.08570
-0.01326 -0.08135 0.08570
-0.02364 -0.06426 0.08204
-0.00871 0.00815 -0.00540
-0.01095 -0.05672 0.07983
-0.04905 -0.06323 0.08236
-0.00315 -0.08328 0.08599
-0.00434 0.02080 -0.00849
-0.03809 -0.06528 0.08249
0.02220 -0.07507 0.08344
0.02220 -0.07505 0.08338
-0.01237 -0.09144 0.08806
0.05541 -0.08094 0.08416
0.05543 -0.08097 0.08420
-0.00950 0.00713 -0.00422
0.04115 -0.07310 0.08245
-0.03854 -0.07533 0.08493
-0.00545 -0.08118 0.08565
0.01375 -0.08903 0.08641
0.03910 -0.08306 0.08488
0.03909 -0.08306 0.08490
-0.00012 -0.08324 0.08586
-0.00010 -0.08325 0.08587
0.05545 -0.08297 0.08457
0.05546 -0.08299 0.08460
0.05694 -0.06527 0.08040
-0.00365 0.00319 -0.01383
-0.01027 0.02830 -0.01066
-0.00076 0.00898 -0.01382
-0.04215 -0.06519 0.08261
0.02494 -0.05815 0.07925
0.02901 -0.08120 0.08570
-0.01417 -0.07269 0.08398
0.01197 -0.05606 0.07921
0.00539 -0.09138 0.08764
-0.03936 -0.07296 0.08429
-0.02041 -0.07204 0.08347
-0.04934 -0.06725 0.08329
-0.04935 -0.06723 0.08324
-0.03549 -0.05820 0.08082
-0.00785 -0.06446 0.08151
-0.04331 -0.06488 0.08265
-0.05460 -0.07536 0.08529
-0.05461 -0.07537 0.08528
-0.04659 -0.07260 0.08466
-0.00810 0.00182 -0.00691
-0.00080 -0.07180 0.08313
0.01263 -0.07431 0.08349
-0.01420 -0.07389 0.08403
-0.03989 -0.08123 0.08649
0.01454 -0.06437 0.08122
-0.05105 -0.07961 0.08636
-0.05106 -0.07959 0.08635
0.01607 -0.06542 0.08108
-0.00925 -0.08332 0.08900
0.05564 -0.07297 0.08202
-0.04552 0.04516 -0.06503
0.02027 -0.08276 0.08552
-0.01761 -0.08199 0.08596
-0.00623 -0.00063 -0.00595
-0.05610 0.04384 -0.06027
-0.04914 -0.08339 0.08706
-0.03305 -0.07286 0.08437
0.05559 -0.07364 0.08248
-0.05480 -0.08107 0.08687
0.03121 -0.05794 0.07952
-0.04200 -0.08185 0.08643
-0.04446 -0.06398 0.08225
-0.00678 0.01160 -0.00724
0.01753 -0.06391 0.08021
0.01764 -0.06399 0.08046
-0.01932 -0.08070 0.08575
-0.01257 -0.07254 0.08371
-0.05351 -0.08203 0.08684
-0.03137 -0.07404 0.08437
-0.00333 -0.00168 -0.01142
-0.03299 -0.07422 0.08463
0.00444 -0.09078 0.08755
0.01442 -0.07218 0.08298
0.02341 -0.08051 0.08477
0.01604 -0.06437 0.08099
-0.01605 -0.05564 0.07972
-0.03145 -0.07268 0.08409
-0.03051 -0.05524 0.08001
0.02193 -0.06428 0.08055
-0.00188 0.02870 -0.01313
-0.00483 -0.08112 0.08550
-0.00561 0.01381 -0.00871
0.00615 -0.05680 0.07870
0.04123 -0.08155 0.08383
-0.01064 -0.08024 0.08571
-0.00515 0.01701 -0.00827
0.05037 -0.06384 0.07999
0.01872 -0.08306 0.14074
-0.05356 -0.06603 0.08315
-0.01978 -0.06506 0.08213
-0.00473 0.01946 -0.00933
0.03353 -0.05499 0.07803
-0.01421 -0.07166 0.08354
0.03507 -0.05490 0.07807
-0.04851 0.04247 -0.06301
0.02547 -0.09136 0.08730
0.04818 -0.07290 0.08188
-0.00665 -0.00099 -0.00578
0.03063 -0.06315 0.08019
-0.01845 -0.08024 0.08580
-0.01844 -0.08014 0.08563
0.03675 -0.06623 0.08088
-0.05500 -0.06598 0.08314
-0.01795 -0.05527 0.07964
0.05479 -0.06491 0.08032
-0.00750 0.00758 -0.00807
0.04950 -0.07306 0.08257
-0.03463 -0.07449 0.08498
0.01109 -0.06369 0.08081
0.03903 -0.07461 0.08321
-0.01027 -0.07151 0.08305
0.04914 -0.06480 0.08045
0.02015 -0.07133 0.08260
0.04003 -0.07125 0.08200
-0.02495 -0.06657 0.08254
0.01891 -0.08255 0.08535
0.02737 -0.07948 0.08428
-0.00368 0.00124 -0.01363
0.00691 0.02680 -0.01161
-0.03225 -0.07464 0.08450
-0.03159 -0.06356 0.08193
0.02282 -0.06644 0.08115
-0.00326 -0.00077 -0.01124
-0.00619 -0.08781 0.08691
-0.01150 -0.05705 0.07996
-0.02202 -0.05671 0.08034
-0.02297 -0.08786 0.08749
-0.04087 -0.06375 0.08241
0.02239 -0.08922 0.08669
0.02239 -0.08922 0.08670
0.02278 -0.05514 0.07835
0.04855 -0.07172 0.08197
-0.03183 -0.06657 0.08238
-0.01218 -0.07964 0.08507
0.01074 -0.05498 0.07871
-0.01909 -0.07170 0.08350
0.05282 -0.07133 0.08194
0.02033 -0.08805 0.08714
0.01622 -0.08772 0.08640
-0.00159 0.02029 -0.01122
0.04622 -0.07954 0.08411
0.01151 -0.06605 0.08159
0.00659 -0.08775 0.08677
0.01487 -0.08757 0.08571
0.04868 -0.07984 0.08372
0.04868 -0.07984 0.08372
-0.05484 0.03796 -0.04630
-0.04009 -0.07510 0.08524
0.04843 -0.06336 0.07992
-0.02125 -0.06631 0.08271
-0.03605 -0.07490 0.08458
0.02011 -0.07948 0.08454
-0.00500 0.01789 -0.00850
0.04267 -0.07145 0.08236
-0.02372 -0.05494 0.07984
0.00371 -0.09088 0.08909
0.01087 -0.05839 0.07977
0.05868 -0.06297 0.07970
0.03575 -0.05838 0.07899
0.02883 -0.08215 0.08500
-0.05718 -0.06530 0.08313
0.01982 -0.06627 0.08132
0.01903 -0.06437 0.08098
0.00235 -0.09146 0.08787
0.00537 -0.09137 0.08762
0.06475 -0.08730 0.08543
0.06464 -0.08716 0.08503
-0.05543 0.04526 -0.05999
0.02855 -0.07120 0.08199
-0.00506 -0.06092 0.03096
0.05581 -0.07267 0.08024
0.01212 -0.06298 0.08058
0.01392 -0.06321 0.08085
0.00111 -0.07926 0.08489
0.03347 -0.05863 0.07911
0.03347 -0.05664 0.07867
0.03343 -0.05661 0.07857
-0.02856 -0.05686 0.08025
-0.02140 -0.05497 0.07975
-0.01955 -0.05879 0.08050
-0.01958 -0.05884 0.08063
-0.02852 -0.05890 0.08078
-0.03453 -0.05886 0.08089
0.02577 -0.05668 0.07893
-0.03805 -0.05849 0.08070
0.02691 -0.07127 0.08240
0.03718 -0.06290 0.08010
0.03717 -0.06289 0.08006
0.00054 0.01472 -0.01431
-0.00716 -0.06700 0.08209
-0.01984 -0.08305 0.08629
0.00379 -0.08760 0.08678
-0.04471 -0.06661 0.08299
-0.02824 -0.05484 0.07978
0.05311 -0.06649 0.08093
-0.01075 -0.08762 0.08717
-0.01076 -0.08763 0.08717
-0.03094 -0.07962 0.08575
-0.03094 -0.07961 0.08574
-0.01132 -0.05784 0.08012
-0.04526 -0.07454 0.08458
-0.04481 -0.07973 0.08620
0.00957 -0.07310 0.08331
-0.04482 -0.08323 0.08700
-0.04941 -0.06532 0.08280
-0.00267 0.05189 -0.03071
-0.02802 -0.08318 0.08663
-0.05561 -0.06705 0.08348
-0.03076 -0.07509 0.08467
0.02566 -0.08291 0.08527
-0.04520 -0.07177 0.08414
0.00985 -0.07102 0.08272
0.05651 -0.06306 0.08022
0.02108 -0.08318 0.08541
0.04672 -0.07926 0.08394
0.05474 -0.06275 0.07992
0.00605 -0.06413 0.08129
-0.04957 -0.07474 0.08567
0.03069 -0.07487 0.08296
0.00302 -0.08311 0.08565
0.00853 -0.08930 0.08708
0.00853 -0.08923 0.08698
-0.05399 -0.08165 0.08694
-0.05535 -0.07960 0.08642
-0.03783 -0.06305 0.08182
0.02891 -0.05633 0.07868
0.05108 -0.06549 0.08064
-0.01979 -0.05492 0.07945
-0.04919 -0.08353 0.08733
0.03534 -0.08258 0.08572
-0.02308 -0.06502 0.08219
-0.00155 -0.09135 0.08774
-0.02942 -0.05855 0.08101
-0.03940 -0.08320 0.08679
-0.03940 -0.08325 0.08680
0.02226 -0.08718 0.08613
0.01215 -0.05771 0.07943
-0.03251 -0.08345 0.08671
-0.05089 -0.08265 0.08707
-0.02816 -0.08142 0.08608
-0.05721 -0.06734 0.08368
-0.02610 -0.04744 0.03702
-0.02872 -0.06105 0.06940
-0.05472 -0.07344 0.08493
-0.05476 -0.07349 0.08504
0.02551 -0.08113 0.08467
0.03265 -0.05611 0.07859
0.01437 -0.08330 0.08577
0.00912 -0.07196 0.08287
0.02572 -0.08715 0.08608
0.00231 -0.09135 0.08769
0.00726 -0.08947 0.08735
-0.00849 0.00804 -0.00404
0.03984 -0.06488 0.08074
0.01314 -0.08117 0.08504
0.01794 -0.08320 0.08541
0.03751 -0.06474 0.07993
0.04300 -0.07294 0.08240
0.04344 -0.07557 0.08789
0.01446 -0.06547 0.08124
0.00201 -0.09609 0.11549
-0.02282 -0.07207 0.08303
-0.01530 -0.05617 0.07968
0.05422 -0.08092 0.08422
0.03776 -0.05663 0.07866
-0.00235 -0.07194 0.08309
0.00030 -0.05826 0.07997
-0.01520 -0.05740 0.08012
-0.01989 -0.08928 0.08778
-0.00962 -0.08180 0.08599
-0.00567 0.01219 -0.00879
0.00165 -0.06338 0.08111
0.05600 -0.07288 0.08215
0.03465 -0.08046 0.08444
-0.01174 -0.05839 0.08029
-0.04526 -0.07313 0.08466
0.02860 -0.08258 0.08505
0.01358 -0.07297 0.08304
0.00189 -0.07170 0.08308
0.01369 -0.08845 0.08724
0.03193 -0.06338 0.08035
-0.00688 0.00957 -0.00714
-0.00901 -0.07171 0.08346
0.02500 -0.08165 0.08480
-0.00660 0.00772 -0.00913
-0.05540 -0.07291 0.08491
-0.05456 -0.08197 0.08706
0.01921 -0.06363 0.08058
-0.01800 -0.08330 0.09112
0.02622 -0.07367 0.08269
-0.01012 -0.09004 0.08777
0.03449 -0.08254 0.08465
0.02861 -0.07956 0.08432
0.02493 -0.08042 0.08450
-0.03409 -0.06606 0.08265
0.01627 0.03321 -0.01319
0.01259 -0.07208 0.08386
-0.01342 -0.06439 0.08174
0.03609 -0.06550 0.08100
0.03609 -0.06550 0.08100
-0.03626 -0.05514 0.08006
-0.01977 -0.06695 0.08249
-0.00540 0.01911 -0.00730
0.01535 -0.06609 0.08158
-0.03562 -0.05536 0.08068
0.00354 0.01722 -0.01174
-0.01174 -0.05524 0.07958
-0.00317 -0.06322 0.08119
-0.00478 0.01991 -0.00737
0.00242 0.01171 -0.01453
0.01034 0.05087 -0.03278
0.00687 -0.07281 0.08279
0.04293 -0.06515 0.08021
-0.00890 -0.06665 0.08233
-0.00985 -0.05552 0.07920
0.03603 -0.07177 0.08198
-0.05456 -0.08037 0.08663
0.03780 -0.07178 0.08221
0.05035 -0.06626 0.08142
0.04615 -0.06399 0.08188
-0.02967 -0.06586 0.08248
-0.03621 -0.06685 0.08288
0.00805 0.05372 -0.03029
-0.01413 -0.05854 0.08057
-0.00930 -0.09071 0.08788
0.03077 -0.06622 0.08120
0.00324 -0.08771 0.08683
0.04007 -0.07433 0.08278
0.05622 -0.06660 0.08096
0.05105 -0.07236 0.08280
-0.04653 -0.07354 0.08488
-0.01792 -0.06959 0.05769
0.04404 -0.08092 0.08496
0.02806 -0.05837 0.07906
0.02122 -0.06456 0.08135
0.00639 0.03818 -0.02180
0.00767 -0.07140 0.08287
0.01049 -0.09080 0.08729
-0.01887 -0.09111 0.08819
0.00364 -0.07357 0.08359
0.01207 -0.06432 0.08097
-0.00771 0.00935 -0.00497
0.02508 -0.08278 0.08539
-0.05191 -0.07996 0.08614
0.02367 -0.07464 0.08376
-0.01924 -0.07381 0.08405
0.00527 0.02315 -0.00870
0.02499 0.05341 -0.02489
0.05480 -0.06490 0.08032
0.03713 -0.07973 0.08427
0.00464 -0.07410 0.08370
-0.00405 -0.06343 0.08121
0.02838 -0.05473 0.07836
0.02593 -0.06666 0.08162
-0.00251 0.01615 -0.01220
-0.01523 -0.07985 0.08549
-0.00288 -0.06650 0.08198
0.04864 -0.07311 0.08230
0.04617 -0.08237 0.08464
0.02790 -0.05613 0.07830
-0.03314 -0.07492 0.08468
-0.00717 0.01156 -0.00555
0.04995 -0.07928 0.08379
-0.00012 -0.08149 0.08563
0.02410 -0.06646 0.08118
-0.00513 -0.09088 0.08768
-0.05126 -0.06379 0.08225
-0.00766 0.01212 -0.00320
0.01886 -0.07948 0.08447
-0.03158 -0.08292 0.08665
-0.05199 -0.07198 0.08426
0.03419 -0.06306 0.08019
-0.00627 0.06928 -0.07613
-0.00223 -0.07963 0.08512
0.00797 0.00248 -0.00691
-0.01132 -0.08780 0.08714
0.03624 -0.07443 0.08294
0.00583 0.03332 -0.01981
-0.03865 -0.05817 0.08022
-0.00186 0.01742 -0.01250
0.01239 -0.07936 0.08447
-0.00408 0.05702 -0.04029
-0.03984 -0.06605 0.08288
-0.04010 -0.07194 0.08414
0.00193 0.06463 -0.03992
-0.00730 -0.08279 0.08631
-0.02526 -0.09092 0.08822
0.04635 -0.07445 0.08279
-0.01464 0.03457 -0.01414
-0.02748 -0.08305 0.08673
0.04114 -0.07914 0.08410
-0.04084 -0.08235 0.08656
-0.00748 0.00829 -0.00946
-0.00209 0.05153 -0.03190
0.00809 0.00255 -0.00713
0.00982 -0.08967 0.08741
0.05438 -0.07475 0.08278
0.00572 0.02462 -0.01132
-0.00333 0.01763 -0.00983
-0.00708 0.03965 -0.02951
0.06028 -0.06407 0.08147
0.03131 -0.06299 0.08026
-0.03247 -0.06670 0.08273
-0.00166 -0.07955 0.08513
0.02928 -0.07122 0.08239
0.03675 -0.05698 0.07890
0.03409 -0.08292 0.08518
-0.01205 -0.06501 0.08180
0.02498 -0.08844 0.08704
-0.00817 -0.05531 0.07992
0.01289 -0.05561 0.07909
0.00351 0.01718 -0.01185
-0.01893 -0.06523 0.08206
0.00848 0.02541 -0.01067
-0.02802 -0.08315 0.08658
-0.03076 -0.07509 0.08469
-0.05067 -0.06714 0.08351
0.00030 -0.05737 0.07977
0.01054 -0.08248 0.08663
-0.01018 -0.07482 0.08435
-0.00173 -0.06659 0.08177
-0.00477 0.03389 -0.02135
0.00934 -0.06433 0.08193
0.03766 -0.06307 0.07996
0.00455 -0.07144 0.08307
0.00950 0.06321 -0.08755
0.02016 -0.05923 0.07965
0.01201 -0.07129 0.08273
-0.00950 0.00816 -0.00148
-0.00611 -0.00215 -0.00293
0.03376 -0.05461 0.07824
0.03391 -0.05479 0.07850
0.02694 -0.06307 0.08040
0.00163 -0.05515 0.07973
0.00112 -0.06325 0.08127
0.02585 -0.05872 0.07944
-0.00352 -0.07112 0.08309
-0.03637 -0.05490 0.07998
0.03171 -0.06378 0.08138
-0.00834 -0.07315 0.08369
-0.00835 -0.07316 0.08369
0.03069 -0.07307 0.08277
0.03069 -0.07307 0.08277
0.00109 -0.06676 0.08190
0.01685 -0.08752 0.08653
-0.03451 -0.05886 0.08089
0.02359 -0.06489 0.08105
-0.02344 -0.07140 0.08368
0.05569 -0.07887 0.08345
0.05531 -0.07844 0.08270
0.02497 -0.06439 0.08072
0.02511 -0.06458 0.08104
0.03810 -0.06503 0.07992
0.02229 -0.08716 0.08612
-0.00488 -0.05778 0.08069
0.02934 -0.08121 0.08479
0.03846 -0.06466 0.08014
-0.00671 0.01187 -0.00387
-0.01224 -0.05671 0.07968
-0.02557 -0.05338 0.07285
0.03636 -0.05821 0.07905
-0.00443 -0.08000 0.08582
-0.01394 -0.08772 0.08729
-0.02925 -0.06346 0.08224
0.02550 -0.09126 0.08704
-0.02568 -0.05775 0.08107
-0.03540 -0.07510 0.08466
0.00201 0.02297 -0.00976
-0.03786 -0.06305 0.08183
-0.03091 -0.08315 0.08661
0.03777 -0.06513 0.08062
-0.01311 -0.08331 0.08619
-0.05290 -0.06705 0.08335
-0.02020 -0.07360 0.08419
-0.02020 -0.07360 0.08419
-0.01538 -0.09150 0.08816
-0.01704 -0.08049 0.08569
-0.03695 -0.07273 0.08421
-0.00924 0.00541 -0.00566
-0.00484 -0.00108 -0.00838
-0.03921 -0.06538 0.08257
-0.01237 -0.07392 0.08408
-0.00706 0.00971 -0.00551
-0.03352 -0.07349 0.08435
-0.00680 0.00785 -0.00438
-0.00802 -0.08950 0.08757
-0.02290 -0.07345 0.08414
-0.00908 -0.07470 0.08413
-0.02196 -0.09009 0.08802
-0.01435 -0.08926 0.08641
-0.00786 0.00221 -0.00400
-0.03565 -0.08358 0.08693
0.00882 -0.07455 0.08360
-0.02939 -0.05751 0.08064
-0.03987 -0.08121 0.08640
0.01370 -0.08272 0.08545
0.02521 -0.08257 0.08799
0.00639 0.00407 -0.01131
-0.03877 -0.07295 0.08439
-0.05398 -0.08284 0.08709
-0.00306 0.02130 -0.00869
0.06452 -0.02076 0.06947
-0.02525 -0.08083 0.08595
-0.03875 -0.06474 0.08243
-0.00571 0.01652 -0.00683
-0.00024 0.01435 -0.01315
-0.00024 0.01435 -0.01315
-0.00743 -0.00015 -0.00123
-0.00632 0.00884 -0.00929
0.01116 -0.06388 0.08112
-0.00335 0.02067 -0.01084
-0.04677 -0.07506 0.08524
-0.00615 0.01271 -0.00782
-0.00708 0.00852 -0.00795
0.03786 -0.07182 0.08239
0.07342 -0.10186 0.13941
-0.00669 0.00996 -0.00343
-0.04448 -0.06385 0.08203
-0.00225 0.02178 -0.01071
0.00515 0.02156 -0.00910
-0.03747 -0.07440 0.08461
0.00300 -0.09031 0.08682
-0.00578 0.01293 -0.00818
-0.00797 0.00719 -0.00397
-0.02677 -0.05843 0.08071
-0.01237 -0.07162 0.08362
-0.00344 0.00025 -0.01280
-0.00344 0.00025 -0.01280
-0.02725 -0.06380 0.08190
0.01074 -0.05562 0.07899
-0.01283 -0.06376 0.08158
-0.02682 -0.05518 0.07985
-0.01532 -0.07163 0.08353
-0.00402 0.00091 -0.01339
0.01158 -0.08166 0.08732
0.00762 0.00152 -0.00808
0.01554 -0.08851 0.08623
0.01558 -0.08854 0.08629
-0.01402 -0.05559 0.08012
0.02877 -0.07465 0.08331
0.00313 -0.05842 0.08003
-0.02043 -0.07968 0.08552
-0.03036 -0.05878 0.08119
-0.00639 0.00172 -0.00282
0.04266 -0.06438 0.08009
0.00507 -0.06391 0.08210
0.00400 -0.07247 0.08303
-0.00138 -0.06318 0.08117
-0.02635 -0.07975 0.08575
-0.00444 0.01310 -0.00526
0.02328 -0.07950 0.08443
-0.00361 0.01728 0.00452
-0.05814 -0.06680 0.08358
0.03456 -0.07934 0.08400
-0.00904 -0.06345 0.08131
-0.00639 0.00943 -0.00834
0.00299 -0.07241 0.08373
0.00163 -0.06793 0.08490
0.00120 0.00978 -0.01417
-0.02365 -0.05859 0.08070
-0.01014 -0.07471 0.08408
-0.01016 -0.09105 0.08792
-0.00201 -0.05567 0.07972
-0.03847 -0.05370 0.07682
0.01847 -0.05763 0.07891
-0.01335 -0.07450 0.08408
-0.02554 -0.05870 0.08056
0.02539 -0.08000 0.08281
-0.01251 0.03430 -0.01711
-0.00189 0.00971 -0.01283
-0.05240 -0.06362 0.08250
0.01159 -0.07313 0.08408
0.01254 -0.08259 0.08534
-0.00246 0.02146 -0.01122
-0.00195 0.01497 -0.00739
0.00584 -0.07181 0.08313
-0.01452 -0.08778 0.08721
-0.00848 -0.08787 0.08719
0.02730 -0.08395 0.08766
0.05240 -0.06565 0.08001
-0.00795 0.01104 0.00210
0.05696 -0.07223 0.08216
-0.03497 -0.07496 0.08482
-0.04236 -0.06693 0.08283
-0.04023 -0.07448 0.09676
0.03302 -0.07935 0.08327
-0.04679 -0.07175 0.08433
-0.00726 0.00212 -0.00592
-0.01956 -0.07094 0.08389
-0.04280 -0.06589 0.08264
0.01063 -0.07245 0.08276
-0.00864 0.01536 -0.00302
-0.05345 -0.08032 0.08659
-0.00040 0.02225 -0.01237
0.00879 -0.08079 0.08441
-0.05937 0.04907 -0.03510
-0.00993 -0.06363 0.08210
0.05130 -0.06337 0.08026
-0.00143 -0.00288 -0.01249
-0.01931 -0.05569 0.07906
0.06298 -0.02609 0.06780
-0.05820 -0.06504 0.08292
0.00664 -0.08067 0.08497
0.11702 -0.03159 0.16826
-0.02481 -0.07179 0.08293
-0.02601 -0.06433 0.08191
-0.00408 0.01900 -0.00926
-0.01107 -0.08193 0.08644
0.05841 -0.06467 0.08015
0.06699 -0.01735 0.07300
-0.05313 -0.07969 0.08625
-0.05399 -0.08005 0.08669
0.00705 0.02377 -0.00905
0.02744 -0.06350 0.08042
-0.00865 -0.06499 0.08146
-0.03940 -0.07206 0.08417
-0.03248 -0.08158 0.08638
0.03703 -0.05661 0.07830
-0.05516 -0.07445 0.08524
0.02191 -0.06394 0.08031
0.05483 -0.07991 0.08371
0.05497 -0.08201 0.08449
0.01285 -0.06400 0.08069
0.01268 -0.08915 0.08697
0.05974 -0.06629 0.08052
0.00303 -0.08315 0.08570
0.01929 -0.06536 0.08123
-0.01478 -0.04636 0.04106
-0.01246 -0.07270 0.08378
0.05353 -0.06633 0.08051
-0.02799 -0.06811 0.07477
0.00516 -0.06525 0.08269
0.02513 -0.07950 0.08449
-0.00331 -0.06519 0.08192
0.01912 -0.06625 0.08104
0.03834 -0.05773 0.07880
-0.00660 0.01102 -0.00802
0.01843 -0.06298 0.08060
0.00928 -0.06304 0.08086
-0.00848 0.01207 -0.00112
0.02314 -0.06429 0.08094
0.00790 0.00953 -0.00714
0.00799 0.00953 -0.00669
-0.01189 -0.07493 0.08419
0.00962 -0.06221 0.07845
0.00578 0.02350 -0.00961
0.00114 -0.05683 0.07965
0.00742 0.01496 -0.00464
-0.00657 0.01221 -0.00431
0.01115 -0.06532 0.08122
0.01206 -0.01831 0.05842
0.02071 -0.07125 0.08251
0.03476 -0.05641 0.07700
-0.01302 -0.07918 0.08520
0.02634 -0.06535 0.08121
0.03322 0.03757 -0.05828
0.00325 -0.06368 0.08101
0.02170 -0.05585 0.07857
0.00432 0.02227 -0.00977
-0.01397 -0.08767 0.08722
0.03269 -0.05811 0.07912
0.03809 -0.07125 0.08180
0.03219 -0.05810 0.08012
-0.00582 0.01235 -0.00793
-0.02548 -0.06227 0.09095
-0.02242 -0.06346 0.08148
-0.01000 0.00559 -0.00370
-0.00022 -0.05507 0.07931
-0.00591 0.01531 -0.00670
0.00758 0.02349 -0.00838
0.03799 -0.07307 0.08110
0.02487 -0.05605 0.07871
-0.02925 -0.06293 0.08105
-0.03610 -0.07221 0.08329
0.00774 0.00884 -0.00851
-0.04956 -0.07450 0.08549
-0.00596 0.00999 -0.01294
0.02485 -0.05520 0.07836
-0.00441 0.00325 -0.01262
0.00473 0.01785 -0.00973
0.03876 -0.06536 0.08097
0.02630 -0.07246 0.08284
-0.00508 -0.08006 0.08511
-0.00674 -0.00097 -0.00591
-0.04941 -0.06535 0.08289
-0.00677 -0.08984 0.10031
-0.00116 -0.08254 0.08550
-0.01596 -0.05645 0.07874
-0.01461 0.03477 -0.01485
-0.00142 -0.00068 -0.01359
-0.05547 -0.07257 0.08502
0.03148 0.03587 -0.02699
-0.00715 -0.06702 0.08210
-0.00758 0.01269 -0.00401
-0.04922 -0.07246 0.08452
0.03306 0.03775 -0.05622
0.00402 0.01434 0.00280
0.03206 0.04348 -0.05762
0.00612 0.02040 -0.00918
0.01003 0.03017 -0.01374
-0.02939 -0.05633 0.08024
-0.05718 -0.06729 0.08358
0.04020 0.05105 -0.06515
-0.03304 -0.07386 0.08414
0.00452 0.06436 -0.03988
0.04507 -0.06668 0.08071
-0.01927 -0.08089 0.08594
0.00937 0.01223 -0.00295
0.03422 0.04506 -0.04216
-0.02152 -0.09370 0.09424
-0.03887 -0.07315 0.08467
0.00807 -0.07236 0.08419
0.03753 0.04195 -0.07336
-0.01407 -0.07985 0.08540
0.00711 0.02218 -0.00755
-0.00368 0.00318 -0.01166
-0.02838 -0.07333 0.08471
0.00923 0.00768 -0.00495
-0.01070 -0.06335 0.07999
-0.00903 0.00431 -0.00478
0.00667 0.01653 -0.00760
0.00790 -0.06349 0.08088
0.02713 -0.06638 0.08130
-0.01076 -0.07275 0.08379
0.00965 0.02530 -0.00897
0.03104 0.04013 -0.05343
0.00959 0.00715 -0.00406
0.00804 0.01047 -0.00612
-0.01528 -0.07467 0.08412
0.00560 0.01674 -0.01020
0.01961 -0.05640 0.07917
0.00546 0.06475 -0.04060
-0.02808 -0.07177 0.08279
-0.02507 -0.06523 0.08397
0.00642 0.02202 -0.00878
-0.02552 -0.07251 0.08386
-0.05462 0.04473 -0.06179
-0.03872 -0.07428 0.08447
0.01607 -0.06331 0.08069
-0.05385 0.05113 -0.06306
-0.00766 0.00291 -0.00511
0.01430 -0.07384 0.08308
0.00428 0.01863 -0.00850
0.00509 0.01910 -0.00869
0.03515 -0.05809 0.07907
-0.03531 0.05392 -0.05050
-0.03532 0.05391 -0.05045
0.01382 0.04107 -0.02196
-0.05497 -0.06471 0.08306
0.00257 0.05762 -0.03920
0.00325 -0.06518 0.08156
-0.03810 -0.06527 0.08248
-0.05018 -0.08285 0.08723
0.02496 -0.06356 0.08067
-0.00456 0.02777 -0.01423
0.01007 -0.06378 0.08103
0.02108 -0.05775 0.07942
-0.03277 -0.06535 0.08232
-0.00845 -0.06676 0.08205
-0.00176 -0.07282 0.08387
0.02220 -0.05512 0.07854
0.01035 0.00642 -0.00350
-0.04274 -0.06486 0.08227
0.00251 -0.06455 0.08118
0.00093 0.01827 -0.01304
-0.00512 0.01303 -0.00766
-0.03510 -0.05744 0.08032
0.01598 -0.07418 0.08487
0.03844 0.04327 -0.06196
-0.03589 -0.05729 0.08004
-0.02092 -0.05819 0.08273
-0.05297 -0.07276 0.08499
-0.02134 -0.05487 0.07951
0.01526 -0.07344 0.08300
-0.01014 -0.08266 0.08596
0.03858 0.03923 -0.06948
0.00270 -0.08107 0.08566
-0.04954 -0.08153 0.08757
-0.00171 -0.07510 0.08406
0.00851 0.00851 -0.00741
-0.02858 -0.05686 0.08032
-0.03081 -0.08152 0.08612
0.00959 -0.07518 0.08395
0.00108 -0.05681 0.07965
-0.02451 -0.08143 0.08621
-0.03799 -0.06724 0.08298
-0.02428 -0.08331 0.08644
-0.01314 -0.08324 0.08617
-0.04324 -0.06480 0.08228
0.00956 -0.07309 0.08329
-0.03253 -0.08348 0.08675
0.00550 -0.07364 0.08427
0.00105 0.01855 -0.01345
0.01358 -0.07297 0.08304
-0.00280 -0.06549 0.08171
-0.02092 -0.07293 0.08390
0.01002 -0.06544 0.08185
-0.01409 -0.07400 0.08399
-0.02988 -0.06432 0.08190
0.04573 0.05095 -0.06609
0.00779 0.00840 -0.00711
-0.03329 -0.06543 0.08249
-0.03329 -0.06543 0.08249
0.04290 0.05085 -0.06596
-0.04263 -0.06464 0.08207
-0.05363 -0.06452 0.08272
-0.02239 -0.06490 0.08231
-0.03562 -0.08352 0.08684
-0.02357 -0.09139 0.10297
-0.01781 -0.08064 0.08580
0.00911 -0.07507 0.08360
0.04810 0.05100 -0.06524
0.00231 -0.07863 0.08403
0.01512 -0.06513 0.08165
-0.05931 -0.06649 0.08321
-0.03019 -0.08217 0.08622
0.02521 -0.05874 0.07942
0.00982 -0.07938 0.08522
0.02546 -0.07190 0.08283
0.02544 -0.07187 0.08277
-0.00446 0.00241 -0.01278
-0.00232 -0.06449 0.08168
-0.00868 -0.08851 0.08720
-0.01117 -0.11799 0.18750
-0.00285 -0.06371 0.08137
-0.05635 -0.06677 0.08353
-0.00521 -0.05521 0.07930
-0.03027 -0.08066 0.08599
-0.02866 -0.08206 0.08605
-0.02254 -0.05556 0.07987
-0.02234 -0.07473 0.08433
-0.00765 -0.06505 0.08164
-0.05167 -0.08116 0.08650
-0.03816 -0.07494 0.08475
-0.01937 -0.09132 0.08823
-0.00554 -0.08771 0.08712
0.00198 -0.06595 0.08159
0.00624 -0.06593 0.08155
-0.01602 -0.05799 0.08023
-0.01034 -0.05670 0.07986
0.02238 -0.07302 0.08299
0.01256 -0.05871 0.07963
-0.03767 -0.07535 0.08492
-0.02422 -0.07925 0.08540
-0.02582 -0.05716 0.08016
0.03114 -0.05784 0.07938
-0.03803 -0.07301 0.08444
-0.00585 -0.08227 0.08577
-0.05439 -0.06403 0.08255
-0.01463 -0.09079 0.08800
-0.00227 0.00975 -0.01216
0.00484 0.00443 0.00118
0.01360 -0.07053 0.08172
0.00613 -0.06425 0.08135
0.03379 0.04367 -0.05634
-0.01764 0.11212 -0.13470
-0.01232 0.11218 -0.13283
0.03520 0.08044 -0.06847
0.04226 -0.06440 0.08062
0.02029 0.09187 -0.08456
-0.02991 -0.05869 0.08086
0.05854 -0.06406 0.07985
0.04821 -0.07131 0.08175
0.04799 -0.07079 0.07927
0.00663 -0.05787 0.08026
0.02183 0.09742 -0.08454
0.02244 0.09803 -0.07734
0.02194 0.09755 -0.08441
0.02548 0.08196 -0.07818
-0.02108 -0.09094 0.09103
0.01093 -0.08263 0.08655
0.01122 -0.08190 0.08525
0.03408 0.07916 -0.07731
0.03724 0.09131 -0.07474
-0.04073 0.03901 -0.05848
-0.00482 -0.08256 0.08575
-0.00760 -0.05548 0.07988
-0.04027 0.04380 -0.05660
0.05578 -0.06226 0.06830
0.04668 -0.07994 0.08390
-0.04104 0.08106 -0.06037
-0.04099 0.04295 -0.05943
-0.04731 -0.07236 0.08449
0.03644 0.08016 -0.06900
-0.01038 -0.06459 0.08220
-0.02735 0.08173 -0.08648
0.00961 -0.07508 0.08369
0.03328 0.09499 -0.07738
-0.01063 0.09907 -0.09493
0.06351 0.11021 -0.04586
-0.04503 0.04063 -0.05850
0.02543 -0.08921 0.08659
0.02545 -0.08957 0.08751
0.04865 0.03861 -0.05006
-0.02903 0.06586 -0.05176
-0.02550 0.06964 -0.08800
0.03377 0.03625 -0.05597
-0.02545 0.09690 -0.06529
-0.02454 0.09449 -0.09600
0.03059 -0.07493 0.08291
0.01129 -0.08053 0.08556
-0.00795 -0.09050 0.08758
-0.01055 0.09527 -0.08587
-0.03945 0.08381 -0.06375
-0.04529 0.03856 -0.05871
-0.04905 -0.08036 0.08631
-0.01537 -0.05737 0.07962
-0.04269 0.07748 -0.06852
0.04544 0.03910 -0.05460
0.00411 0.07797 -0.07534
0.01452 -0.07523 0.08461
0.03451 0.04127 -0.07360
0.02549 0.07249 -0.08091
0.00524 0.08745 -0.07324
0.03230 0.03759 -0.05559
0.02337 0.09286 -0.09002
-0.02586 0.07346 -0.09319
-0.00864 0.09811 -0.07081
0.05186 0.04219 -0.06087
-0.05419 0.04547 -0.06540
0.06351 0.10210 -0.05006
0.02531 0.07850 -0.08426
-0.00997 0.06390 -0.06675
-0.03295 -0.06391 0.08154
-0.06015 -0.06736 0.08369
-0.06015 -0.06736 0.08369
-0.05581 0.03991 -0.06122
0.05304 0.05624 -0.05916
-0.04159 0.08791 -0.06599
-0.00797 0.09390 -0.07893
-0.00350 0.07777 -0.08061
0.00959 0.11411 -0.09392
-0.03891 -0.07479 0.08636
-0.01670 -0.05596 0.07972
0.00903 0.05542 -0.04299
-0.00769 0.06184 -0.03992
-0.03704 0.03855 -0.02605
-0.03726 0.03913 -0.02721
0.02800 0.07609 -0.08031
0.04163 0.04323 -0.07067
-0.05664 0.07874 -0.06859
-0.01253 -0.07259 0.08362
-0.01252 -0.07260 0.08359
-0.04600 0.03506 -0.05881
0.01596 -0.06559 0.08101
0.01197 0.05036 -0.03337
0.05140 0.08003 -0.06959
0.02707 0.05587 -0.05335
0.03273 0.03835 -0.05954
-0.00369 0.06995 -0.06932
0.00307 -0.09052 0.08660
-0.00943 0.09823 -0.08607
-0.02239 0.06093 -0.08588
0.03271 0.04224 -0.07429
0.01588 -0.06419 0.08111
-0.00017 0.07097 -0.06991
0.00100 0.07254 -0.06961
-0.04434 0.04325 -0.07107
-0.00177 0.07179 -0.07309
0.02328 -0.05551 0.07863
-0.01297 0.06196 -0.09012
-0.00018 0.07496 -0.07588
-0.01239 -0.07384 0.08333
-0.03583 0.05628 -0.04543
-0.00247 0.09189 -0.06804
-0.03968 0.08181 -0.05978
0.04300 0.04277 -0.06953
-0.03358 0.06667 -0.04450
-0.01107 0.06798 -0.08657
0.03832 0.07816 -0.06769
0.04211 0.03901 -0.06913
0.00918 0.01222 -0.01017
0.02397 0.07798 -0.08247
-0.02336 -0.09055 0.08891
0.03320 0.04059 -0.06822
-0.00207 0.09095 -0.06752
0.01529 -0.06608 0.08141
0.03658 0.06977 -0.07672
-0.05602 0.04249 -0.06147
0.01104 0.10166 -0.09460
0.03972 -0.07389 0.08315
0.03442 0.03680 -0.06308
-0.00772 0.04742 -0.03153
0.05015 0.05106 -0.06329
0.04933 0.08923 -0.08468
-0.03823 0.03736 -0.02709
-0.01464 0.06097 -0.08893
-0.04414 0.04038 -0.05788
0.02481 0.07391 -0.08292
-0.04125 -0.06465 0.08506
0.01398 0.09415 -0.09058
-0.01728 0.10860 -0.11798
0.05300 -0.06313 0.08025
-0.00433 0.00326 -0.01116
0.00637 0.01605 -0.00846
0.02519 -0.05767 0.07922
0.02210 -0.05654 0.07917
-0.02911 -0.05583 0.08008
-0.05553 -0.06531 0.08297
-0.00971 -0.08013 0.08545
-0.01925 -0.08212 0.08616
0.00310 -0.00140 -0.01199
-0.00714 0.00126 -0.00644
-0.05429 -0.06651 0.08329
-0.03809 -0.05514 0.08024
0.02418 -0.09106 0.08724
0.00244 -0.06505 0.08113
0.00831 -0.07487 0.08366
0.03210 -0.05487 0.07833
0.02690 -0.07477 0.08326
-0.00794 -0.09131 0.08800
0.05400 -0.07955 0.08457
0.00813 -0.07457 0.08424
-0.00936 -0.05651 0.07973
0.00115 0.00535 -0.01312
-0.00500 0.01651 -0.00852
0.00634 -0.05852 0.08138
-0.04192 0.03727 -0.05039
-0.05362 0.05070 -0.06312
0.05586 0.12639 -0.06608
-0.06071 0.07419 -0.04785
-0.06216 0.12717 -0.08759
0.00371 0.12045 -0.09363
-0.02671 0.08071 -0.06967
-0.06300 0.07910 -0.03841
-0.03267 0.07866 -0.06282
0.02275 -0.07933 0.08449
0.00784 0.05585 -0.03625
-0.02653 -0.06585 0.08282
0.05123 -0.06546 0.08090
-0.02806 -0.07954 0.08517
-0.05820 -0.06322 0.06036
-0.01124 0.06295 -0.07724
0.03596 -0.08242 0.08540
0.04080 0.03638 -0.01451
0.04100 -0.08034 0.08412
0.03670 0.07793 -0.06841
0.05397 0.12469 -0.10900
0.00971 0.06298 -0.04897
-0.06624 0.13280 -0.13563
-0.00403 0.06832 -0.05526
-0.00676 -0.08127 0.08565
0.03467 0.12547 -0.08516
-0.02520 0.06283 -0.08595
0.00210 0.06946 -0.04912
0.00186 0.06911 -0.05567
-0.03261 0.07754 -0.04346
-0.05730 0.04281 -0.05860
0.02277 0.09092 -0.08976
0.00813 0.06304 -0.04898
0.02441 0.09707 -0.08596
0.00374 0.06937 -0.05048
0.02844 0.04789 -0.02284
0.02409 0.04868 -0.03529
0.02700 0.09896 -0.08441
0.01194 0.06184 -0.07297
0.09583 -0.09016 0.07548
0.01267 -0.09042 0.08819
0.05676 0.13341 -0.13705
0.00213 0.07348 -0.06529
-0.06392 0.08604 -0.02542
0.02270 0.05094 -0.04490
-0.02904 0.05779 -0.03399
-0.00503 0.06476 -0.04488
-0.02939 0.09090 -0.06981
-0.02344 0.05627 -0.00446
0.05554 0.12413 -0.13467
0.05553 0.12416 -0.13472
0.00135 0.07460 -0.07347
-0.05713 0.03795 -0.04656
0.06578 0.11248 -0.04514
0.06073 0.11362 -0.04669
0.05939 0.08642 -0.04280
0.00070 0.01649 -0.00704
0.02477 -0.07997 0.08294
-0.09904 0.12981 0.04099
-0.02793 0.08720 -0.06809
0.00552 0.06561 -0.04107
0.04026 0.04819 -0.06351
0.02780 0.04923 -0.02154
-0.02066 0.03528 -0.00867
0.02538 -0.06463 0.08053
0.01773 -0.05662 0.07828
0.00970 0.07447 -0.08492
0.00904 0.11692 -0.09325
-0.02317 0.09975 -0.09419
0.03461 0.03765 -0.07104
0.02660 0.09763 -0.08976
-0.04195 0.12400 -0.08114
0.00989 0.06649 -0.08638
0.02276 0.05018 -0.03408
-0.02108 0.11448 -0.11041
-0.03011 0.09529 -0.07002
-0.02546 0.04952 -0.01034
0.02074 -0.05708 0.07947
-0.06248 0.07198 -0.03527
0.02357 0.05763 -0.04720
0.02193 0.03007 -0.00855
0.02672 0.11142 -0.07680
0.00516 0.08888 -0.07183
-0.02129 -0.06622 0.08253
0.06000 0.10941 -0.04508
-0.02013 0.11031 -0.11520
-0.01732 0.05867 -0.03249
0.00674 0.07365 -0.09053
-0.00311 0.09396 -0.06776
-0.06683 0.13591 -0.14247
-0.03249 0.09404 -0.07040
-0.02720 -0.06620 0.08588
0.00838 0.11895 -0.10731
0.01213 0.09053 -0.08959
0.00671 0.01119 -0.01072
0.03430 0.09364 -0.08512
-0.01028 0.08189 -0.08608
-0.03058 0.03654 -0.01356
-0.02435 0.08139 -0.09847
-0.01598 0.10830 -0.11962
-0.02031 0.11144 -0.11561
0.03082 0.07998 -0.07188
-0.00067 0.12345 -0.07112
-0.02419 0.09188 -0.09130
-0.02785 0.05061 -0.01248
-0.02693 0.09965 -0.06931
0.00034 0.04449 -0.03642
-0.00523 0.09602 -0.07205
-0.03035 0.05021 -0.03835
0.00188 -0.06582 0.08190
0.00727 0.08617 -0.07101
-0.00008 -0.08121 0.08512
0.05046 0.07930 -0.06944
-0.01292 0.11032 -0.13340
-0.00667 0.09262 -0.04965
-0.03765 0.04899 -0.04795
-0.00461 0.03107 -0.01651
0.05049 0.08601 -0.07143
0.05578 0.13321 -0.13615
-0.01210 -0.08194 0.08631
0.02836 0.03714 -0.00895
0.01441 0.03156 -0.01327
0.02556 0.03758 -0.02458
-0.03718 0.08462 -0.07267
0.00700 0.05233 -0.02835
0.03799 0.07959 -0.07021
0.00406 0.08074 -0.06503
0.02137 0.05000 -0.01441
0.03310 0.03544 -0.03767
-0.03405 0.07340 -0.04525
0.03435 0.07078 -0.03926
0.00884 0.11508 -0.09529
0.02342 -0.06058 0.07964
0.03116 0.04740 -0.02598
0.00005 0.03703 -0.01988
-0.01880 0.11170 -0.13579
0.00322 0.04736 -0.04396
-0.03628 0.12168 -0.12512
0.02095 0.08772 -0.08707
-0.02638 0.03424 -0.00795
0.02080 0.05542 -0.04990
-0.03465 0.09225 -0.07197
-0.05587 0.04681 -0.06117
0.02165 0.05349 -0.01595
0.03039 0.09641 -0.09677
-0.03869 0.09551 -0.06636
-0.06532 0.05753 -0.02447
-0.03054 0.09912 -0.05228
0.00699 0.06743 -0.08604
0.03003 0.06771 -0.04318
-0.03647 0.06802 -0.04955
-0.02182 -0.06943 0.08326
0.04979 0.11888 -0.08106
0.00914 -0.05993 0.07969
-0.00219 -0.06120 0.08158
0.09809 -0.02587 0.07738
0.00688 0.11826 -0.12966
0.00687 0.11828 -0.12962
-0.03188 0.04615 -0.02239
-0.01307 0.11104 -0.13336
0.02869 0.03950 -0.03629
0.01333 0.05723 -0.03729
0.06460 0.12065 -0.03961
-0.00395 0.11211 -0.08423
-0.00875 0.04270 -0.03648
0.02495 0.04610 -0.02046
-0.05840 0.04313 -0.05789
0.00578 0.06402 -0.03837
-0.01608 0.03701 -0.02087
-0.03312 0.07225 -0.04326
0.01126 -0.07736 0.08467
0.00762 0.10078 -0.08833
0.02839 0.04015 -0.02841
0.05771 0.04778 -0.03740
0.02523 -0.06851 0.08146
0.01480 0.02895 -0.01086
0.00768 0.07720 -0.08503
-0.01037 -0.07751 0.08498
-0.03263 0.04873 -0.04140
0.00618 -0.06124 0.08077
-0.00089 0.06138 -0.03371
-0.00556 0.09012 -0.07436
-0.03751 0.06199 -0.05193
-0.04377 0.11171 -0.07665
-0.05384 0.07807 -0.07096
-0.03781 0.03684 -0.01773
0.03789 0.05085 -0.06115
0.02920 0.08044 -0.07329
0.00790 0.07676 -0.08783
0.03243 0.04886 -0.05506
0.04272 0.08557 -0.07423
-0.05449 0.07753 -0.07142
-0.05449 0.07753 -0.07142
-0.04143 0.13281 -0.13783
0.03908 0.03740 -0.07116
0.12601 -0.17973 0.64999
-0.05566 0.05062 -0.06191
-0.03621 0.08307 -0.06171
-0.02531 0.03583 -0.01083
-0.00059 0.07832 -0.08198
0.03739 0.08526 -0.07295
-0.01076 0.08789 -0.09739
-0.02136 0.11020 -0.11880
0.04528 0.08554 -0.07419
-0.05063 0.04642 -0.06489
-0.05016 0.03445 -0.06626
0.01321 0.12101 -0.09283
-0.01578 0.08012 -0.30686
-0.03552 0.05186 -0.04790
0.03950 0.08692 -0.07284
0.04997 0.06549 -0.06637
0.02133 0.04358 -0.01419
0.03948 0.08747 -0.07548
0.03893 0.09147 -0.07514
-0.00599 0.03608 -0.02947
-0.04906 0.03695 -0.05641
0.03977 0.07768 -0.07055
0.03977 0.07768 -0.07055
-0.03775 0.06646 -0.04919
-0.05568 0.12146 -0.10048
-0.01573 0.13261 -0.13637
0.04968 0.12406 -0.08250
-0.02138 0.11279 -0.11334
-0.01204 0.10959 -0.11660
0.03212 -0.05844 0.07912
-0.00082 0.01034 -0.01235
0.04334 -0.07188 0.08221
0.03756 0.04527 -0.06874
-0.04986 -0.06437 0.08275
-0.01229 -0.08958 0.08782
0.03554 -0.07202 0.08290
-0.00229 0.02233 -0.00928
-0.00882 -0.07420 0.08395
0.00057 -0.05777 0.07976
-0.02946 -0.08024 0.08598
-0.00115 0.05831 -0.03727
0.00553 -0.08940 0.08730
-0.05175 0.04020 -0.06391
0.03853 -0.08006 0.08421
-0.01473 -0.07494 0.08418
-0.00775 -0.06616 0.08222
-0.01916 -0.06323 0.08141
0.00734 0.00839 -0.01102
0.00116 0.06328 -0.04062
-0.01461 -0.08314 0.08626
-0.02627 0.07543 -0.08529
0.00866 0.06350 -0.04259
-0.04500 0.03753 -0.05795
0.00461 0.05868 -0.03731
-0.03258 0.09420 -0.09802
0.00256 0.11969 -0.08090
0.00335 0.07831 -0.08468
0.02522 0.04830 -0.01710
-0.03631 0.11718 -0.14899
-0.00085 0.08639 -0.07199
-0.04912 0.05971 -0.06343
0.02903 0.10005 -0.07312
-0.01144 0.02959 -0.01111
0.03192 0.04291 -0.06956
0.10322 0.06709 0.19983
-0.05359 0.04215 -0.06317
0.03902 0.05020 -0.06186
0.02586 0.06636 -0.05686
0.01219 0.11801 -0.08823
0.03436 0.09415 -0.07830
0.03569 0.09099 -0.07932
0.04573 0.12333 -0.13805
0.02331 0.04753 -0.00820
0.00789 0.06492 -0.05799
-0.00504 -0.00115 -0.00835
-0.02833 0.09386 -0.06984
-0.01685 0.11086 -0.13151
-0.01247 0.06143 -0.05135
0.06377 0.12990 -0.06961
-0.01062 0.07287 -0.08682
0.05957 0.12380 -0.05467
0.02661 0.07696 -0.09226
0.01782 0.10230 -0.07214
0.02316 0.04921 -0.00977
-0.00887 0.00923 -0.00275
-0.05316 0.04079 -0.06271
-0.01410 0.03772 -0.03265
-0.06494 0.13250 -0.13532
-0.02011 0.05944 -0.08756
0.04569 0.03840 -0.05891
0.03776 0.05337 -0.06248
0.02209 0.08683 -0.08083
-0.03576 0.05931 -0.04321
-0.04339 0.03947 -0.05881
0.05768 0.13763 -0.14029
-0.02368 0.07365 -0.08798
-0.01065 0.11224 -0.13169
0.04290 0.04318 -0.06633
-0.01058 0.09020 -0.07094
-0.01015 0.02884 -0.01342
-0.03463 0.04093 -0.02059
0.06075 0.11158 -0.04352
-0.02903 0.03675 -0.01432
0.06063 0.08797 -0.04425
-0.05422 0.03991 -0.05170
-0.04363 0.05023 -0.06071
0.02689 0.03294 -0.01220
-0.04696 0.04700 -0.06399
0.03038 0.07861 -0.06493
-0.01624 0.06103 -0.08620
-0.01037 0.09245 -0.07096
-0.02178 0.09208 -0.11617
-0.02339 0.06225 -0.09271
0.05139 0.07824 -0.06891
-0.02236 0.08935 -0.10829
0.06032 0.08552 -0.04376
-0.05874 0.07131 -0.06349
0.05006 0.11734 -0.08061
-0.04684 0.04763 -0.06109
0.00357 -0.00207 -0.01304
-0.05630 0.08577 -0.06981
-0.00563 0.02426 -0.00772
0.05032 0.04642 -0.06145
-0.04105 0.08792 -0.06455
-0.00285 0.05338 -0.03004
-0.05871 0.04766 -0.05504
0.03331 0.03610 -0.05842
0.05308 0.11975 -0.07872
0.00827 0.04774 0.02772
-0.02031 0.10079 -0.12842
-0.03573 0.05145 -0.04544
0.05028 0.11523 -0.07745
0.00926 0.01148 0.00112
0.03431 0.08067 -0.06919
0.00070 0.07743 -0.07631
-0.02428 0.08926 -0.09508
0.02713 0.07358 -0.07073
0.01149 0.09232 -0.08431
-0.01788 0.11603 -0.12982
0.00966 0.06429 -0.08352
0.05955 0.05363 -0.04212
-0.04376 0.14712 -0.14186
0.00263 0.11809 -0.08407
-0.05276 0.07272 -0.10001
0.02702 0.07516 -0.07513
-0.03516 0.04185 -0.02883
-0.02328 0.06802 -0.10662
0.03205 0.03745 -0.04575
-0.05780 0.11141 -0.06824
0.01351 0.02987 -0.01261
0.04928 0.08015 -0.07926
0.00363 0.02111 -0.01186
0.00850 0.08785 -0.08249
-0.04244 0.04127 -0.05705
0.03721 0.09861 -0.07605
0.02564 0.05052 -0.05033
-0.03647 0.04036 -0.02147
0.01339 0.05217 -0.03356
-0.03891 0.06453 -0.08352
0.04002 0.03492 -0.07719
0.02870 0.12204 -0.11391
0.02888 0.12201 -0.11489
0.02896 0.12202 -0.11286
-0.02671 0.06999 -0.08214
-0.00562 0.07061 -0.07566
0.02822 0.04792 -0.03846
0.02495 0.05078 -0.04570
-0.04400 0.11439 -0.07847
-0.04364 0.13893 -0.14068
0.02755 0.12192 -0.13410
0.03356 0.04069 -0.07034
0.00411 -0.00018 -0.01177
0.01365 0.03614 0.00694
-0.00811 0.08553 -0.07179
-0.03295 0.10898 -0.12653
0.00584 0.06779 -0.04906
-0.03416 0.05770 -0.07408
0.00698 0.07069 -0.08830
0.03366 0.04788 -0.03700
-0.04042 0.08918 -0.05874
0.05001 0.08241 -0.07217
0.00233 0.00324 -0.01686
-0.00392 0.04452 -0.02886
-0.01747 0.04273 -0.01692
-0.01682 0.03106 -0.00580
-0.01024 -0.05532 0.07948
-0.01126 0.09741 -0.07708
0.00324 0.06307 -0.03789
-0.02482 0.06390 -0.08407
-0.04377 0.13472 -0.13648
-0.00192 0.02093 -0.01121
-0.05507 0.08718 -0.06596
0.04904 0.05355 -0.07381
-0.05571 0.08116 -0.07934
0.00965 0.05071 -0.03672
-0.03095 0.06048 -0.03614
0.00657 0.04457 -0.02516
0.01855 0.08394 -0.09748
-0.00071 0.01491 -0.01527
-0.03546 0.04944 -0.04904
0.03171 0.04152 -0.06915
0.06767 0.11884 -0.03725
-0.00290 0.06131 -0.03795
0.00497 0.11619 -0.13208
0.04770 0.06852 -0.06864
-0.01923 0.10252 -0.11802
0.03333 0.06684 -0.03895
0.05740 0.06105 -0.04410
0.01096 0.03661 -0.02432
-0.01201 0.03917 -0.03816
0.02275 0.03111 -0.00989
-0.02203 0.12059 -0.13409
-0.02226 0.12193 -0.12070
0.04039 0.04208 -0.07625
-0.00497 0.01814 -0.00622
-0.03953 0.06150 -0.06805
0.02488 0.09087 -0.07875
0.03773 0.12001 -0.07693
0.02709 0.03225 -0.01317
-0.02402 0.04651 -0.01402
-0.00642 0.00432 -0.00955
-0.03895 0.08073 -0.04792
0.02812 -0.07223 0.08268
-0.01793 0.03991 -0.04382
-0.03927 0.08793 -0.06109
-0.00538 0.05230 -0.05748
0.00657 0.04100 -0.02439
0.03887 0.03783 -0.06936
0.03553 0.03882 -0.07194
0.02989 0.05374 -0.05198
0.03852 0.08740 -0.07420
-0.02232 -0.05802 0.08075
0.03364 0.13608 -0.14188
0.03362 0.13571 -0.14208
-0.02780 0.03797 -0.01143
-0.02858 0.05216 -0.01087
0.01998 0.09029 -0.09867
0.00810 0.09902 -0.09264
-0.00151 -0.05604 0.07933
0.03029 0.09935 -0.09246
0.01140 -0.05847 0.07965
0.03596 0.04082 -0.07269
-0.00058 0.05042 -0.02862
-0.00579 0.03049 -0.01358
-0.04828 -0.07424 0.08499
0.02272 0.06423 -0.06718
0.00631 0.07290 -0.08368
-0.05296 -0.06701 0.08362
-0.05296 -0.06704 0.08386
0.06618 0.11009 -0.04677
-0.03733 0.07115 -0.04682
0.00175 0.06107 -0.05321
0.00091 0.03926 0.04620
0.02025 0.08659 -0.08413
-0.02899 -0.07495 0.08809
-0.03375 0.04750 -0.03992
-0.05618 0.08688 -0.06375
0.01283 0.04443 -0.02934
0.00346 0.08157 -0.05495
-0.02643 -0.06568 0.08251
0.04067 0.08623 -0.06723
0.01116 0.03811 -0.02610
0.04856 0.03984 -0.05057
-0.04620 -0.07275 0.08405
0.05935 -0.06359 0.07992
0.01241 0.05180 -0.03389
0.00430 0.00030 -0.00964
-0.04521 -0.06333 0.08230
0.00518 -0.05669 0.07942
0.01047 0.00559 -0.00351
0.00244 0.08955 -0.07472
-0.00157 -0.00325 -0.01015
0.00479 0.01191 -0.01145
-0.01185 0.03396 -0.01456
-0.03807 -0.06691 0.08252
0.03778 -0.05748 0.07861
-0.00715 0.00060 -0.00728
0.03244 0.03912 -0.05331
0.03238 0.04473 -0.07301
0.01468 0.09242 -0.11795
-0.05386 0.04366 -0.07300
0.05169 0.09217 -0.07851
-0.02060 0.11262 -0.11611
-0.00741 0.11731 -0.11554
-0.03688 0.06633 -0.04890
-0.00458 0.04934 -0.03908
0.06015 0.05023 -0.01942
0.02035 0.08416 -0.08608
0.04968 0.12404 -0.08250
0.01293 0.06225 -0.08808
-0.00206 0.00232 -0.01416
0.00712 0.05543 -0.03016
-0.00868 0.07517 -0.08569
0.02579 0.08137 -0.07591
-0.00091 0.08021 -0.07293
0.04777 -0.06338 0.08136
0.00843 -0.05268 0.04079
-0.00647 0.07265 -0.08535
0.02387 -0.06366 0.08005
-0.05293 -0.07249 0.08456
0.02561 0.06844 -0.03654
0.05920 -0.07773 0.09062
-0.02159 -0.08892 0.08657
0.05951 0.12715 -0.05537
-0.02695 -0.08056 0.08589
-0.02693 -0.08049 0.08549
-0.05966 0.12636 -0.08386
-0.00806 -0.02564 -0.15231
-0.04421 0.03587 -0.05738
-0.00215 0.06697 -0.12799
-0.03126 -0.07654 0.07728
-0.05393 -0.08181 0.08688
-0.00928 -0.09066 0.08779
0.01052 0.05122 -0.03980
0.02434 -0.07996 0.08414
0.02378 -0.08031 0.08477
-0.00381 0.04739 -0.03624
-0.09613 -0.06487 0.07895
0.09401 -0.13088 0.08281
-0.01018 0.11618 -0.12786
-0.00303 0.06902 -0.07116
-0.05485 0.04095 -0.07124
-0.01508 0.05939 -0.08735
0.03822 -0.06410 0.08060
0.03558 0.09166 -0.08337
-0.04428 0.03637 -0.05786
0.02339 -0.07451 0.08353
-0.01837 -0.08255 0.08611
-0.00825 0.06349 -0.04805
-0.01956 0.06010 -0.08634
0.02963 0.07776 -0.06603
0.03003 0.06109 -0.01373
-0.01296 0.06161 -0.08451
-0.04303 0.03769 -0.05502
0.09677 -0.08133 0.08165
0.09369 -0.14426 0.08796
-0.05836 -0.15008 0.10092
0.04173 -0.08125 0.08544
-0.00614 0.04756 -0.03256
-0.00501 0.06912 -0.07289
0.00254 0.07172 -0.05756
-0.05525 0.04383 -0.06021
0.09376 -0.14183 0.08948
-0.03340 0.05495 -0.04770
0.00186 0.05031 -0.02670
-0.09472 -0.14592 0.10499
-0.00857 0.06606 -0.08820
0.02604 0.03717 -0.04748
0.09455 -0.10050 0.06606
0.05988 0.10912 -0.04666
0.00979 0.00064 -0.00453
-0.01240 0.06736 -0.02811
-0.06651 0.05286 -0.03201
0.00276 0.07109 -0.05546
-0.00944 0.11757 -0.12594
-0.01014 0.06429 -0.04274
0.09561 -0.09398 0.07538
-0.03381 0.06851 -0.05640
-0.03424 0.06871 -0.04968
0.02383 0.06829 -0.06542
-0.00455 0.12003 -0.09829
-0.00999 0.06356 -0.05403
-0.05720 0.04129 -0.05941
0.02109 0.07248 -0.08882
-0.00264 0.06894 -0.05027
0.00127 -0.08240 0.08559
0.03293 -0.05758 0.07888
0.03459 0.09665 -0.07339
-0.01979 -0.07463 0.08403
-0.00390 0.09248 -0.06791
-0.00155 -0.09135 0.08774
-0.01705 -0.08306 0.08626
0.01625 -0.05671 0.07915
-0.01917 0.06389 -0.09122
0.01280 -0.06416 0.08079
0.00961 0.05880 -0.04558
-0.02699 -0.07327 0.08419
0.03596 -0.07988 0.08411
0.04015 -0.08044 0.08434
0.03977 -0.06525 0.08112
-0.03846 -0.06421 0.08237
0.03764 -0.08270 0.08458
0.03018 -0.07194 0.08246
-0.00484 -0.07968 0.08500
0.02001 -0.07430 0.08315
0.04361 -0.07487 0.08324
-0.03367 -0.07151 0.08393
0.02438 -0.05849 0.07954
-0.00318 0.05616 -0.03595
-0.03265 0.03751 -0.01757
0.04579 -0.09277 0.12997
0.01039 0.06292 -0.03569
0.00479 0.06964 -0.05945
-0.00955 -0.07321 0.08375
-0.00510 0.04724 -0.03555
-0.03421 -0.08301 0.08661
-0.00984 0.11430 -0.12255
0.02916 0.12283 -0.13330
0.02255 0.09565 -0.09451
-0.00788 0.09666 -0.06946
-0.00875 0.07378 -0.08486
0.01264 0.04911 -0.03482
-0.00015 -0.05485 0.07944
-0.04259 0.07995 -0.06779
0.01635 0.03301 -0.01320
0.00371 0.01062 -0.01266
0.02469 0.07436 -0.08230
-0.01227 -0.05866 0.08020
0.04362 0.04055 -0.06846
-0.02848 -0.07176 0.08276
0.00735 -0.08062 0.08542
-0.04727 0.04610 -0.06392
0.05130 -0.07428 0.08418
0.02448 0.06730 -0.09326
0.02433 0.06718 -0.09334
0.02793 -0.08233 0.08693
0.02564 0.06993 -0.07574
0.04347 0.03984 -0.06244
-0.04326 0.04383 -0.05919
-0.05010 -0.08148 0.08623
0.03499 0.03768 -0.07093
0.00757 0.00936 -0.01168
0.00267 -0.07931 0.07228
0.03265 0.04256 -0.07319
0.01277 0.04327 -0.02851
0.01163 -0.08795 0.08572
0.00090 0.00597 -0.01420
-0.04890 0.04591 -0.06480
0.00633 0.01966 -0.00639
0.00460 -0.09070 0.08768
0.03713 0.05012 -0.06637
0.05024 0.04532 -0.06240
0.05882 0.07244 -0.04883
0.05065 0.04391 -0.06124
0.00759 0.05495 -0.04078
0.03635 0.08214 -0.06948
0.04976 0.04510 -0.06235
-0.01176 -0.07327 0.08412
0.02375 0.07387 -0.08525
-0.00137 0.00307 -0.01223
-0.01081 0.06923 -0.08842
0.04756 0.10303 -0.07778
-0.00490 0.06804 -0.06961
0.02474 -0.06572 0.08101
0.04120 0.03853 -0.07016
-0.00260 0.04008 -0.02382
-0.00260 0.04008 -0.02382
0.05129 0.04161 -0.05999
0.00495 0.01659 -0.01053
0.04527 0.08556 -0.07420
-0.01471 -0.05681 0.08001
-0.01355 -0.05782 0.08182
0.00905 0.00960 -0.00285
-0.00246 0.04223 -0.02606
-0.01223 0.10471 -0.11425
0.00753 0.01190 -0.00847
0.05249 -0.07236 0.08207
0.01384 0.04282 -0.02282
0.03389 0.12723 -0.08823
-0.02845 0.04929 -0.01375
0.05054 0.08127 -0.06989
0.02781 0.06666 -0.03760
0.05924 0.09008 -0.04865
0.00308 0.01782 0.00931
0.00439 -0.00204 -0.00792
0.03482 0.07555 -0.06693
-0.01434 0.11574 -0.13458
0.00112 0.12196 -0.11979
0.02482 0.06905 -0.04741
-0.09461 -0.14173 0.09049
0.04172 0.04233 -0.07260
0.00916 0.00601 -0.01011
-0.03331 0.03850 -0.02005
0.03613 0.03581 -0.06911
-0.04007 0.04776 -0.04763
0.00202 0.03106 -0.01499
-0.09386 -0.14815 0.09460
-0.02418 0.12085 -0.12967
-0.03106 0.12097 -0.12829
0.05632 0.09295 -0.05291
0.02332 -0.08059 0.08470
-0.02234 0.11775 -0.10313
0.04019 0.05098 -0.06480
0.00492 0.02034 -0.01396
-0.05501 0.03859 -0.06233
0.04795 0.05818 -0.06674
-0.02385 -0.06528 0.08229
0.00026 0.01625 -0.01698
0.04813 0.11274 -0.08078
0.00350 0.04417 -0.02511
0.05143 -0.07976 0.08156
-0.05929 -0.15161 0.10438
0.04014 0.03662 -0.06966
-0.04329 0.03481 -0.05232
0.04459 0.06157 -0.04028
-0.03977 0.04224 -0.04875
-0.08964 -0.15061 0.10560
0.00463 0.04006 -0.02586
0.06576 0.08961 -0.04743
0.01294 0.09823 -0.09162
0.03234 0.08049 -0.07000
0.03864 0.04428 -0.06778
-0.02465 0.06270 -0.10403
0.02120 0.08887 -0.08928
-0.00352 0.04995 -0.06406
0.00690 -0.06467 0.08099
0.03775 0.03691 -0.07034
-0.03703 -0.06594 0.08298
-0.01772 -0.08208 0.08583
-0.00502 0.01400 -0.00994
0.02298 -0.06304 0.08063
0.00687 0.01797 -0.00705
-0.02455 0.03786 -0.01097
-0.02058 -0.05800 0.08038
-0.03828 -0.07226 0.08406
-0.05100 0.04508 -0.06394
-0.02502 -0.08249 0.08637
-0.02326 -0.05868 0.08055
-0.00610 -0.08059 0.08570
-0.04993 -0.06641 0.08325
0.03995 0.03778 -0.06991
0.00717 -0.08756 0.08674
-0.01704 -0.07954 0.08545
0.02679 -0.07311 0.08288
0.04577 -0.07110 0.08180
0.02479 -0.07232 0.08291
-0.04327 -0.06412 0.08288
-0.04369 -0.08102 0.08591
0.03624 0.04269 -0.07169
0.00836 0.01349 -0.00342
0.00749 0.09103 -0.09094
0.04077 0.04397 -0.07128
0.01117 0.04946 -0.03859
-0.04205 0.09255 -0.06981
0.02739 0.09481 -0.08475
-0.01692 0.10703 -0.11724
0.04458 0.06315 -0.04095
0.05709 0.08249 -0.02846
0.02958 0.12177 -0.12677
0.02958 0.12177 -0.12677
0.05476 0.12921 -0.09865
0.05484 0.12672 -0.11776
0.05509 0.12660 -0.11935
0.05972 0.12365 -0.05620
0.00071 0.07917 -0.07322
-0.04708 0.03954 -0.05595
0.02912 0.12283 -0.13307
0.06300 0.09920 -0.05746
0.05140 -0.07390 0.08243
0.05376 0.10378 -0.03527
0.01861 -0.05644 0.07882
