# .PCD v.7 - Point Cloud Data file format
VERSION .7
FIELDS x y z
SIZE 4 4 4
TYPE F F F
COUNT 1 1 1
WIDTH 1876
HEIGHT 1
VIEWPOINT 0 0 0 1 0 0 0
POINTS 1876
DATA ascii
-0.00847 -0.04554 0.01162
-0.00417 0.11422 -0.15952
0.02679 -0.00315 0.00202
0.02679 -0.00315 0.00202
-0.00919 -0.02234 0.00719
0.00084 -0.03738 0.00981
0.05295 -0.03651 0.00703
-0.09813 -0.03143 0.01361
-0.04771 0.00001 0.00513
-0.06187 -0.01575 0.00874
0.06381 -0.01421 0.00241
0.06379 -0.01416 0.00229
-0.00611 -0.06078 0.01437
-0.00609 -0.06088 0.01447
-0.01688 -0.00533 0.00455
-0.02266 -0.04569 0.01244
0.02696 -0.00690 0.00281
0.02696 -0.00690 0.00281
-0.08557 -0.01590 0.01066
0.02135 -0.03352 0.00801
-0.03691 -0.06099 0.01585
-0.03681 -0.06089 0.01583
-0.07765 -0.05285 0.01642
-0.07765 -0.05283 0.01639
0.10106 -0.02948 0.00380
-0.08618 -0.01961 0.01060
-0.04701 -0.05263 0.01495
0.04031 -0.00627 0.00196
-0.05209 -0.03758 0.01225
-0.04024 -0.05292 0.01456
0.11238 -0.02119 0.00159
0.11253 -0.02117 0.00192
0.05080 -0.05159 0.01012
0.01716 -0.06045 0.01312
-0.01448 -0.05152 0.01300
-0.07849 -0.03171 0.01249
0.03005 -0.06639 0.01374
0.02181 -0.02971 0.00726
0.07400 -0.03656 0.00608
0.00589 -0.01864 0.00594
-0.01100 -0.03747 0.01014
-0.01100 -0.03747 0.01014
-0.01128 -0.03379 0.00959
-0.03944 -0.00314 0.00551
-0.08842 -0.02287 0.01165
0.04238 -0.05214 0.01035
0.04277 -0.05257 0.01144
0.01906 -0.03679 0.00860
0.01484 -0.01692 0.00537
0.01483 -0.01694 0.00543
-0.01976 -0.04507 0.01200
-0.01620 -0.00331 0.00423
-0.01622 -0.00338 0.00437
0.04140 -0.01730 0.00423
-0.06556 -0.01940 0.00950
-0.06554 -0.01942 0.00953
-0.08668 -0.03767 0.01532
0.00956 -0.05227 0.01182
-0.01122 0.13616 -0.14500
0.01967 -0.06366 0.01353
0.01969 -0.06365 0.01355
0.00825 -0.01870 0.00564
-0.09441 -0.05007 0.01695
-0.09691 -0.04631 0.01633
-0.06535 -0.02306 0.01023
0.00386 -0.05247 0.01225
-0.01986 -0.05258 0.01334
0.02144 -0.03734 0.00885
0.07150 -0.00275 0.00030
-0.03923 -0.01740 0.00811
-0.03924 -0.01747 0.00818
-0.01844 -0.06780 0.01603
0.05733 -0.04827 0.00891
0.01603 -0.01819 0.00554
0.09615 -0.05107 0.00807
-0.02280 -0.03384 0.01005
-0.04054 -0.04916 0.01377
0.04950 -0.00120 0.00085
-0.08603 -0.02320 0.01135
0.04822 -0.06687 0.01288
0.00130 -0.06755 0.01498
-0.03526 -0.03320 0.01046
-0.06777 -0.05284 0.01579
0.07503 -0.04807 0.00805
0.07505 -0.04803 0.00803
-0.02014 -0.04907 0.01273
-0.02014 -0.04907 0.01273
0.00104 -0.05198 0.01218
0.07530 -0.05185 0.00879
0.01329 -0.03302 0.00814
0.04466 -0.05960 0.01138
-0.05524 -0.05325 0.01541
-0.09556 -0.03834 0.01451
-0.09558 -0.03835 0.01450
-0.06461 -0.03364 0.01037
-0.06454 -0.03370 0.01208
-0.08906 -0.04620 0.01589
-0.08905 -0.04630 0.01598
-0.00699 -0.04743 0.01224
-0.00702 -0.04735 0.01205
-0.01583 0.12319 -0.14280
-0.04555 0.01872 -0.07292
0.10505 -0.04789 0.00705
0.10507 -0.04791 0.00708
-0.00173 -0.05276 0.01283
0.01353 0.13632 -0.14352
0.01379 0.13594 -0.14207
-0.06088 -0.05349 0.01590
-0.06091 -0.05342 0.01579
-0.09580 -0.03478 0.01403
-0.09581 -0.03473 0.01387
0.05031 -0.06324 0.01174
0.05033 -0.06365 0.01249
-0.06343 -0.03340 0.01195
-0.04020 -0.04521 0.01284
-0.05799 -0.05274 0.01542
0.01897 -0.03533 0.00843
0.05096 -0.05953 0.01115
0.00425 -0.00210 0.00269
0.00676 -0.01760 0.00566
0.01985 -0.06736 0.01399
-0.01530 0.12445 -0.14318
-0.01505 -0.00322 0.00429
-0.01511 -0.00315 0.00402
-0.01234 0.13199 -0.15093
0.03686 -0.05240 0.01090
0.03687 -0.05240 0.01092
-0.00594 -0.04879 0.01250
-0.00590 -0.04868 0.01226
0.05727 -0.03507 0.00686
0.03894 -0.01908 0.00461
0.03028 -0.01952 0.00503
0.04913 -0.00569 0.00144
0.07905 -0.03298 0.00520
-0.03760 -0.03271 0.01000
-0.02409 -0.00239 0.00433
-0.08100 -0.03311 0.01306
0.10513 -0.05164 0.00757
0.10517 -0.05168 0.00767
0.02553 -0.00197 0.00203
0.00300 0.23001 -0.20467
0.06994 -0.00572 0.00060
-0.02692 -0.00258 0.00502
0.01146 -0.00591 0.00354
-0.09588 -0.04899 0.01686
-0.02690 -0.00477 0.00524
-0.06868 -0.04910 0.01538
-0.03216 -0.06398 0.01615
-0.03215 -0.06433 0.01649
-0.05337 -0.03317 0.01151
-0.01352 -0.04977 0.01274
-0.02189 -0.03299 0.01037
0.10551 -0.03320 0.00482
0.06707 -0.04715 0.00843
0.04965 -0.06147 0.01165
0.02892 -0.06123 0.01219
-0.03083 -0.04764 0.01286
-0.03219 -0.01886 0.00803
-0.08730 -0.01859 0.01063
0.02413 -0.01612 0.00466
-0.01259 -0.03655 0.01012
-0.00466 -0.04862 0.01236
-0.00478 -0.04854 0.01199
-0.00484 0.12859 -0.15763
0.03602 -0.06242 0.01271
0.04957 -0.04930 0.00934
-0.04190 -0.05176 0.01420
-0.02161 -0.04808 0.01290
-0.02011 -0.06682 0.01610
-0.00133 -0.01634 0.00605
0.10662 -0.01440 -0.00661
0.00967 -0.06802 0.01562
-0.05322 -0.03562 0.01181
-0.01881 -0.03507 0.00987
0.00501 -0.03144 0.00883
0.03878 -0.01589 0.00360
0.04076 -0.05114 0.01035
-0.02824 -0.04772 0.01277
0.05182 -0.03434 0.00659
0.04665 -0.04952 0.00961
-0.02162 -0.04623 0.01242
0.02696 -0.03612 0.00835
-0.06972 -0.01735 0.00866
0.04658 -0.04728 0.00938
-0.02251 -0.06675 0.01628
-0.01421 -0.06547 0.01570
0.03842 -0.05101 0.01077
0.05614 -0.04741 0.00915
0.06707 -0.05106 0.00903
0.00210 -0.05129 0.01198
0.05620 -0.04552 0.00868
0.01611 0.17527 -0.19416
0.09028 -0.04673 0.00724
0.02911 0.17105 -0.15804
0.01228 -0.06584 0.01334
0.04027 -0.06595 0.01322
-0.09363 -0.02083 0.01128
-0.01129 0.10891 -0.14756
0.02696 -0.03089 0.00722
-0.03006 -0.01892 0.00792
0.02345 -0.00609 0.00231
0.05385 0.18867 -0.23275
-0.04818 -0.05049 0.01420
0.03020 -0.03480 0.00818
0.00440 0.13501 -0.16201
0.05167 -0.01481 0.00285
0.09094 -0.01655 0.00187
-0.03119 -0.03713 0.01119
-0.06317 -0.00286 0.00560
-0.04287 -0.03534 0.01150
-0.00907 0.14715 -0.15060
-0.09504 -0.02187 0.01167
0.07076 -0.02060 0.00315
0.11122 -0.02031 0.00041
0.02871 -0.00311 0.00312
-0.09543 -0.04753 0.01604
-0.09545 -0.04770 0.01652
0.09506 -0.01972 0.00207
-0.04775 -0.01899 0.00860
-0.03086 -0.03109 0.00988
-0.05020 -0.02039 0.00894
-0.06221 -0.02205 0.00948
0.02315 -0.05057 0.01195
0.05994 -0.02058 0.00420
0.06096 0.00035 -0.00041
0.06781 -0.00556 0.00056
0.02480 -0.02044 0.00554
-0.00219 -0.01902 0.00683
0.03024 -0.03184 0.00753
-0.02037 -0.02034 0.00696
-0.09881 -0.02253 0.01225
-0.02980 -0.02412 -0.03758
0.05958 -0.01492 0.00246
0.08457 -0.04781 0.00863
-0.07561 -0.04783 0.01479
0.05483 -0.00605 0.00096
0.04273 -0.01759 0.00447
0.01082 0.18113 -0.17331
-0.01290 0.11111 -0.14956
-0.01255 0.19932 -0.19377
-0.03325 -0.04609 0.01279
-0.01457 -0.03671 0.01026
0.01786 -0.03055 0.00766
0.04692 -0.06094 0.01233
0.08218 -0.04800 0.00787
0.05251 -0.00464 0.00092
-0.03025 -0.06727 0.01664
0.01016 -0.03310 0.00713
0.01422 -0.06391 0.01409
0.04983 -0.05119 0.01010
-0.06157 -0.03760 0.01284
-0.09076 -0.04708 0.01598
0.00193 -0.04569 0.01072
-0.03111 -0.03509 0.01068
-0.06909 -0.03773 0.01369
-0.01467 -0.03072 0.00923
-0.03308 -0.05215 0.01437
-0.06588 0.21261 -0.22195
0.09098 -0.01893 0.00142
-0.03010 -0.01651 0.00767
0.10364 -0.01804 0.00151
-0.03750 -0.00196 0.00602
0.04516 -0.00010 0.00019
0.02323 0.00011 0.00139
0.09151 -0.03263 0.00339
-0.00693 -0.06699 0.01556
-0.00486 0.13999 -0.15719
0.03367 -0.06063 0.01207
-0.00139 -0.02138 0.00685
0.04433 -0.05034 0.00997
-0.00719 -0.06097 0.01396
0.02721 -0.00107 0.00197
-0.01594 0.12713 -0.14219
-0.01826 -0.06435 0.01579
-0.01829 -0.06431 0.01569
-0.04408 -0.04624 0.01333
0.07868 -0.03012 0.00479
-0.09644 -0.02254 0.01173
0.09949 -0.03463 0.00307
0.02906 -0.03638 0.00893
-0.08957 -0.01676 0.00978
0.07230 -0.01482 0.00177
0.01218 -0.03059 0.00817
-0.09082 -0.03200 0.01281
-0.05089 -0.03265 0.01331
0.04542 0.25877 -0.28478
0.11030 -0.01424 -0.00049
0.00276 0.14176 -0.15969
0.09950 -0.04787 0.00716
0.08813 -0.05078 0.00805
0.10522 -0.01481 0.00075
-0.03954 -0.00001 0.00447
-0.03776 -0.06122 0.01578
0.01119 0.15572 -0.15377
-0.01132 -0.06105 0.01458
0.00985 0.17216 -0.17037
0.00730 0.17342 -0.17985
-0.01907 -0.03256 0.00931
-0.06665 -0.00614 0.00597
0.04266 -0.03034 0.00591
-0.00330 0.09408 -0.02162
0.04445 -0.04510 0.00896
0.10615 -0.03137 0.00770
-0.06008 0.21949 -0.23784
0.01279 0.14999 -0.14741
-0.00928 -0.05175 0.01311
0.01366 0.20918 -0.17017
-0.09437 -0.03465 0.01354
0.07506 -0.03619 0.00656
-0.06703 -0.04708 0.01541
-0.01820 -0.04584 0.01168
0.10134 -0.04533 0.00704
0.04074 -0.06260 0.01123
-0.07752 -0.01656 0.00968
-0.01430 0.13069 -0.14038
-0.01391 0.12355 -0.14985
-0.01655 0.11768 -0.14440
0.03750 0.26426 -0.30441
0.10016 -0.03003 0.00400
0.07683 -0.02991 0.00460
0.03778 -0.00530 0.00213
-0.01799 -0.04965 0.01284
0.02204 -0.06439 0.01406
0.04285 -0.04178 0.06740
0.04691 -0.07379 0.13372
-0.01462 -0.01567 0.00685
-0.00787 0.11754 -0.15952
0.04196 -0.00483 0.00162
0.01282 0.11164 -0.15094
-0.00369 0.21943 -0.19905
0.00122 0.14951 -0.16141
-0.07853 -0.03425 0.01320
-0.09642 -0.03682 0.01495
0.00176 0.12117 -0.16193
-0.02296 -0.00671 0.00507
0.03847 -0.01728 0.00425
0.01399 -0.06771 0.01493
0.00427 -0.00440 0.00348
-0.07256 -0.05027 0.01534
-0.01762 -0.00638 0.00491
-0.04197 -0.04812 0.01369
-0.05983 -0.00627 0.00591
-0.01811 -0.01868 0.00708
-0.01202 -0.00034 0.00336
-0.05397 -0.02148 0.00883
-0.02897 -0.00062 0.00426
0.03110 -0.06618 0.01277
-0.01229 0.20328 -0.21569
-0.01440 0.12456 -0.14872
-0.00448 0.26048 -0.27831
0.03409 -0.01493 0.00389
0.02917 -0.01523 0.00444
0.05884 -0.00618 0.00100
-0.00655 0.00008 0.00315
0.05803 -0.04441 0.00824
-0.03795 -0.03687 0.01149
-0.01032 -0.06091 0.01469
-0.00021 -0.02123 0.00674
0.10349 -0.01405 0.00093
0.01100 -0.06053 0.01338
0.02317 -0.01854 0.00518
0.02305 -0.01839 0.00493
0.10160 -0.03574 0.00495
0.06029 -0.02936 0.00533
0.04391 -0.00530 0.00170
-0.06785 -0.03207 0.01215
0.06465 -0.00282 0.00016
0.06467 -0.00285 0.00020
0.09315 -0.05034 0.00850
0.09311 -0.05007 0.00817
-0.00258 -0.02998 0.00841
-0.03159 -0.06189 0.01564
0.04470 -0.05958 0.01138
-0.05228 -0.05256 0.01502
0.02184 -0.02969 0.00722
0.10533 -0.04385 0.00564
0.10550 -0.04402 0.00597
0.00574 -0.00338 0.00320
0.00576 -0.00337 0.00320
0.03890 -0.03714 0.00782
-0.04814 -0.00747 0.00649
-0.00912 -0.01880 0.00662
-0.00912 -0.01880 0.00662
0.05993 -0.03687 0.00672
0.05983 -0.03334 0.00624
0.05980 -0.03333 0.00622
0.05642 -0.00250 0.00074
-0.06511 -0.01528 0.00850
-0.06515 -0.01528 0.00852
0.09896 -0.04387 0.00599
-0.05917 -0.00748 0.00706
0.05080 -0.00675 0.00169
-0.01595 -0.04817 0.01254
-0.00179 -0.00303 0.00355
-0.00183 -0.00333 0.00379
0.11152 -0.01735 0.00114
0.00577 -0.00692 0.00350
0.07639 -0.01810 0.00292
-0.05801 -0.05222 0.01492
-0.05819 -0.05193 0.01442
0.09532 -0.02142 0.00310
-0.03283 -0.03484 0.01112
0.05757 -0.05200 0.00960
0.10757 -0.01872 0.00152
-0.04328 -0.00466 0.00600
0.05067 -0.06717 0.01254
0.04651 -0.04467 0.00286
-0.08874 -0.05190 0.01690
0.01985 -0.06729 0.01394
-0.00911 -0.02240 0.00732
-0.07294 -0.01930 0.00996
-0.04942 -0.00365 0.00570
0.04920 -0.03207 0.00685
-0.04985 -0.00633 0.00610
0.03077 -0.01838 0.00471
-0.03592 -0.06486 0.01603
-0.06858 -0.04918 0.01552
0.03066 -0.01684 0.00443
-0.01769 -0.00454 0.00455
-0.06467 -0.03818 0.01304
0.00430 -0.00608 0.00383
-0.05631 -0.03350 0.01197
0.05993 -0.00514 0.00082
-0.03718 -0.01863 0.00770
-0.03707 -0.01885 0.00842
0.04699 -0.05008 0.01071
-0.02035 -0.01764 0.00735
-0.10032 -0.02337 0.01225
-0.10038 -0.02351 0.01252
-0.09355 -0.05067 0.01657
0.09765 -0.02678 0.02528
0.04922 -0.06634 0.01274
-0.01434 -0.06303 0.01509
0.07275 -0.03091 0.00503
-0.05185 -0.00072 0.00556
0.03156 -0.01600 0.00419
0.09696 -0.03205 0.00561
0.01475 -0.00283 0.00209
-0.04250 -0.03377 0.01199
-0.01531 -0.04708 0.01285
0.01889 -0.01734 0.00416
0.09601 -0.01678 0.00228
0.01643 -0.03297 0.00731
0.08210 -0.01911 0.00261
-0.09543 -0.05063 0.01707
0.06749 0.00046 -0.00088
-0.01125 -0.03054 0.00859
-0.02197 -0.00673 0.00553
-0.02400 -0.03101 0.00976
-0.00045 -0.06780 0.01509
0.03099 -0.00258 -0.00006
-0.01270 -0.06655 0.01595
0.06997 -0.03596 0.00629
0.02408 -0.01622 0.00463
-0.04165 -0.01598 0.00781
0.09232 -0.03287 0.00362
-0.01766 -0.00059 0.00395
0.11370 -0.02041 0.00237
0.04060 -0.03017 0.00651
-0.10204 -0.02237 0.01237
-0.00212 -0.04856 0.01173
0.00915 -0.00040 0.00237
0.05979 -0.03008 0.00524
0.05174 -0.04541 0.00875
0.05386 -0.04526 0.00850
0.09923 -0.01487 0.00114
-0.04511 -0.00057 0.00510
-0.01611 -0.04554 0.01211
0.04441 -0.06036 0.01142
-0.03216 -0.02237 0.00850
0.00102 -0.02196 0.00712
-0.00576 -0.00038 0.00312
0.05193 -0.04864 0.00968
0.05193 -0.05128 0.01015
0.07153 -0.04487 0.00744
-0.00005 -0.00636 0.00390
0.01420 -0.06379 0.01398
0.05109 -0.02154 0.00496
-0.01404 -0.00128 0.00384
0.00178 0.12870 -0.16182
0.04773 -0.02112 0.00425
-0.00739 -0.00046 0.00334
-0.01954 -0.00654 0.00482
0.07642 -0.03490 0.00526
-0.04499 -0.00662 0.00638
-0.02960 -0.02241 0.00846
0.04458 -0.05121 0.00992
-0.05644 -0.03730 0.01239
0.04070 -0.06044 0.01204
0.01223 0.14441 -0.14852
0.08825 -0.04533 0.00745
0.08840 -0.03585 0.00549
-0.06557 -0.01635 0.00870
0.03117 -0.06029 0.01087
0.09273 -0.04583 0.00661
0.09275 -0.04584 0.00664
-0.04274 -0.00706 0.00601
-0.01649 -0.06125 0.01496
-0.00356 -0.01571 0.00581
-0.02386 -0.04633 0.01235
0.09200 -0.01522 0.00122
-0.03486 -0.02115 0.00890
0.04661 -0.03614 0.00787
0.05538 0.00066 0.00004
-0.03295 -0.01986 0.00774
0.02815 -0.00509 0.00256
-0.00302 0.14980 -0.15883
-0.03794 -0.03107 0.01065
-0.07338 -0.02240 0.01001
-0.02190 -0.01611 0.00720
-0.02230 -0.02112 0.00861
-0.06873 -0.02089 0.01024
-0.06916 -0.03182 0.01198
-0.00485 0.14972 -0.15538
0.09663 -0.01442 0.00056
0.10424 -0.04985 0.00752
-0.05915 -0.03628 0.01295
0.02403 -0.03182 0.00761
-0.03306 -0.00133 0.00421
0.00781 -0.05136 0.01239
0.08231 -0.03405 0.00593
-0.00034 -0.01881 0.00637
0.05080 -0.00675 0.00169
0.01425 0.11507 -0.15144
-0.02203 -0.03094 0.00942
0.01002 -0.06081 0.01347
0.01466 0.11467 -0.15219
-0.06449 -0.00140 0.00659
0.03656 -0.01508 0.00295
0.01616 -0.06078 0.01325
0.04058 -0.00802 0.00287
-0.01696 0.12102 -0.14588
0.04812 0.00027 0.00054
0.04767 -0.02995 0.00610
-0.07739 0.19326 -0.23810
0.00575 -0.01515 0.00540
-0.01447 -0.00608 0.00569
0.00590 -0.00706 0.00377
-0.07442 0.19310 -0.24868
0.00334 -0.00670 0.00396
-0.06251 -0.00015 0.00583
0.01354 -0.02191 0.00624
-0.00813 0.11064 -0.15699
0.02131 -0.03354 0.00807
-0.04073 -0.01562 0.00769
0.01895 -0.03024 0.00760
0.01896 -0.03006 0.00744
0.02574 -0.03027 0.00722
0.02147 -0.03733 0.00885
0.00582 -0.02179 0.00645
-0.01398 0.11100 -0.13940
0.04679 -0.01822 0.00414
-0.03880 -0.03067 0.01045
-0.01729 0.12102 -0.13997
-0.00828 0.10992 -0.12226
-0.02261 -0.04555 0.01242
-0.01034 -0.06091 0.01467
0.07379 -0.01892 0.00262
-0.08611 -0.01947 0.01045
0.05161 -0.01847 0.00383
0.05157 -0.01840 0.00375
-0.00487 -0.00567 0.00582
-0.01549 -0.06072 0.01471
-0.01193 0.13139 -0.14227
-0.00382 0.11492 -0.16186
0.03874 -0.06582 0.01354
0.04896 -0.00176 0.00062
-0.04054 -0.04913 0.01374
0.01158 -0.00629 0.00384
-0.01724 -0.00206 0.00427
0.05060 -0.06719 0.01251
-0.04336 -0.00470 0.00588
0.00634 -0.05097 0.01183
0.09637 -0.04489 0.00707
-0.10502 0.19158 -0.23800
-0.01647 0.15806 -0.14615
0.11274 -0.02042 0.00199
0.00807 -0.06712 0.01407
0.00841 -0.06770 0.01492
-0.09277 0.20167 -0.24754
0.00049 -0.01941 0.00587
-0.03282 -0.03481 0.01114
0.02225 -0.01916 0.00531
0.00687 -0.02145 0.00654
0.04128 -0.00406 0.00159
-0.00787 0.10954 -0.15905
0.01756 -0.05038 0.01002
-0.08501 0.19858 -0.24938
-0.08523 0.19869 -0.24979
-0.00852 0.10795 -0.15140
-0.09363 0.20021 -0.24742
-0.09343 0.19993 -0.24686
-0.01437 0.11658 -0.13712
-0.03591 -0.06480 0.01605
0.12054 -0.05764 0.00516
-0.02213 -0.06360 0.01326
-0.02213 -0.06360 0.01326
-0.00507 0.15042 -0.15006
-0.10324 0.18478 -0.21818
-0.01283 0.13059 -0.14513
-0.08616 0.20847 -0.24627
-0.01101 0.13566 -0.14444
0.00175 0.15214 -0.15388
0.00127 0.15246 -0.15478
0.02890 -0.05143 0.01086
-0.06672 -0.03368 0.01228
-0.00531 0.11478 -0.15840
-0.00953 0.14123 -0.15024
-0.00656 0.14976 -0.15222
-0.00107 0.13732 -0.16022
-0.09976 0.20099 -0.25106
-0.10584 -0.02360 0.01280
-0.05126 -0.04826 0.01431
-0.01167 0.12654 -0.15284
-0.01148 0.12644 -0.14663
-0.01311 0.11169 -0.14573
-0.01222 0.10841 -0.14765
-0.01220 0.10827 -0.14751
0.00722 0.12867 -0.15814
0.04921 -0.06455 0.01233
0.17842 -0.11689 0.01373
-0.01729 0.12372 -0.13932
-0.01318 0.12229 -0.15169
-0.08743 -0.01671 0.01024
-0.00875 0.14584 -0.15181
-0.08127 -0.03771 0.01405
-0.00176 0.13990 -0.17289
-0.00895 0.13746 -0.12940
-0.01301 0.12581 -0.15042
0.07194 -0.03041 0.00369
-0.00872 0.14331 -0.15169
-0.01216 0.12796 -0.14216
-0.00452 0.15028 -0.15456
0.00909 0.14959 -0.15168
0.00928 0.14951 -0.15132
-0.01185 0.12703 -0.15052
-0.01072 0.13388 -0.15054
-0.01415 0.12269 -0.14265
-0.01371 0.12407 -0.15061
0.10159 -0.02073 0.00222
-0.01014 0.13519 -0.15085
-0.01876 -0.03081 0.00946
-0.00648 0.11124 -0.15996
-0.04578 -0.01674 0.00834
-0.00311 0.00242 -0.01003
0.03238 -0.06208 0.01174
0.03246 -0.06212 0.01181
0.05636 -0.03632 0.00718
0.00945 -0.00634 0.00377
0.02595 -0.01757 0.00474
0.06837 -0.01537 0.00275
-0.00615 0.13926 -0.12932
-0.01035 0.13565 -0.13087
0.09208 -0.03491 0.00533
-0.05147 -0.00736 0.00750
0.01254 -0.01583 0.00561
0.01117 -0.03230 0.00805
0.00130 -0.01522 0.00563
0.03928 -0.05020 0.07175
-0.02393 -0.00640 0.00507
-0.01196 0.13435 -0.13232
0.06695 -0.04497 0.00771
-0.03846 -0.06636 0.01814
-0.00602 0.10983 -0.15801
-0.00602 0.10983 -0.15801
0.01889 -0.01728 0.00410
0.00937 -0.03234 0.00919
0.05410 -0.01633 0.00377
-0.04314 -0.00129 0.00616
-0.00945 -0.06117 0.01438
0.00079 -0.00244 0.00558
0.01264 0.11213 -0.15213
-0.04867 -0.00442 0.00580
-0.02335 0.17357 -0.16454
0.03835 -0.04533 0.00924
0.01192 0.15227 -0.15136
-0.09164 -0.01648 0.01034
0.02949 -0.06028 0.01213
-0.03352 -0.07431 0.04520
-0.05635 -0.03153 0.01156
0.04633 -0.03549 0.00664
-0.00947 0.16192 -0.16140
0.01447 -0.03111 0.00791
0.04042 -0.04598 0.00885
0.09890 -0.01971 0.00131
-0.10823 0.20136 -0.18522
0.00189 0.14241 -0.14608
-0.05977 -0.03741 0.01274
-0.01285 0.11789 -0.14389
-0.06890 -0.03805 0.03512
-0.00699 0.11319 -0.16145
0.04467 -0.03323 0.00687
-0.00373 0.14821 -0.15757
-0.11097 0.20315 -0.18820
-0.08705 -0.03563 0.01335
-0.03171 -0.02983 0.01071
0.02707 -0.00098 0.00167
-0.08935 -0.02253 0.01145
-0.05716 -0.02115 0.00813
0.06951 -0.04596 0.00776
0.07351 -0.00478 0.00004
-0.00987 0.15274 -0.14613
-0.00441 0.10700 -0.16249
-0.08786 0.19733 -0.25083
-0.04557 -0.00134 0.00574
-0.03153 -0.00122 0.00310
-0.06899 -0.03492 0.01464
-0.02259 -0.04388 0.01170
0.00246 0.11608 -0.16074
-0.10220 -0.01916 0.01128
0.01612 -0.04764 0.01061
-0.10231 0.18420 -0.21570
-0.04107 -0.03157 0.00999
-0.04367 -0.01622 0.00640
0.04641 -0.01015 0.00199
-0.00765 0.14485 -0.15179
-0.01609 -0.05027 0.01404
-0.04979 -0.03288 0.01137
-0.00153 0.14319 -0.15031
-0.01769 0.11863 -0.14695
0.01214 0.15940 -0.15585
-0.09022 -0.04912 0.01604
0.00827 -0.01024 0.00388
-0.00944 0.16797 -0.17101
0.00714 0.13551 -0.15757
-0.00325 0.00241 -0.03364
-0.03585 -0.02701 0.00981
0.02452 -0.04153 0.01016
-0.10190 0.18320 -0.21666
-0.00016 -0.01163 0.00662
0.04980 -0.02487 0.00449
0.00945 0.15636 -0.15686
0.04942 -0.01842 0.00454
0.06977 -0.05154 0.01078
0.01856 -0.06576 0.01370
0.02739 -0.06416 0.01413
0.08230 -0.03381 0.00571
-0.04150 -0.04734 0.01384
0.00470 -0.00510 0.00324
0.07682 -0.04689 0.00790
0.04366 -0.01637 0.00284
0.02163 -0.03066 0.00758
0.10029 -0.03890 0.03365
-0.00430 -0.00678 0.00497
-0.03687 0.17652 -0.19722
0.03866 -0.02075 0.00425
-0.03941 -0.06248 0.01737
-0.05296 -0.03757 0.01253
0.07150 -0.04627 0.00769
0.00591 -0.03375 0.00888
-0.06207 -0.00511 0.00618
0.08128 -0.01697 0.00292
0.03307 0.28535 -0.28260
0.08522 -0.04901 0.00650
0.07890 -0.04672 0.00799
-0.05063 -0.00720 0.00690
0.11030 -0.01597 0.00020
-0.04814 -0.03115 0.00752
-0.04809 -0.03116 0.00836
0.09123 -0.02875 -0.00048
0.03603 0.29552 -0.28201
0.04187 -0.06689 0.01312
0.05972 0.18122 -0.23720
-0.03457 -0.06612 0.01801
-0.07843 -0.03155 0.01224
-0.02803 -0.00608 0.00840
0.01071 -0.00737 0.00461
0.01032 -0.00647 0.00338
0.05873 0.26158 -0.26670
-0.00832 -0.05211 0.01261
-0.08628 -0.03709 0.01483
0.02569 -0.06209 0.01007
-0.07499 0.19518 -0.22836
-0.08235 -0.03792 0.01330
0.08908 -0.04596 0.00686
-0.07637 0.19434 -0.24032
-0.01476 -0.01713 0.00702
-0.05433 0.23455 -0.22411
-0.04014 -0.04530 0.01296
0.03552 0.22583 -0.23381
-0.09800 -0.03827 0.01507
0.05988 -0.03705 0.00708
0.02445 -0.04698 0.00946
-0.02279 0.28979 -0.25866
-0.01365 -0.03578 0.01018
0.02795 -0.05060 0.01112
0.01483 0.12530 -0.14983
-0.08578 -0.03287 0.01305
-0.01193 0.23968 -0.25957
-0.01186 0.23740 -0.22393
0.00632 0.27600 -0.26086
-0.00455 0.27396 -0.25906
-0.04308 -0.03675 0.01082
0.01151 0.16233 -0.12498
-0.02028 0.23131 -0.21982
-0.05616 -0.01668 0.00760
-0.10584 -0.02364 0.01284
-0.10346 0.18853 -0.24224
0.09060 0.28589 -0.27114
-0.05822 -0.09533 0.20011
0.03707 0.26549 -0.28753
0.07175 -0.05124 0.00954
0.05656 0.18624 -0.24519
0.03751 0.28412 -0.29089
-0.08929 0.17846 -0.23032
-0.09957 0.20833 -0.24488
0.10037 0.31632 -0.25430
-0.03478 0.30631 -0.32716
-0.03580 0.32455 -0.36189
0.04607 -0.00076 0.00046
-0.07802 0.18470 -0.22790
-0.09960 0.25202 -0.30755
-0.10573 0.25673 -0.24374
0.05251 0.16757 -0.11855
0.07531 0.31324 -0.35797
0.07888 0.31398 -0.34529
-0.02245 0.23259 -0.16318
-0.02987 -0.00181 0.00393
0.01915 0.12025 -0.14479
-0.02567 0.23429 -0.30512
0.08204 0.30419 -0.27464
0.09008 0.27980 -0.26019
-0.07069 0.17850 -0.16651
-0.02990 0.22907 -0.28550
-0.07981 0.18437 -0.23420
-0.01382 -0.04614 0.01199
-0.05934 -0.05162 0.01484
-0.01218 -0.03572 0.01002
0.01233 -0.06640 0.01447
0.02932 -0.05039 0.01052
-0.03115 -0.01935 0.00778
0.07889 -0.03279 0.00470
-0.06776 -0.03442 0.01263
0.02116 0.20719 -0.19444
-0.00261 0.10419 -0.15316
-0.01436 0.11823 -0.14654
0.02899 -0.06253 0.01156
-0.07020 -0.01760 0.01077
0.10562 -0.03394 0.00512
-0.08743 -0.05224 0.01714
0.07418 -0.04995 0.00861
0.07254 -0.00261 0.00000
-0.01855 -0.00347 0.00426
0.03502 -0.06712 0.01361
-0.05818 -0.04969 0.01669
-0.05719 -0.03890 -0.01673
0.08485 -0.04879 0.00424
-0.02058 -0.01620 0.00748
0.00916 -0.04861 0.01299
0.02015 0.20480 -0.19524
0.05856 0.20457 -0.22089
0.03735 -0.01467 0.00365
0.04594 -0.01708 0.00398
0.01420 0.12758 -0.14950
0.01439 0.12797 -0.15002
-0.05118 -0.01755 0.00825
-0.05118 -0.01755 0.00825
0.07122 -0.01698 0.00018
0.04007 -0.01881 0.00503
0.06466 -0.00664 0.00112
-0.04060 -0.02242 0.00888
-0.02852 -0.02234 0.00816
0.06622 -0.26911 0.41824
0.01887 -0.03196 0.00810
-0.01974 -0.04506 0.01207
0.01266 0.15322 -0.15041
0.03044 -0.03039 0.00807
0.00975 -0.01620 0.00521
0.03174 -0.03388 0.00697
-0.01522 0.12429 -0.14458
-0.01193 0.12445 -0.13128
0.03665 -0.00476 0.00243
0.07309 -0.02952 0.00370
0.06218 -0.00471 0.00092
-0.09393 0.19192 -0.22562
-0.01807 0.12001 -0.14297
-0.00783 0.14779 -0.14956
-0.01087 0.13664 -0.14365
0.07257 -0.01913 0.00313
-0.02128 -0.06718 0.01585
0.01994 -0.03226 0.00769
0.04137 -0.00621 0.00246
-0.04051 0.05475 -0.13653
-0.01076 -0.02994 0.00883
-0.01402 0.13172 -0.14056
0.06559 0.19622 -0.25130
0.05567 -0.00382 0.00395
0.01444 -0.02107 0.00584
0.07290 -0.00020 0.00017
0.01421 0.12618 -0.15040
0.01385 0.12645 -0.15200
-0.01963 -0.00047 0.00366
0.02043 -0.03565 0.00926
-0.00558 -0.05118 0.01316
-0.01050 0.13170 -0.14980
-0.08849 -0.02149 0.01126
0.01532 0.12560 -0.14952
0.00872 0.14061 -0.15454
0.07425 -0.01856 0.00273
0.01269 -0.01165 0.02468
0.01441 -0.01863 0.00404
-0.07404 -0.01866 0.00939
-0.09268 -0.03337 0.01391
-0.01283 0.12778 -0.14548
-0.01718 -0.02030 0.01569
0.02447 -0.03508 0.00736
-0.01088 0.11133 -0.15112
-0.05680 -0.01967 0.00930
-0.09827 -0.03466 0.01606
-0.06776 -0.05274 0.01578
0.08425 0.20972 -0.25366
0.01443 0.11545 -0.15160
0.05753 0.18427 -0.23691
0.01092 0.14587 -0.14812
0.01771 0.16579 -0.15968
-0.08222 0.18897 -0.23596
0.08593 -0.02139 0.00249
-0.01176 0.13268 -0.14761
-0.08231 -0.03266 0.01293
-0.08231 -0.03266 0.01293
-0.03111 -0.04843 0.01378
0.01700 0.13247 -0.14273
0.06035 0.19583 -0.21092
-0.03446 -0.06463 0.01549
-0.06666 -0.03390 0.01246
0.06958 0.00122 -0.00246
-0.00931 0.13552 -0.15321
-0.05011 -0.01787 0.00855
-0.01527 0.25058 -0.28557
0.05512 0.19822 -0.20892
0.01694 0.14676 -0.13647
0.02192 0.19263 -0.18803
0.01633 0.12674 -0.15149
0.03879 -0.00445 -0.00038
0.01425 0.13153 -0.14184
-0.01575 -0.01557 0.00409
-0.05139 -0.04949 0.01614
-0.00825 0.14867 -0.16026
-0.00614 0.13891 -0.14383
0.07345 0.19354 -0.25840
-0.08736 -0.02236 0.01166
0.01856 -0.01619 0.00548
-0.06802 0.18293 -0.18101
0.05324 -0.02096 0.00429
0.01729 0.15616 -0.15076
-0.01078 0.13623 -0.15103
-0.01050 0.13447 -0.14698
-0.00326 0.23294 -0.21184
0.01741 0.12287 -0.14415
-0.01644 -0.01789 0.04089
-0.09214 0.23178 -0.24455
0.03941 -0.00244 0.00163
0.00950 0.15212 -0.14888
0.06066 0.20696 -0.25000
0.02342 -0.00192 0.00239
0.07681 -0.02221 0.00544
-0.01288 0.13407 -0.13728
-0.04177 -0.01958 0.01190
0.06318 0.24414 -0.27009
-0.01436 0.11372 -0.14852
-0.04240 -0.01727 0.00778
-0.01222 0.19050 -0.13296
-0.05634 -0.05459 0.07142
0.00474 -0.01535 0.00551
-0.09699 -0.03588 0.01430
0.00462 0.13931 -0.16351
-0.09199 -0.03456 0.01316
-0.07983 0.23051 -0.26749
-0.03575 -0.01431 0.00423
-0.06575 0.21284 -0.22269
-0.02834 -0.05067 0.01373
0.06254 0.24884 -0.27358
0.00926 0.14681 -0.15402
0.07055 -0.00402 -0.00002
-0.01449 -0.04954 0.01293
-0.02799 -0.00026 0.00426
0.06499 0.00060 -0.00059
-0.06564 -0.03313 0.01192
-0.01687 0.12305 -0.14183
0.07294 -0.05150 0.00890
-0.09593 -0.01828 0.01131
-0.00641 0.14757 -0.15432
0.00775 -0.01875 0.00584
-0.08058 -0.03661 0.01363
0.02235 -0.01627 0.00505
-0.06626 -0.02156 0.01028
0.01139 0.13964 -0.15116
-0.09412 -0.01777 0.00996
-0.04757 -0.03371 0.01112
0.02070 -0.01487 0.00459
0.05553 0.19897 -0.26682
0.04594 -0.01708 0.00398
0.01340 -0.02016 0.00584
-0.01665 -0.03698 0.01111
-0.01185 0.11851 -0.15408
0.00827 0.15095 -0.17539
-0.01694 -0.03343 0.00909
0.01604 0.22128 -0.20874
-0.06205 0.17982 -0.16742
0.04261 -0.03324 0.00672
0.03771 -0.00475 0.00960
0.09531 0.34335 -0.26073
0.09282 0.34569 -0.28152
0.03663 0.23561 -0.26173
0.10553 0.34049 -0.22584
0.04185 -0.06687 0.01301
0.10885 0.34812 -0.24916
0.08623 0.18698 -0.22589
-0.00283 -0.01498 0.00559
0.00133 -0.06224 0.01377
0.05824 0.20085 -0.24552
0.04715 -0.01607 0.00381
-0.09120 -0.03077 0.01051
-0.08428 -0.03692 0.01680
0.00358 -0.01779 0.00822
0.09945 -0.03177 0.00385
0.10308 0.34348 -0.23728
0.00902 -0.15886 0.47336
-0.07878 0.19362 -0.23405
0.05212 0.28033 -0.27229
-0.11137 0.34715 -0.27540
0.11719 0.31859 -0.21006
0.09056 0.28860 -0.26395
-0.08284 0.17918 -0.22816
0.04670 0.21674 -0.22032
0.05017 -0.03514 0.00602
-0.01279 -0.06638 0.01560
0.04808 -0.04613 0.00902
-0.00773 0.19821 -0.18361
-0.00883 0.24273 -0.23652
0.10752 0.23609 -0.21551
-0.03495 0.24765 -0.29543
0.06093 0.28387 -0.27408
0.09795 0.38771 -0.38382
-0.08922 -0.03479 0.01393
0.11128 0.30646 -0.21789
-0.01694 0.22963 -0.21331
-0.04963 -0.05164 0.01490
0.06381 0.28106 -0.27007
-0.17201 0.06217 -0.01745
0.05448 0.37063 -0.38341
0.05494 0.37134 -0.37689
0.23627 -0.15966 0.38415
0.23627 -0.15966 0.38415
-0.10141 0.25778 -0.34937
0.17522 -0.16343 0.00330
-0.02312 0.23115 -0.26382
0.04737 0.23340 -0.18263
0.06936 -0.04705 0.01109
-0.09468 -0.03663 0.01454
-0.11526 0.35299 -0.31382
-0.00278 0.33551 -0.30340
0.06809 0.20764 -0.24563
0.04118 0.24115 -0.26552
-0.10260 -0.17688 0.02789
0.17620 -0.15988 0.00846
0.06158 0.34369 -0.27347
-0.02377 0.30407 -0.30817
0.00204 0.20514 -0.18921
0.04194 0.19676 -0.14862
-0.05969 0.20689 -0.23158
-0.16469 -0.15821 0.01320
-0.01847 0.24117 -0.27288
0.10461 0.31165 -0.22964
-0.07695 0.27509 -0.24445
0.00053 0.24886 -0.24554
-0.04355 0.32189 -0.34118
0.17820 -0.07057 -0.01169
-0.06453 0.23950 -0.21722
-0.02081 0.23501 -0.27324
0.03863 0.21171 -0.19024
-0.02169 0.28015 -0.25223
-0.05092 0.25561 -0.28680
-0.16683 -0.17072 0.02062
-0.00750 0.24011 -0.23625
0.05972 0.29231 -0.26073
-0.07506 -0.01970 0.01076
0.06896 -0.00595 0.00100
0.03268 -0.01979 0.00487
0.04307 -0.06118 0.01223
0.06880 -0.03162 0.00665
-0.09371 0.17675 -0.21736
0.03950 0.19533 -0.16032
-0.04305 0.32681 -0.32034
-0.05467 0.18019 -0.16824
0.03664 -0.06560 0.01322
-0.02137 -0.05099 0.01296
-0.00073 0.24583 -0.24711
-0.07466 -0.05158 0.01486
0.10403 -0.04567 0.00623
0.02717 -0.01702 0.00433
0.07431 -0.04638 0.00824
-0.02400 0.20701 -0.18746
-0.02317 0.29871 -0.26120
-0.02258 -0.05241 0.01365
0.04957 -0.00474 0.00121
0.05875 -0.03509 0.00644
-0.04150 -0.05108 0.01419
-0.00483 -0.04587 0.01125
0.02467 -0.01747 0.00486
-0.02709 -0.04573 0.01236
0.03852 -0.06552 0.01312
0.04373 -0.01677 0.00312
0.06891 -0.03078 0.00544
-0.05560 0.23397 -0.21654
0.04195 0.23840 -0.24555
-0.04518 -0.04928 0.01620
0.01883 0.21523 -0.27495
-0.01230 0.24329 -0.26551
0.04353 0.23317 -0.17046
0.04404 -0.00003 0.00038
0.03323 0.28509 -0.28073
0.09923 -0.03437 0.01151
-0.04703 0.22920 -0.27426
-0.05272 -0.00336 -0.03151
0.17845 0.07251 -0.02306
0.00131 -0.01215 -0.01762
-0.03989 -0.03553 0.01073
0.04821 -0.05033 0.00896
0.04831 -0.05052 0.00970
0.18025 -0.06693 -0.00052
0.18114 -0.07277 0.00442
-0.17265 -0.01988 0.00901
0.03863 0.29490 -0.29706
-0.05749 0.25432 -0.26442
-0.17134 -0.02854 0.00083
-0.03729 0.32708 -0.36939
0.08416 0.22013 -0.28733
-0.11668 0.33331 -0.31198
-0.17134 -0.06931 0.01440
0.11755 0.31853 -0.20735
0.09558 0.27118 -0.23060
-0.06612 -0.03440 0.01225
0.18086 -0.07649 0.00258
-0.11706 0.34737 -0.36575
0.07621 -0.04795 0.00428
0.05108 0.19468 -0.24722
0.01460 0.21483 -0.20856
0.02779 -0.06397 0.01504
0.06242 0.19864 -0.25582
0.02410 0.30993 -0.27270
0.18264 0.05314 0.00054
0.18264 0.05314 0.00054
-0.10572 0.19092 -0.24004
-0.06469 0.28858 -0.24380
0.04796 0.25106 -0.26847
0.06429 0.19710 -0.25323
0.05675 0.26219 -0.25565
-0.01786 0.24070 -0.29552
-0.03151 0.27375 -0.31546
0.00605 -0.17628 0.02294
0.06575 0.20094 -0.24452
0.01735 0.20670 -0.20493
-0.06242 0.21403 -0.21312
0.04081 0.20154 -0.16558
0.02700 0.23312 -0.29276
-0.06136 0.22810 -0.21599
-0.11188 0.34593 -0.37068
-0.04695 0.20002 -0.14806
-0.06178 0.25890 -0.24198
0.02628 -0.05655 0.01277
-0.00969 0.12013 -0.14187
-0.01430 -0.02633 0.01000
-0.12293 0.36386 -0.36669
0.01010 0.10925 -0.15089
0.00366 -0.02555 0.00696
-0.00805 -0.06831 0.05932
-0.08280 0.18507 -0.23129
0.01939 0.31285 -0.32426
0.05067 -0.04016 0.00662
-0.11335 0.21853 -0.24403
-0.07140 0.25723 -0.20479
0.01332 0.12819 -0.15208
-0.12226 0.34625 -0.36359
0.02010 -0.01033 0.00600
-0.10213 0.19577 -0.25087
0.05669 -0.01170 0.00476
-0.12405 0.36198 -0.36898
0.00931 0.12392 -0.20866
0.00011 -0.05235 0.00391
0.10619 0.21198 -0.20943
0.06195 -0.01051 0.00255
-0.00094 0.32047 -0.30608
-0.16870 -0.03015 -0.00208
0.08240 0.18400 -0.23452
-0.07426 -0.03445 0.01147
-0.04753 0.17070 -0.12569
0.01394 -0.04192 0.01037
-0.02396 0.25287 -0.26923
-0.08244 -0.02007 0.01044
-0.08244 -0.02007 0.01044
-0.07266 -0.02807 0.01027
-0.03011 0.28139 -0.31515
-0.00027 0.10836 -0.16031
-0.00565 -0.01943 0.00760
-0.08118 0.20205 -0.23707
-0.05455 0.20279 -0.17131
-0.03877 -0.02938 -0.03607
-0.05329 -0.06835 0.09003
0.05639 -0.02434 0.00596
-0.06360 0.26016 -0.25493
0.01252 0.11421 -0.07993
-0.01803 0.30315 -0.24061
-0.17161 -0.02792 0.01786
0.00734 0.24489 -0.30897
0.10452 0.24639 -0.22001
0.00698 0.14901 -0.15674
-0.07762 0.23833 -0.14729
0.00504 0.12920 -0.15902
-0.00741 0.24272 -0.25304
-0.04839 0.19710 -0.15595
0.00699 0.15204 -0.15344
-0.12034 0.35203 -0.35804
-0.11093 0.34195 -0.26970
0.06665 -0.00227 0.00018
0.08989 0.19446 -0.24864
0.04948 -0.03184 0.00686
-0.04434 0.17804 -0.15678
-0.05708 0.22267 -0.18914
-0.04210 0.22694 -0.28965
0.09575 0.26150 -0.26143
0.05366 0.19991 -0.25024
-0.00729 0.18249 -0.17631
-0.04469 0.27759 -0.24654
0.05660 0.29018 -0.27069
-0.11600 0.34849 -0.31424
-0.05080 0.25569 -0.28744
-0.01945 0.29813 -0.25257
0.00343 0.13744 -0.16054
0.06562 0.19493 -0.17870
0.01611 -0.00471 0.00324
0.01575 -0.00962 0.01501
0.06295 0.25866 -0.25779
0.05541 0.19547 -0.26060
0.09114 -0.01519 0.00381
0.11126 0.29625 -0.23663
0.00230 -0.01498 0.00512
0.02463 -0.00726 0.00313
0.09546 -0.02142 0.00313
-0.04745 0.22890 -0.27856
-0.01857 -0.00708 0.00538
0.08535 -0.03279 0.03061
-0.04960 -0.01580 0.00834
-0.02180 -0.01860 0.00506
0.00468 -0.00405 0.00381
0.02461 -0.04935 0.01013
-0.04416 -0.01978 0.00859
-0.06569 0.00082 -0.00223
-0.05351 0.28165 -0.21588
-0.06012 0.00047 0.00480
0.13891 0.20415 -0.19063
0.09716 -0.03686 0.00857
-0.08148 0.24709 -0.34748
-0.00481 -0.05143 0.01247
-0.03518 0.24711 -0.29775
0.00913 -0.04821 0.01197
-0.05119 0.23919 -0.26427
0.07466 0.28287 -0.28658
-0.08225 0.17224 -0.12228
-0.09186 -0.04639 0.01616
0.01356 -0.01774 0.00819
-0.07413 0.24929 -0.20760
0.00434 0.27734 -0.24896
0.05791 0.19100 -0.25493
-0.09272 -0.03288 0.01191
0.06061 0.18383 -0.23627
-0.08234 -0.03801 0.01398
0.01111 -0.01892 0.00525
-0.05816 -0.02114 0.01016
-0.04128 -0.00421 0.00664
-0.10466 0.27913 -0.20995
0.00625 -0.03443 0.01041
-0.03783 -0.02309 0.01013
-0.04267 -0.00292 0.00371
0.01137 -0.06036 0.01123
0.07424 -0.04587 0.00688
0.00943 -0.01623 0.00939
-0.00179 0.24986 -0.26931
0.04380 -0.00265 0.00125
0.00472 -0.00130 0.00285
-0.09487 0.18144 -0.24132
-0.04948 -0.00212 0.00582
0.06795 0.19637 -0.26771
-0.00086 -0.00672 0.00398
0.02029 -0.03540 0.00831
-0.06194 -0.00061 0.00588
0.03247 -0.01653 0.00359
0.07879 -0.04541 0.00774
-0.00567 -0.06690 0.01482
0.02565 -0.03018 0.00704
0.08353 0.22196 -0.24132
0.00175 0.27907 -0.25708
0.00056 -0.04583 0.01151
0.02180 -0.01745 0.00501
-0.01934 -0.03205 0.00881
0.06360 -0.00484 0.00031
-0.01478 -0.00064 0.00351
0.11034 -0.01705 0.00091
-0.04097 -0.02208 0.00883
0.02571 -0.00509 0.00242
-0.04120 0.33073 -0.33818
0.01473 -0.00778 0.00866
-0.00074 -0.03310 0.00719
-0.00142 -0.03400 0.00753
0.05111 0.00061 0.00047
-0.00090 -0.06380 0.01154
-0.07281 0.19153 -0.24560
0.00324 0.00000 0.00271
-0.01493 -0.00587 0.00423
0.02592 -0.03753 0.01127
-0.01935 0.25272 -0.28416
-0.00834 -0.05208 0.01264
-0.02101 -0.01652 0.00731
-0.00475 0.20887 -0.20219
-0.09805 -0.03827 0.01511
0.00562 -0.01629 0.00583
-0.04943 -0.00787 0.00713
-0.08287 -0.03851 0.01510
-0.00594 -0.04856 0.01200
0.01345 0.11305 -0.15216
-0.10313 -0.02274 0.01199
-0.04156 -0.04679 0.01305
0.01876 -0.06549 0.01348
0.00966 0.28438 -0.29318
0.00964 0.28450 -0.29372
-0.08453 -0.03332 0.01306
-0.00110 -0.06410 0.02018
-0.01467 0.12167 -0.13989
0.05676 -0.01885 0.00657
0.09934 -0.03587 0.00787
0.02156 0.24801 -0.29864
0.00043 0.28159 -0.25337
0.02163 0.01352 -0.05500
0.02015 -0.05981 0.01248
0.01277 0.13695 -0.14966
0.04232 0.29556 -0.29252
0.00099 -0.00199 0.00284
0.01223 0.12528 -0.15350
-0.07406 0.19339 -0.26598
-0.05897 -0.03670 0.01371
0.11260 0.31116 -0.22443
0.03221 -0.01354 0.03570
0.00246 -0.03460 0.00942
0.06618 -0.01572 0.00053
-0.08415 0.25863 -0.25187
-0.00445 0.28418 -0.25380
0.00872 0.14061 -0.15454
0.07864 0.27273 -0.26620
0.03475 0.25130 -0.29476
0.07679 -0.04744 0.00922
-0.00487 0.28499 -0.25561
-0.01551 0.19555 -0.18242
0.00908 0.13889 -0.15379
0.00764 0.15075 -0.15388
0.04209 -0.06335 0.01070
-0.04522 -0.03416 0.01135
0.04964 -0.01859 0.00490
0.00762 -0.01628 0.00560
0.04039 -0.03571 0.00721
-0.06090 -0.00571 0.00678
-0.04017 -0.00313 0.00530
0.09097 -0.04987 0.00789
0.01453 0.11685 -0.15191
0.04668 0.26555 -0.29495
-0.01143 0.24812 -0.27431
0.00690 0.28136 -0.27951
0.05833 -0.00446 0.00145
0.17835 0.07182 -0.02495
0.00863 -0.03021 0.00800
0.10071 -0.01895 0.00235
0.09993 -0.01679 0.00014
-0.05049 0.25102 -0.16582
-0.00313 -0.00394 0.00499
0.01045 -0.00562 0.00319
0.01183 -0.03334 0.00798
-0.03706 -0.01585 0.00701
-0.05483 -0.01780 0.00812
0.01498 -0.03506 0.00841
0.04477 -0.01234 0.02026
0.05512 -0.03173 0.00598
-0.08626 -0.05006 0.01757
0.00933 0.19561 -0.18607
-0.01717 0.33331 -0.31512
0.01729 -0.03618 0.00904
0.09772 -0.01503 -0.00376
0.03571 -0.01621 0.00295
0.02534 0.29618 -0.28914
-0.01313 0.11119 -0.14873
0.09767 -0.03453 0.00554
0.05121 0.19227 -0.13329
-0.00829 -0.06284 0.01467
-0.01391 -0.06169 0.01317
-0.02612 0.23494 -0.23971
0.05971 -0.00209 0.00065
-0.02081 -0.00530 0.00496
0.09111 -0.02083 0.00160
0.09763 0.20723 -0.23886
0.08744 -0.01598 0.00344
0.00848 0.23466 0.13428
-0.05796 0.25854 -0.25953
0.06670 -0.00486 0.00240
-0.04646 -0.02390 0.01252
-0.04821 -0.01495 0.00739
0.10180 -0.03306 0.00629
0.06124 0.18602 -0.25524
-0.03977 -0.01951 0.00871
0.05566 0.00174 -0.00569
-0.01143 -0.02204 0.00740
0.00109 -0.03219 0.00906
0.04931 -0.03518 0.00765
-0.01629 0.12654 -0.13540
-0.03840 -0.01899 0.00859
0.07210 0.18620 -0.26255
-0.01145 -0.03374 0.00949
0.05055 -0.03061 0.00452
0.10276 -0.04415 0.00592
0.06213 0.00044 -0.00023
0.00283 -0.03402 0.00881
0.02048 -0.03160 0.00770
0.05738 -0.03659 0.00694
0.06601 0.18935 -0.26218
-0.08496 -0.03225 0.01025
0.05252 0.18470 -0.23975
0.04152 0.19005 -0.20769
0.05649 0.18819 -0.24130
0.05901 0.19251 -0.26832
0.00916 -0.02124 0.00641
0.01456 -0.05548 0.02370
0.01745 -0.04757 0.01131
-0.07743 -0.01973 0.01069
-0.05518 -0.05315 0.01528
-0.03781 -0.03473 0.01098
0.01442 -0.03246 0.00708
-0.00125 -0.01952 0.00647
-0.03417 -0.03345 0.01053
0.00627 0.00031 0.00247
-0.07388 -0.01831 0.00916
-0.09145 -0.03384 0.01405
0.01538 0.11448 -0.15152
-0.03358 -0.03491 0.01074
0.02592 -0.00692 0.00281
-0.04004 -0.04527 0.01289
0.03137 -0.01877 0.00556
-0.07995 -0.03391 0.01194
0.02192 -0.04527 0.01096
-0.00038 -0.01771 0.00649
-0.00977 -0.00024 0.00290
0.02447 -0.00619 0.00274
-0.01049 -0.01761 0.00681
-0.00480 -0.04588 0.01132
-0.02851 -0.05025 0.01258
-0.00665 -0.05068 0.01241
0.00986 -0.01903 0.00620
0.03330 -0.00308 0.00176
-0.00836 -0.05185 0.01282
0.00624 0.00030 0.00253
-0.06733 -0.03622 0.01300
-0.04943 -0.00356 0.00613
-0.09357 -0.04755 0.01688
-0.01035 -0.02085 0.00728
0.01714 -0.02083 0.00585
0.04807 0.00024 0.00041
0.01486 0.12527 -0.14977
-0.09685 -0.03358 0.01416
0.03511 -0.00505 0.00306
-0.02900 -0.04874 0.01249
-0.01009 -0.01875 0.00660
-0.02435 -0.00482 0.00468
-0.04938 -0.00550 0.00659
0.00746 -0.02035 0.00606
-0.00470 0.26285 -0.26183
0.10973 0.35089 -0.22166
0.06544 0.19875 -0.25262
0.06647 0.28039 -0.26502
-0.00711 0.21522 -0.19754
0.01517 0.13469 -0.14415
-0.00787 0.15419 -0.15452
-0.07984 0.26180 -0.25100
-0.00362 0.14486 -0.11849
-0.10276 0.18443 -0.21944
0.10995 0.31289 -0.21162
0.01293 0.13472 -0.15053
0.10542 0.34647 -0.22559
0.00107 -0.05161 0.01176
0.07882 0.19075 -0.24435
-0.01588 0.21241 -0.21559
-0.01619 0.20857 -0.19311
0.04375 0.24997 -0.27443
0.03508 0.17073 -0.16499
0.07361 -0.03043 0.00480
0.06214 0.19327 -0.15462
0.02547 0.18308 -0.17271
0.02317 0.18382 -0.17738
-0.05971 0.17930 -0.16353
-0.04050 -0.03636 0.01220
-0.04192 0.32951 -0.30667
-0.01336 -0.00293 0.00432
0.01238 0.14239 -0.14749
-0.09521 -0.01720 0.01032
-0.08415 -0.03278 0.01407
0.02694 0.27205 -0.31138
0.00121 -0.04977 0.01256
0.00752 0.10657 -0.14762
-0.03853 0.22810 -0.28857
0.03792 0.18958 -0.15405
-0.00900 0.11394 -0.16081
-0.07530 -0.05127 0.01658
0.02445 -0.04975 0.00973
-0.11551 0.20426 -0.22895
-0.05967 0.21761 -0.21422
-0.00619 0.20731 -0.19282
0.07628 -0.01825 0.00252
0.01576 -0.01863 0.00620
0.05517 -0.05164 0.00983
-0.06185 -0.01597 0.00881
-0.09796 0.19042 -0.24671
0.01876 -0.06192 0.01341
0.01910 0.11957 -0.14230
0.02791 -0.05193 0.01098
0.01333 -0.03359 0.00865
-0.11287 0.34427 -0.27614
-0.01374 0.29630 -0.24741
-0.09784 0.19744 -0.24813
0.07733 -0.01630 0.00287
-0.01214 -0.03187 0.00922
0.00000 -0.06597 0.01882
-0.06648 0.19554 -0.18959
0.01517 -0.01996 0.00579
-0.01382 0.29633 -0.24710
-0.04289 -0.05255 0.01457
0.07076 -0.03139 0.00426
-0.08250 0.18260 -0.23830
0.11468 0.26976 -0.22177
0.02926 0.17156 -0.16099
0.04065 0.23370 -0.24643
-0.01468 0.24830 -0.31002
-0.02934 0.22745 -0.29306
-0.01599 0.22722 -0.21215
-0.03862 0.33714 -0.29587
0.04647 0.23861 -0.29843
-0.02748 0.22090 -0.21524
-0.07950 0.19758 -0.25700
0.02386 0.33718 -0.27703
0.04798 0.34439 -0.35653
0.04798 0.34439 -0.35653
-0.08457 0.18907 -0.24220
0.04686 0.34700 -0.36789
0.07557 0.19402 -0.25497
0.08675 0.18714 -0.22654
0.01557 0.15851 -0.14902
0.11350 0.31458 -0.21716
-0.00709 0.21504 -0.19868
0.04495 0.34463 -0.36675
0.09866 0.34628 -0.25289
0.00239 0.33253 -0.28448
-0.03031 0.27037 -0.26370
0.05180 0.36638 -0.37677
0.00051 0.13781 -0.16213
-0.07431 0.19570 -0.22986
-0.02682 0.32736 -0.37430
0.04972 0.34909 -0.37209
0.00417 0.13811 -0.16382
0.00417 0.13811 -0.16382
0.07259 0.19600 -0.26291
0.05367 0.28946 -0.28216
0.05437 0.34977 -0.37215
0.03706 0.28432 -0.29059
-0.01898 0.29521 -0.25429
0.04197 0.29654 -0.29330
0.06510 0.19402 -0.26819
-0.01238 0.17713 -0.17472
-0.09361 0.20909 -0.24392
-0.01849 0.23991 -0.26625
0.00323 -0.00681 0.00416
-0.01240 0.29598 -0.25219
0.05749 -0.02916 0.00378
-0.06253 0.20787 -0.21496
-0.08616 0.17990 -0.21339
0.04204 0.23002 -0.19021
0.09625 0.19701 -0.20401
0.06607 -0.05191 0.01013
-0.09533 0.19984 -0.24667
0.00680 0.15246 -0.15399
0.00910 0.15741 -0.15576
0.09748 0.30234 -0.20483
-0.11251 -0.19288 0.44417
-0.02193 0.25527 -0.29579
-0.02267 -0.04564 0.01246
0.10282 -0.04441 0.00584
0.07716 0.19525 -0.24827
-0.00936 0.25091 -0.26994
-0.04006 0.32328 -0.35724
0.07311 -0.04756 0.00681
0.01400 0.13205 -0.14405
-0.01245 0.12631 -0.15143
-0.08780 0.19985 -0.24828
-0.09882 0.18765 -0.24812
-0.04310 -0.05297 0.01558
0.01849 0.12523 -0.13875
-0.00433 -0.05026 0.01037
0.00070 -0.03271 0.00823
0.05871 -0.03513 0.00676
0.08821 0.32306 -0.27177
0.07934 0.20360 -0.23621
0.04610 0.24740 -0.28038
0.07548 0.18710 -0.23966
0.00739 0.13194 -0.16638
-0.03779 0.31460 -0.34592
-0.08733 -0.02198 0.01281
0.00461 -0.03258 0.00835
0.04020 -0.11108 0.13794
-0.08041 0.19555 -0.24005
-0.09885 0.19035 -0.24522
-0.01806 0.27422 -0.25601
0.02375 0.16534 -0.15657
0.01109 -0.06720 0.01445
0.09012 0.19067 -0.22861
0.05949 0.18413 -0.25798
0.01895 -0.06109 0.01149
0.08856 0.34463 -0.27887
0.03946 0.24256 -0.26518
0.00817 0.14328 -0.15405
0.09279 0.19393 -0.20403
-0.02125 -0.05088 0.01350
0.05136 0.34635 -0.31958
0.05453 -0.05475 0.02923
0.07479 0.20988 -0.27595
0.06895 0.18458 -0.25710
0.07094 0.19725 -0.26401
0.07094 0.19725 -0.26401
-0.00705 0.28386 -0.25360
-0.06029 0.17924 -0.16276
0.00924 0.14689 -0.15374
-0.06371 -0.03600 0.01335
0.01850 0.20344 -0.20268
-0.00650 0.28194 -0.25224
-0.01421 0.17884 -0.17980
0.06534 0.18418 -0.26143
-0.02678 0.25470 -0.28396
0.00481 0.15268 -0.15292
-0.02044 0.23882 -0.28153
-0.02567 0.32607 -0.36617
-0.06789 0.19514 -0.21206
0.08846 0.26118 -0.25674
-0.04813 -0.05053 0.01441
-0.07453 0.17708 -0.16850
-0.09554 -0.03555 0.01164
-0.03221 0.23023 -0.29045
0.06245 0.26568 -0.25286
-0.00867 0.28741 -0.25048
-0.02437 0.24297 -0.28502
-0.06946 0.19143 -0.20170
-0.05650 -0.01671 0.00905
-0.05924 -0.03676 0.01327
-0.00311 0.11620 -0.15814
0.08285 0.30541 -0.27042
-0.08132 0.21471 -0.24358
-0.00615 0.18430 -0.17403
-0.00615 0.18430 -0.17403
-0.00655 0.15527 -0.15013
-0.06196 0.19245 -0.17627
-0.05903 0.20176 -0.18575
0.02311 0.20773 -0.19434
-0.02256 0.24517 -0.29217
-0.03732 0.32814 -0.37261
0.04439 0.23700 -0.19328
0.01226 0.32870 -0.30082
-0.04135 -0.03422 -0.01267
0.07535 0.18179 -0.23174
0.08822 0.20906 -0.24755
-0.16675 -0.17822 0.04015
-0.00936 0.16724 -0.16517
0.05778 0.34813 -0.27638
0.05773 0.26069 -0.25193
0.01994 0.18977 -0.17392
-0.00804 0.16316 -0.15616
0.04759 0.25897 -0.23489
0.07209 0.19354 -0.26135
0.05029 0.36884 -0.36326
0.05325 -0.00298 -0.00524
-0.05150 0.20030 -0.15730
-0.00138 0.25874 -0.27053
-0.00613 0.20849 -0.18744
0.02197 0.22882 -0.28730
0.08857 0.26472 -0.25758
-0.07448 0.18163 -0.14027
0.04963 0.23558 -0.20582
0.11215 0.23306 -0.23303
0.08789 0.33117 -0.27770
0.00630 0.14918 -0.15717
0.09669 0.30174 -0.18718
-0.09907 0.19686 -0.24556
0.03785 0.24721 -0.26463
-0.08708 0.29362 -0.26393
0.04522 0.24980 -0.27659
0.04687 0.21905 -0.22595
0.01466 0.17275 -0.15702
0.02386 0.16492 -0.14754
0.04173 0.24347 -0.28002
0.08359 0.34333 -0.27826
0.05275 0.25999 -0.26790
-0.06412 -0.02136 0.01178
0.07405 -0.11967 0.02238
0.04433 0.19645 -0.20312
-0.02507 0.22910 -0.19359
0.07869 0.18572 -0.21769
-0.03725 0.32567 -0.36158
0.05388 0.36583 -0.38151
0.10113 -0.01481 0.00085
0.04540 -0.01477 0.00345
0.01530 0.13468 -0.14460
0.04946 -0.00139 0.00096
-0.04966 -0.04717 0.01412
0.05884 -0.03128 0.00574
0.01745 0.12429 -0.14408
0.02227 0.19271 -0.18451
0.00134 0.28084 -0.25177
-0.00796 0.11706 -0.15783
0.06911 0.19586 -0.26582
-0.01032 -0.02105 0.00853
0.07934 0.20360 -0.23621
0.07518 0.18591 -0.24055
0.09883 -0.02017 0.00458
-0.01440 0.23845 -0.25771
0.03877 -0.08093 0.10699
0.09886 0.28660 -0.20277
-0.00872 0.14425 -0.15023
-0.00470 0.14309 -0.15565
-0.00884 0.16205 -0.15875
0.00006 0.12411 -0.15844
-0.06560 -0.03688 0.01287
-0.05025 -0.05082 0.01356
-0.11580 0.34973 -0.28286
0.01155 -0.01621 0.00386
-0.00886 0.20265 -0.18537
-0.05306 0.26411 -0.28848
-0.01670 0.23229 -0.26211
-0.01739 0.29231 -0.25663
-0.00995 0.28445 -0.25131
0.05291 0.18494 -0.25348
-0.00637 0.21020 -0.20066
-0.05350 0.22198 -0.19388
0.01048 0.14998 -0.15104
-0.00389 0.12832 -0.15948
-0.01404 0.10978 -0.13952
0.05588 0.18414 -0.23591
0.05892 0.18153 -0.23655
0.01456 0.12932 -0.14770
-0.01325 0.19823 -0.19441
0.01585 0.21105 -0.20772
0.05739 0.19032 -0.25725
0.05873 0.28859 -0.26981
-0.00501 0.23457 -0.29903
-0.09553 0.20818 -0.24588
-0.00709 0.10861 -0.15875
-0.01907 0.26421 -0.25260
0.07848 0.27279 -0.26680
0.06238 0.20483 -0.29449
0.00536 0.29609 -0.27519
-0.00735 0.21405 -0.19037
0.00675 0.14450 -0.14566
0.09055 0.19140 -0.24319
0.05292 0.19989 -0.24990
0.04024 0.25767 -0.29206
-0.00772 0.14499 -0.15164
0.15637 -0.25477 1.00000
0.08284 0.18203 -0.22791
0.08587 0.19339 -0.24603
-0.10357 0.18252 -0.22579
0.07974 0.20927 -0.25421
0.06177 0.19576 -0.27076
-0.08378 0.18995 -0.24632
-0.02364 0.24225 -0.28728
-0.02001 0.28470 -0.26094
0.04030 0.21480 -0.22137
0.07477 0.20930 -0.25427
0.00860 0.20715 -0.18545
-0.02613 0.32455 -0.35919
-0.04045 0.33539 -0.36112
0.06616 0.25912 -0.25704
0.00182 0.24074 -0.21889
-0.07801 0.21467 -0.28568
-0.01356 0.11648 -0.14562
0.01158 0.27272 -0.23686
0.00725 0.14049 -0.12904
0.00526 0.19798 -0.17919
0.00396 0.15100 -0.15833
-0.00631 0.24533 -0.26511
-0.05181 0.24785 -0.28691
-0.00296 0.11691 -0.16072
-0.10035 0.20897 -0.23514
0.00677 0.10657 -0.15900
-0.01222 0.14426 -0.08264
0.06534 0.18455 -0.26325
0.00509 0.12715 -0.16072
-0.01299 0.22412 -0.20096
0.00514 0.12720 -0.16065
-0.00679 0.10836 -0.15881
-0.01226 0.13044 -0.15068
-0.04265 0.33359 -0.35128
0.06929 0.18608 -0.26253
0.00607 0.14194 -0.15696
-0.08024 0.18777 -0.24064
-0.01493 0.11894 -0.14896
0.00623 0.23530 -0.20882
0.04022 0.26010 -0.27881
0.00115 0.14366 -0.15848
-0.01407 0.11039 -0.14185
0.10932 0.19704 -0.15962
0.07405 0.27278 -0.26611
0.00163 0.33780 -0.26373
0.06940 0.27298 -0.26347
-0.00172 0.15521 -0.14224
-0.01041 0.26503 -0.27234
-0.00695 0.17336 -0.14598
0.08019 0.20881 -0.25186
-0.01314 0.13404 -0.16516
-0.00758 0.23865 -0.22649
0.06725 0.19535 -0.26546
0.01687 0.22501 -0.20876
-0.06454 0.24632 -0.27493
-0.00815 0.20936 -0.20090
0.03377 0.23766 -0.29704
-0.04155 0.21969 -0.24138
-0.00691 0.16654 -0.18927
0.05036 0.25885 -0.26834
-0.04895 0.23675 -0.27540
0.05259 0.19825 -0.26910
0.01628 0.23394 -0.28641
0.06905 0.21472 -0.20613
-0.02044 0.24772 -0.29823
-0.09520 0.18761 -0.26799
0.01493 0.11160 -0.15263
-0.09100 0.23374 -0.25193
-0.04442 0.23324 -0.28921
-0.01729 0.24315 -0.36231
0.02119 0.16446 -0.15914
-0.04474 0.23395 -0.28780
-0.00826 0.11553 -0.16027
-0.07550 0.20552 -0.26361
-0.00766 0.19670 -0.13795
-0.08182 0.18813 -0.23813
0.04056 0.19339 -0.23919
-0.02659 0.25468 -0.34055
0.03466 0.26807 -0.29730
-0.03483 0.22650 -0.28377
-0.00309 0.16192 -0.22195
-0.02673 0.18159 -0.19284
0.06479 0.21757 -0.25615
0.05619 0.19153 -0.23369
0.00795 0.14694 -0.25403
-0.07139 0.17297 -0.13137
0.04777 0.26207 -0.27365
0.00304 0.24395 -0.23648
0.00836 0.14296 -0.15340
0.06238 0.18311 -0.26378
0.10096 0.19803 -0.20982
0.00998 0.15245 -0.15098
-0.06079 0.18260 -0.17501
0.06135 0.18763 -0.21831
-0.04483 0.17943 -0.15282
0.00331 0.22772 -0.19584
-0.12289 0.22880 -0.17861
0.10563 0.34049 -0.22715
-0.00558 0.11374 -0.16110
0.05650 0.19435 -0.26584
-0.01494 0.26184 -0.26791
0.03301 0.28864 -0.28603
0.05802 0.25664 -0.25273
0.02686 0.22984 -0.29145
-0.11688 0.28722 -0.13382
-0.01892 0.29813 -0.25498
0.10620 0.36909 -0.34958
0.10009 0.33309 -0.32202
0.00739 0.12509 -0.16407
0.00930 0.14633 -0.14439
