# .PCD v.7 - Point Cloud Data file format
VERSION .7
FIELDS x y z
SIZE 4 4 4
TYPE F F F
COUNT 1 1 1
WIDTH 1875
HEIGHT 1
VIEWPOINT 0 0 0 1 0 0 0
POINTS 1875
DATA ascii
0.07002 -0.04744 0.28325
0.03752 0.00196 0.00675
0.02763 0.00445 -0.08062
0.03815 -0.00025 0.01891
0.01330 0.00557 -0.19156
0.00720 -0.01362 0.14100
-0.03476 -0.00528 -0.02626
0.00807 -0.00059 -0.06307
0.04661 0.01313 -0.16610
0.01008 0.00144 -0.04519
0.02594 0.00333 -0.06287
-0.19334 0.02098 -0.26575
0.01617 -0.00151 -0.01005
-0.06543 -0.00105 -0.17547
-0.03160 -0.00290 -0.08235
-0.02875 -0.00378 -0.02651
0.02698 0.00143 -0.02841
0.02149 -0.00227 0.06768
0.02554 0.00146 -0.03543
0.16294 -0.07523 0.29894
0.01470 -0.00081 -0.03457
-0.01896 -0.00060 -0.09427
-0.02736 -0.26184 -0.81726
-0.01282 -0.00471 0.00352
-0.12437 0.01686 -0.24213
-0.03115 -0.00195 -0.10133
0.02752 -0.00068 0.00129
0.03306 -0.00165 0.05814
0.02385 0.00039 -0.03139
0.02382 0.00032 -0.03169
-0.02798 0.00193 -0.07285
-0.02823 0.00095 -0.07552
0.01286 0.00119 -0.06709
-0.01727 -0.00344 -0.03716
0.02414 -0.00033 -0.02198
0.02537 -0.00180 0.06595
-0.01873 -0.00373 0.03886
0.03772 0.00099 0.15414
0.01205 0.00322 -0.11966
0.01995 -0.00126 -0.00714
0.02253 0.00884 -0.15668
0.07069 0.01364 -0.02856
-0.02433 -0.00141 -0.11494
-0.02373 0.02467 -0.02529
-0.01884 -0.00323 -0.02776
0.06253 0.01021 -0.09400
-0.11338 -0.03504 0.08308
0.11131 0.03304 0.14185
0.10465 0.03606 -0.14989
0.16787 0.00234 0.22152
0.11476 0.03534 -0.19015
0.08086 -0.02053 0.25758
0.02811 0.00095 0.00006
0.03706 0.00413 -0.06091
0.01180 -0.00110 -0.02012
-0.00435 -0.08046 0.29007
-0.05802 0.00230 -0.11068
-0.02810 0.00723 -0.18660
-0.05009 -0.00095 -0.06964
0.04438 0.00089 -0.03831
0.07665 0.01461 0.01050
-0.17649 -0.04897 0.13950
-0.01714 0.00013 -0.09227
0.08825 -0.05244 0.26843
0.04296 0.00346 -0.01965
-0.01604 0.00544 -0.17722
0.00586 0.00627 -0.13406
0.04516 0.00198 -0.01033
0.00042 0.00325 -0.06779
-0.03643 0.00230 -0.08219
0.38107 0.11881 0.44689
-0.02299 0.00034 -0.04455
-0.02304 0.00276 -0.09933
0.00843 0.32572 0.87743
0.38381 0.11607 0.47351
0.38619 0.11896 0.48231
-0.01800 0.00151 -0.05497
0.36310 0.03430 0.66898
0.36310 0.03430 0.66898
0.37979 0.11777 0.46082
0.02517 -0.03588 0.32252
-0.02720 0.00521 -0.16206
-0.09389 -0.11569 0.26315
0.00495 -0.00086 0.04714
-0.02769 0.00584 -0.16865
-0.02239 0.00369 -0.15132
-0.01977 -0.05721 0.24645
0.06411 -0.01752 0.28944
-0.20070 -0.02254 0.03263
0.03415 -0.03432 0.32513
-0.21404 -0.12951 0.35711
-0.02316 -0.00039 -0.05248
-0.02270 0.00577 -0.16207
0.01257 -0.04358 0.32198
0.03427 -0.00026 0.14034
0.15765 -0.01261 0.23804
-0.01833 0.00431 -0.13455
0.06664 -0.04095 0.28838
-0.02319 -0.00044 -0.05262
0.36970 0.12507 0.43910
0.01994 -0.05605 0.33154
-0.02013 0.00431 -0.12911
-0.21092 -0.09912 0.20480
-0.11450 0.01482 -0.06288
-0.11448 0.01363 -0.06595
0.11679 -0.01761 0.24394
-0.01651 -0.09623 0.31159
-0.03177 -0.31457 -0.96446
-0.02659 0.00600 -0.18359
0.36404 0.13389 0.42612
0.08579 0.02701 -0.15742
0.12147 0.04030 -0.14261
-0.04998 -0.00926 0.02460
-0.19989 0.00099 -0.09853
0.36207 0.13972 0.42739
-0.01419 -0.07024 0.26485
-0.21744 -0.06124 0.18952
0.18034 -0.05027 0.27438
0.02879 -0.01319 0.30903
0.35662 0.12542 0.41415
0.14782 0.03829 0.01617
0.04074 -0.03508 0.33740
0.37658 0.10231 0.50842
0.36365 0.06730 0.45343
0.17706 0.00942 0.22313
-0.18846 -0.13061 0.37546
0.05518 -0.19139 -0.72575
-0.01886 -0.08857 0.24775
-0.01005 -0.07288 0.26913
-0.19225 -0.04053 -0.36976
-0.06734 -0.12644 0.20335
-0.00758 -0.08227 0.28512
0.35389 0.13013 0.41628
0.07563 0.01921 -0.11876
0.07426 -0.04460 0.27448
0.35187 0.13352 0.41001
0.36967 0.10650 0.49553
0.05540 0.01379 -0.13969
0.08189 -0.03270 0.26099
0.04942 -0.04177 0.35908
0.22676 0.02921 0.20278
-0.05911 0.00148 -0.02073
0.00958 -0.07356 0.32839
0.35404 0.11546 0.43343
0.35404 0.11546 0.43343
0.10723 -0.08990 -0.43413
0.07417 -0.04398 0.27439
0.03556 -0.01951 0.32124
-0.00130 0.00270 -0.04514
-0.17614 -0.13163 0.34369
0.06004 0.01774 -0.14979
0.19666 0.02684 0.19501
0.03509 -0.03844 0.32061
-0.07919 0.00405 -0.00944
-0.05932 -0.12622 0.20663
-0.03188 -0.00118 -0.04632
-0.01087 0.00334 -0.13207
-0.00095 0.00119 -0.05775
-0.00120 -0.08407 0.29962
0.07911 -0.02669 0.26168
0.20211 0.00893 0.21052
-0.01324 0.00543 -0.15514
0.05798 0.01006 -0.09984
-0.03305 -0.00337 -0.00241
0.10632 -0.02622 0.26100
-0.04911 -0.29532 -0.92474
0.20601 0.03682 0.18316
-0.16680 -0.14368 0.29295
-0.08403 -0.25842 -0.79408
-0.03507 -0.00185 -0.02111
-0.08292 0.01080 -0.13908
0.21017 0.02213 0.20015
-0.08289 0.01040 -0.13999
0.05884 0.00643 0.08984
0.03785 -0.00666 0.32423
0.12471 0.04153 -0.13555
0.37228 0.12240 0.44766
0.01087 0.00654 -0.18936
0.14660 -0.07222 0.31871
0.02480 0.00949 -0.14517
0.19863 -0.05515 0.31636
-0.00075 -0.08206 0.30892
0.12712 0.03104 0.07627
0.06303 -0.04486 0.33924
0.06924 0.01270 -0.00808
0.35712 0.09606 0.58373
0.00447 0.00814 -0.26148
-0.07167 0.00352 -0.00279
0.32353 0.10008 0.38829
0.11983 0.03382 -0.06987
0.32062 0.09403 0.39936
-0.00327 -0.09059 0.31235
0.17746 0.01606 0.19976
0.12463 0.03897 -0.13686
0.24778 0.04295 0.20971
-0.04836 -0.00214 -0.02719
-0.00767 -0.08208 0.28760
0.25288 0.04792 0.22525
0.06587 -0.06442 0.30054
0.08042 0.02328 -0.14831
0.07868 -0.04136 -0.39804
-0.05661 0.00290 -0.09235
-0.04720 0.00082 -0.08787
-0.20230 -0.02319 -0.01180
-0.05205 -0.00042 -0.01071
0.06694 -0.06100 0.29623
0.03595 0.00811 -0.15246
-0.00231 0.00503 -0.16289
-0.06943 0.00323 0.00107
0.15904 0.05311 -0.07907
-0.07128 0.00465 -0.02677
-0.07881 0.00695 -0.17541
-0.05614 0.00477 -0.11469
-0.07086 0.00357 -0.05019
-0.06907 -0.09278 0.18665
0.06297 0.01105 -0.00914
-0.04609 0.05792 0.04411
-0.07321 -0.12692 0.20905
0.09278 0.03031 -0.15868
-0.00088 0.00580 -0.16390
0.40841 0.09596 0.40368
-0.03994 -0.30057 -0.88171
-0.04460 -0.00224 -0.02014
-0.07087 0.00502 -0.07363
0.12322 -0.06945 0.31847
0.40770 0.08030 0.42673
0.41198 0.08728 0.45006
-0.07460 0.00716 -0.14608
-0.07394 0.00571 -0.13651
0.15374 0.04722 -0.04332
-0.06622 0.00365 -0.03139
-0.06717 0.00312 -0.06249
-0.03778 -0.28581 -0.91320
0.16887 0.05281 -0.14166
0.16864 0.05249 -0.14258
0.12164 0.04180 -0.24801
0.05558 0.00589 0.00047
0.05608 0.00614 0.06111
0.11134 0.03557 -0.19653
-0.11199 0.01705 -0.25095
-0.20697 0.02593 -0.21495
-0.20678 0.02558 -0.21577
0.11267 0.03508 -0.19000
0.08053 -0.07166 0.31198
0.02727 0.00080 -0.01722
-0.03143 -0.00109 -0.07758
0.15282 0.04993 -0.17794
0.01107 0.00481 -0.12315
0.01720 0.00628 -0.19542
0.11964 0.03352 -0.07102
0.01619 0.00731 -0.19827
0.05554 0.01633 -0.17261
0.02109 0.00764 -0.16975
0.02114 0.00762 -0.16975
0.03700 0.01395 -0.18252
-0.07815 0.00819 -0.10915
-0.05919 0.00456 -0.11456
-0.05569 0.00130 -0.06308
-0.02718 0.00525 -0.16315
0.00833 0.00615 -0.15687
-0.05214 -0.00078 -0.01204
0.10333 0.03138 -0.19470
0.00545 0.00714 -0.17588
-0.05777 0.00275 -0.08514
0.01788 0.00848 -0.17996
0.02755 0.00820 -0.12328
0.01926 0.00690 -0.17163
-0.18984 -0.04028 -0.37006
0.14216 0.04544 -0.11227
0.02631 -0.00008 0.10951
0.44409 0.08358 0.43744
0.16440 0.05132 -0.16531
0.07940 -0.06062 0.29181
-0.05393 -0.00090 -0.01668
0.06105 -0.04241 -0.51891
0.16500 0.05237 -0.16282
0.38337 0.10046 0.43519
-0.02399 0.00175 -0.13218
0.41016 0.08311 0.44480
-0.01508 -0.06695 0.26331
0.02161 0.00453 -0.08993
0.22800 0.09280 0.16943
0.11488 0.03580 -0.18925
0.09714 0.03415 -0.19724
-0.14447 -0.11810 0.41136
-0.16870 -0.04141 0.15018
-0.03534 -0.00083 0.05191
0.37295 0.09397 0.48108
-0.15208 0.03762 -0.06089
0.40604 0.08283 0.44376
0.07774 -0.00923 0.24679
0.09485 0.03546 -0.19414
-0.05912 0.00143 -0.02086
0.41288 0.08643 0.42184
0.11260 0.03694 -0.15021
0.09244 0.03180 -0.20159
-0.02104 0.00339 -0.22656
0.08720 -0.04749 0.26607
0.12363 0.03923 -0.14086
-0.02014 0.00323 -0.13167
-0.01771 0.00271 -0.13002
-0.02958 0.00499 -0.16321
-0.12833 0.01767 -0.26673
-0.12826 0.01757 -0.26686
0.06865 0.01922 -0.13469
-0.20345 0.02609 -0.20687
0.11472 0.09252 -0.29179
-0.00992 -0.08091 0.27011
-0.05833 0.00128 -0.00620
-0.24574 -0.08704 0.25254
-0.01010 -0.09364 0.31431
0.15161 -0.02134 0.24232
-0.01085 -0.07417 0.26967
0.01186 0.00635 -0.16777
0.08804 -0.06052 0.28704
-0.01711 -0.00001 -0.09280
0.18626 0.05947 -0.16678
0.16113 -0.00450 0.21209
-0.09112 0.01884 -0.26759
-0.06612 0.00001 -0.00207
-0.02801 0.00648 -0.17104
-0.00936 -0.05402 0.24578
-0.08925 0.01899 -0.25467
0.40012 0.08776 0.45540
-0.05834 0.00044 -0.06370
-0.01220 0.00094 -0.06538
0.09472 0.02668 -0.11309
-0.00259 -0.07022 0.28761
-0.00354 -0.08306 0.29902
-0.06602 0.00046 0.00091
0.02679 -0.05718 0.33968
-0.18297 -0.04509 0.13680
-0.18226 -0.04675 0.13098
0.01979 -0.04458 0.32296
-0.01151 0.00592 -0.16094
0.14382 0.04603 -0.18708
0.11512 0.03735 -0.21606
-0.19379 0.02347 -0.24071
-0.05985 -0.00078 0.00618
0.06823 0.01702 -0.12363
-0.17830 0.00828 0.01507
0.39930 0.08597 0.46015
-0.05371 -0.12906 0.20570
0.12429 0.03850 -0.10570
-0.00857 0.00434 -0.11876
-0.18160 -0.00684 -0.07925
0.00291 -0.05647 0.28860
0.20165 0.01694 0.19385
0.05442 -0.02350 0.33536
0.00669 0.00559 -0.16306
0.42094 0.07696 0.44171
-0.13324 0.01902 -0.12391
0.34625 0.09958 0.42049
-0.04234 -0.10060 0.20489
-0.05719 0.00703 -0.10317
0.07931 0.01735 -0.06745
0.06986 0.01641 -0.11102
-0.09235 0.01818 -0.26239
-0.00278 0.00484 -0.10609
0.02112 0.00464 -0.17981
0.01767 0.00705 -0.20067
0.15903 0.04972 -0.00519
-0.31910 0.03596 0.00342
-0.08164 -0.12006 0.21618
-0.30290 0.03974 -0.05868
0.05449 -0.02149 0.33748
-0.13128 -0.06173 0.10960
0.02128 0.00755 -0.18620
0.00274 0.00064 -0.04560
0.13647 0.04628 -0.20757
0.00335 0.00540 -0.16444
0.00341 0.00553 -0.16406
-0.12901 -0.04387 0.08891
-0.08119 -0.09011 0.19041
-0.08646 0.01806 -0.28067
0.05431 0.01207 -0.05682
0.03056 0.01158 -0.14498
0.13956 0.04447 -0.18705
0.06047 0.01865 -0.14757
-0.03334 0.00238 -0.13363
0.05495 0.01019 -0.05129
-0.02603 -0.09387 0.29942
-0.00323 0.00334 -0.19937
0.00656 0.00471 -0.13093
-0.20064 0.02528 -0.18567
0.03196 0.00843 -0.14710
0.11165 0.03405 -0.12145
-0.00114 0.00340 -0.19622
-0.09048 0.01801 -0.22583
-0.08484 -0.12760 0.24902
-0.07898 -0.07607 0.17238
-0.19731 0.02460 -0.20261
0.08216 0.01778 -0.03485
0.08203 0.01756 -0.03539
0.00928 0.00244 -0.05985
0.15321 0.04997 -0.18662
-0.19753 0.02505 -0.20179
-0.01313 -0.09519 0.30821
-0.13224 0.01270 -0.14380
-0.13207 0.00892 -0.06294
0.13015 0.04592 -0.23310
-0.04776 0.00127 -0.07044
-0.12759 0.01519 -0.24119
-0.06555 -0.30170 -0.92207
0.08346 0.02576 -0.16907
-0.18975 -0.00318 -0.05698
0.05657 0.01843 -0.18114
-0.10068 0.01737 -0.25196
0.01569 -0.00081 0.01710
-0.13053 0.01586 -0.13687
0.12541 0.03784 -0.09805
0.06397 0.02116 -0.18460
0.05684 0.01388 -0.13507
0.09486 0.02685 -0.08609
0.15902 0.04894 -0.03063
0.16096 0.04869 -0.17144
-0.17315 0.00210 -0.10216
0.05952 0.01941 -0.21982
0.06195 0.01466 -0.10772
-0.18582 -0.01516 0.00349
-0.08855 0.01885 -0.24434
0.07302 0.01672 -0.06771
0.07092 0.01212 0.01823
0.11960 0.01454 0.14241
0.05957 0.01996 -0.19684
0.11694 0.03292 -0.08938
0.05101 0.00096 0.32161
0.01158 0.00135 -0.22471
0.05904 0.01458 -0.11596
-0.00725 0.00120 -0.06464
-0.20647 -0.02172 0.00161
-0.04800 -0.13332 0.23453
-0.19734 -0.00345 -0.06366
-0.12691 0.01863 -0.22147
-0.12951 0.01653 -0.14699
0.13063 0.04384 -0.21174
0.05514 -0.05397 0.33573
0.00379 0.00315 -0.07403
0.00535 -0.07888 0.31719
0.13005 0.04235 -0.21516
0.10981 0.03506 -0.15365
-0.04216 -0.32722 -0.95252
-0.18267 0.02329 -0.18437
-0.10305 0.01487 -0.20560
0.04263 0.01346 -0.15001
-0.01705 0.00483 -0.16262
-0.02853 -0.09448 0.25855
0.07326 -0.00115 0.23448
0.08889 0.02517 -0.13208
0.03801 0.01355 -0.17649
0.04840 0.01142 -0.12358
0.04823 0.01333 -0.16170
0.01993 0.00670 -0.11177
0.01416 -0.00155 0.01070
0.12879 0.04189 -0.18554
-0.18529 0.02243 -0.17998
-0.18173 0.02482 -0.20357
-0.13794 -0.07818 0.19192
-0.09317 -0.27578 -0.84810
-0.18760 0.02168 -0.17410
-0.18226 0.02272 -0.20393
-0.18246 0.02523 -0.20515
0.01185 -0.29396 -0.92419
0.05719 0.01257 -0.10928
0.11205 -0.06715 0.31672
-0.05097 0.00204 -0.10730
-0.04025 -0.09449 0.21429
-0.01623 0.00651 -0.17947
0.05521 -0.04100 0.33887
0.05403 0.01489 -0.17005
-0.07088 -0.10733 0.18898
0.07859 -0.05242 0.28348
-0.00177 0.00108 -0.07794
-0.15315 -0.00738 0.10807
0.05747 0.01439 -0.12067
0.13339 0.05356 -0.19905
0.12747 0.04134 -0.23288
-0.00684 -0.08887 0.31265
-0.25940 -0.09228 0.26628
0.13535 0.04203 -0.15126
-0.18696 0.02654 -0.20463
-0.02674 -0.10248 0.27382
-0.14528 -0.04119 0.09139
-0.03635 0.00455 -0.14149
0.14579 0.04305 -0.09559
-0.04377 0.00544 -0.16387
-0.16027 -0.05046 0.13408
-0.15924 -0.05168 0.13023
-0.18492 0.02362 -0.16425
0.02897 -0.04096 0.32292
0.03380 0.00152 -0.02254
0.10231 0.03287 -0.16634
-0.00504 -0.08977 0.30842
0.11500 -0.06736 0.31724
0.06479 0.01677 -0.12728
-0.17257 -0.03744 0.15108
0.04701 0.01198 -0.14984
-0.13355 0.01795 -0.25947
-0.11805 0.00603 -0.04752
0.05432 0.00669 -0.02094
0.10284 -0.07429 -0.49648
-0.04330 -0.33452 -0.97301
0.07892 -0.05175 0.28654
-0.01041 -0.00100 -0.04764
0.00273 -0.05430 0.29633
0.13255 -0.07526 0.32929
0.11388 -0.00302 0.15626
-0.00535 -0.07743 0.28624
-0.01173 0.00328 -0.20400
-0.01937 -0.08405 0.28606
-0.07974 0.01121 -0.10985
-0.02303 0.00550 -0.15092
-0.03180 -0.11407 0.26051
0.19685 0.06904 -0.07422
-0.18002 0.02359 -0.17759
-0.13455 0.01708 -0.25130
0.08738 -0.05911 0.26697
-0.00468 -0.17119 -0.43233
0.12051 0.04018 -0.22093
-0.06954 0.00399 -0.10468
-0.03347 0.00139 -0.11675
-0.00385 -0.07947 0.29458
-0.01284 -0.00481 0.00322
-0.04401 -0.33779 -0.98388
0.04043 0.00561 -0.05492
0.05037 0.01721 -0.20746
0.03536 -0.00889 0.31780
0.09940 -0.06803 0.29769
0.09787 -0.08688 0.27699
0.01823 -0.00228 0.07917
0.05188 0.01221 -0.12979
-0.21915 0.02838 -0.11678
0.09617 -0.05535 0.27653
-0.08838 -0.10930 0.21773
0.02394 -0.00106 -0.05341
0.00070 -0.09152 0.31587
-0.05567 -0.12047 0.21490
-0.09421 0.01468 -0.15318
0.01338 -0.01430 0.13872
0.14304 -0.06667 0.31588
0.00369 0.00521 -0.20816
-0.01911 0.00184 -0.10115
-0.07762 -0.11592 0.20670
-0.00787 0.00381 -0.13760
0.04040 -0.03056 0.32580
0.04566 0.01103 -0.13367
0.18584 0.06480 -0.00801
-0.01714 0.00228 -0.06589
-0.03803 -0.32620 -0.93282
0.03483 -0.02680 0.32843
-0.12009 -0.06973 0.15315
0.09182 0.02390 -0.11470
-0.05835 -0.31270 -0.95196
-0.10271 0.00321 -0.06524
0.04107 0.00251 0.22197
0.00672 -0.00083 -0.26633
-0.10475 0.00832 -0.04096
0.14428 -0.07016 0.31108
0.14526 -0.07171 0.32714
-0.07697 0.00325 -0.00309
0.01168 0.00168 -0.22392
-0.02600 0.00558 -0.17620
-0.01332 0.00520 -0.17553
0.18096 0.06260 -0.05604
0.00221 -0.08105 0.31536
-0.06033 0.00299 -0.12383
0.00013 0.00424 -0.12222
-0.00392 -0.27253 -0.87772
-0.02264 -0.07753 0.27293
0.01953 -0.00286 0.09676
0.05839 -0.00229 0.25986
-0.16422 0.00589 -0.03624
-0.00232 0.00498 -0.18009
0.00792 -0.07690 0.32467
-0.02828 0.00648 -0.18844
0.04190 -0.04432 0.34364
0.06159 0.00938 0.00081
0.12625 0.02235 0.16345
0.02751 0.00045 -0.23812
-0.07055 -0.25605 -0.80873
-0.00011 0.00740 -0.17522
0.00435 -0.06934 -0.54184
-0.04893 -0.00084 0.02721
-0.01434 -0.04559 -0.28866
-0.18884 -0.04250 -0.37436
-0.05106 -0.13492 0.23880
0.04090 0.00253 0.23752
0.03865 -0.00691 0.32355
0.13120 0.02312 -0.04294
0.06662 -0.04929 0.29079
0.01671 -0.04705 -0.47815
-0.02208 -0.09599 0.30809
-0.04958 -0.00115 0.02133
-0.04485 -0.33497 -0.97435
-0.06210 -0.12409 0.23474
-0.04452 -0.33941 -0.99243
0.01796 -0.05358 -0.50959
-0.07435 0.00406 0.01345
0.01753 0.00717 -0.12242
0.05261 0.01909 -0.21628
0.07892 0.02216 -0.12208
-0.03425 -0.00019 -0.05007
-0.03138 -0.29493 -0.93151
-0.14936 0.01282 -0.15143
-0.06935 -0.02501 0.09485
0.03764 0.00172 0.08958
-0.07537 0.00885 -0.18228
0.14996 -0.00045 0.20909
-0.06305 -0.08247 0.18723
-0.02293 0.00603 -0.24788
-0.05964 -0.08328 0.19473
-0.08024 0.00266 0.03591
-0.00497 -0.08742 0.30801
-0.05239 0.00440 -0.12833
-0.05538 -0.12247 0.21396
-0.07039 -0.14221 0.21122
-0.05663 -0.08071 0.18964
-0.07730 0.01373 -0.25615
0.06407 0.01765 -0.14844
0.06401 0.02092 -0.18559
-0.04758 -0.00099 -0.02965
-0.07580 0.00550 -0.16009
-0.05533 -0.08363 0.19866
0.04325 0.00115 0.16203
-0.07156 0.00775 -0.10906
0.04364 0.00148 0.16182
-0.22254 0.03458 -0.18019
0.08447 0.02003 -0.06754
-0.08071 0.01825 -0.24252
-0.05716 -0.03022 0.11586
-0.05716 -0.03022 0.11586
-0.07200 -0.03035 0.10496
0.04386 0.00108 0.15938
-0.22548 0.03689 -0.15635
0.04402 0.00011 0.15896
0.05844 -0.00230 0.25962
-0.08281 0.01536 -0.24469
0.15336 -0.02890 0.24235
0.05887 0.00930 -0.28588
-0.06766 -0.12221 0.20004
-0.21342 0.03882 -0.21209
0.06507 -0.05713 0.29909
-0.06892 -0.09201 0.19061
0.02233 -0.06981 -0.58289
-0.03716 -0.00158 -0.08677
0.01086 0.29017 0.64305
-0.02090 0.00758 -0.24037
0.05085 0.00556 0.19569
0.02138 0.00662 -0.14775
-0.15189 0.01889 -0.21770
-0.02718 0.00831 -0.17366
-0.08688 0.00566 -0.20437
0.03290 -0.04963 -0.50979
0.05749 0.00563 0.23673
0.01999 0.00815 -0.17189
-0.20914 0.03540 -0.22118
-0.20793 0.03335 -0.22557
0.04665 0.00127 0.15611
-0.20761 0.03213 -0.22224
-0.04194 -0.10146 0.20689
-0.02205 0.00774 -0.26727
-0.02205 0.00774 -0.26727
-0.04767 -0.04218 0.12904
-0.09129 0.02996 -0.19981
-0.01705 0.00483 -0.16262
-0.08872 0.01583 -0.27136
-0.20376 0.03043 -0.23067
-0.11226 -0.06647 0.14126
0.05286 0.00638 0.18962
-0.09280 0.01011 -0.20590
0.06404 -0.04446 0.34557
0.09562 0.06518 -0.14315
-0.09090 0.01300 -0.28880
-0.21677 0.03549 -0.13998
-0.20158 0.03062 -0.22882
-0.20110 0.03011 -0.23075
0.03023 0.00137 0.10410
-0.07827 -0.01349 0.06270
-0.07511 0.00693 -0.14006
-0.09430 0.01332 -0.22729
0.03782 -0.05536 -0.54507
0.00254 0.00479 -0.18198
0.03579 -0.07505 -0.57403
-0.24084 -0.11856 0.30972
-0.20010 0.02919 -0.21586
-0.04261 -0.00569 0.10462
0.02936 -0.00053 0.11361
-0.04369 0.00629 -0.17695
-0.12134 -0.10004 0.40630
-0.25568 -0.07908 0.27479
-0.02709 -0.08071 0.28287
-0.02589 -0.09453 0.29638
0.05810 -0.02387 0.33075
-0.02658 -0.08177 0.28615
-0.19064 0.02809 -0.25279
-0.19319 0.02851 -0.23299
-0.10552 0.01749 -0.24031
-0.07968 -0.02426 0.07965
0.04793 -0.04641 -0.53935
-0.03993 0.00772 -0.19633
0.07946 0.01773 -0.06599
-0.02408 -0.08283 0.28490
-0.02408 -0.08283 0.28490
0.05209 0.01726 -0.17329
-0.02397 -0.08161 0.28328
0.14943 -0.03406 0.26122
-0.24672 -0.09753 0.28222
-0.02153 -0.08009 0.28406
-0.15237 -0.03741 -0.41503
0.03066 0.00028 0.14038
0.04645 -0.05812 -0.58997
0.04883 -0.05570 -0.57851
0.05532 -0.02338 0.33057
-0.03800 0.00824 -0.17338
0.06139 -0.04228 -0.53462
-0.21383 -0.02184 0.00745
-0.13568 0.00389 -0.16653
0.07181 -0.00874 0.25183
-0.02007 -0.06553 0.26704
-0.07473 -0.12093 0.21711
-0.26313 -0.04670 0.25056
-0.10365 -0.06137 0.13022
0.03257 -0.00083 0.16751
0.05234 0.00252 0.31992
0.03391 0.00048 0.17958
0.13677 0.04736 -0.20538
-0.01874 -0.06585 0.26561
-0.20256 0.00715 -0.08220
-0.00774 0.00768 -0.26537
-0.11928 0.01746 -0.05871
-0.12598 0.01579 -0.25767
0.05285 0.00628 0.11696
-0.20605 -0.02687 -0.00967
-0.20688 -0.01628 -0.00954
0.09241 -0.02775 -0.42853
-0.01673 -0.06612 0.26531
-0.01176 0.00368 -0.14806
-0.17550 0.02040 -0.27106
-0.20494 -0.01615 -0.01759
-0.20632 -0.02176 0.00176
-0.01110 -0.09423 0.30818
0.03914 -0.16872 -0.68961
0.05308 -0.02391 0.33757
0.15391 -0.08371 0.31247
-0.07636 -0.12044 0.21681
-0.24414 -0.10726 0.29267
-0.20436 -0.01902 0.00173
-0.13424 0.01746 -0.25555
-0.07707 -0.12405 0.20770
0.01695 0.00567 -0.12245
-0.17185 -0.13746 0.36467
0.07955 -0.04659 0.27191
0.05192 0.01055 -0.10889
-0.01165 -0.00575 0.00059
0.03701 0.01395 -0.18252
-0.19872 -0.01865 -0.01492
0.11149 -0.02544 -0.41155
-0.15104 0.02072 -0.15096
-0.07721 -0.11923 0.21740
0.03695 0.01384 -0.18293
-0.15076 0.01830 -0.13526
-0.06888 -0.28205 -0.89588
-0.18060 -0.13645 0.36018
-0.17748 0.02489 -0.21313
0.12794 -0.00324 0.20526
-0.01086 0.00769 -0.25239
0.01852 -0.00309 0.01227
-0.12002 -0.06967 0.15308
-0.19133 0.00140 -0.07709
-0.18450 0.00000 -0.12718
-0.19117 -0.00579 -0.06717
-0.19156 -0.00448 -0.06227
-0.02680 -0.00460 0.01477
0.03815 0.01165 -0.16050
-0.12112 -0.05210 0.10960
-0.13862 -0.07329 0.15428
-0.15177 0.01814 -0.21924
-0.01162 0.00847 -0.25916
0.02199 0.00006 -0.01700
-0.16708 0.00406 -0.06584
-0.00543 -0.07950 0.28504
-0.00437 0.00561 -0.13946
-0.01874 -0.00870 0.13248
-0.00502 -0.06097 0.27301
0.08590 -0.05092 0.26688
-0.05090 -0.29826 -0.92276
-0.01795 -0.10004 0.31760
-0.00078 -0.08101 0.30777
0.02752 0.00812 -0.12352
-0.17424 0.01901 -0.16787
-0.17417 0.01879 -0.16923
0.08285 -0.01468 0.24768
-0.16438 0.02332 -0.21359
-0.00495 0.00108 -0.13153
-0.18240 -0.00123 -0.07467
0.03692 0.01105 -0.10636
-0.24460 -0.11994 0.32513
-0.10690 -0.09325 0.38274
-0.13131 0.01577 -0.23577
0.01379 -0.00251 0.08486
0.00367 -0.08053 0.31550
0.00344 -0.08094 0.31243
-0.10111 0.01326 -0.21016
-0.10155 0.01634 -0.20375
-0.06248 -0.32206 -0.98104
0.14170 -0.06746 0.32255
-0.13028 -0.09937 0.37605
0.09015 -0.05126 0.26722
-0.08717 0.00891 -0.16318
-0.20662 0.02426 -0.23576
0.00577 -0.05904 0.29952
0.04322 -0.04664 0.34331
-0.00261 0.00605 -0.08108
0.02742 0.00995 -0.15573
-0.00383 0.00722 -0.14372
-0.09713 -0.05680 0.12108
0.01079 -0.00319 0.08892
-0.08397 -0.12546 0.24601
0.06388 0.02072 -0.18603
-0.18041 -0.02631 -0.38510
-0.18041 -0.02631 -0.38510
-0.07929 0.01460 -0.24188
0.00944 -0.00261 0.08053
0.05233 0.01331 -0.15998
-0.03345 0.00551 -0.16886
0.09364 -0.04520 0.26634
-0.23552 0.01434 -0.10351
0.00919 -0.00354 0.08848
0.07321 0.01791 -0.10565
-0.07801 0.01672 -0.23181
0.04545 0.01358 -0.17203
-0.15975 0.00381 -0.04573
0.00733 -0.00289 0.08083
0.00762 -0.00378 0.08577
0.03648 0.00187 -0.01488
-0.07847 -0.13243 0.23766
-0.16925 -0.00106 -0.06298
0.06292 0.00905 0.06924
0.00102 0.00448 -0.18809
0.08012 0.02657 -0.18830
0.01759 0.00681 -0.18895
-0.07527 0.01717 -0.25392
0.10092 -0.05795 0.28167
-0.09360 0.01154 -0.23154
0.07485 -0.06762 0.27457
-0.25665 -0.07183 0.27116
0.03614 0.00978 -0.12715
0.01010 0.00295 -0.23201
-0.01952 -0.08848 0.30910
-0.02458 0.00446 -0.23467
-0.13974 -0.11437 0.41177
-0.12278 -0.10354 0.41950
-0.05868 -0.14060 0.25377
-0.00067 0.00152 0.14016
0.03382 -0.03758 0.32823
-0.00056 0.00212 0.13845
-0.02569 -0.06127 -0.18908
-0.05546 -0.12377 0.20530
0.09290 0.02780 -0.17150
-0.09834 -0.11709 0.26238
0.00456 -0.00200 0.08354
0.05493 0.00496 0.06452
-0.17136 -0.13840 0.36568
0.04062 0.00102 0.22044
-0.02919 0.00085 -0.06790
0.08376 -0.02190 0.14915
-0.20517 0.02530 -0.18380
-0.02295 0.00379 -0.09682
-0.09194 -0.03474 0.08565
-0.02900 0.00761 -0.25808
0.02836 0.00068 0.11311
-0.10398 -0.00240 -0.07512
-0.00178 0.00406 -0.13946
-0.19898 -0.01763 0.11433
-0.04543 -0.00147 -0.02407
-0.01066 0.00206 -0.07980
0.10988 -0.05697 0.28167
0.03082 -0.05338 0.33852
0.00837 -0.01630 0.14209
-0.08775 0.00271 -0.11435
0.07616 0.02170 -0.12079
-0.06902 0.00270 -0.03424
-0.07190 0.00467 -0.15581
0.03219 0.00421 -0.05963
0.10021 0.02250 -0.00059
-0.07655 0.00871 -0.09851
0.03497 0.00251 -0.04668
0.08959 0.02466 -0.13836
0.04396 0.00386 -0.01581
-0.08500 0.00926 -0.15898
0.07528 0.01026 0.02278
-0.03914 -0.08348 0.20955
0.13700 0.02148 0.15576
0.06214 0.01587 -0.14540
-0.10826 -0.09258 0.22409
0.01701 -0.00317 0.02994
0.15450 -0.03021 0.24340
-0.00270 -0.06715 0.27841
0.04549 0.00132 0.15863
-0.04249 -0.10233 0.20921
0.05408 0.00444 0.20730
-0.01198 -0.05762 0.21573
0.04927 -0.04040 0.36477
-0.03429 -0.10794 0.22176
-0.03429 -0.10794 0.22176
-0.10172 -0.24574 -0.82095
0.07490 -0.03037 0.26663
0.06490 0.00780 0.20371
-0.20921 0.02522 -0.19769
0.02554 -0.00035 0.11827
0.02547 -0.00040 0.11803
-0.10453 -0.02740 0.07682
0.02178 -0.00062 0.10684
0.05169 -0.02335 0.33955
-0.01172 -0.06583 0.26651
0.12482 -0.07001 0.32390
-0.18923 0.00131 -0.05992
-0.00066 -0.00258 0.10746
0.08078 -0.10379 -0.52460
-0.04911 -0.29532 -0.92474
0.11170 0.03411 -0.12128
0.12681 -0.00236 0.20456
-0.00736 -0.07148 0.27272
0.10935 0.03196 -0.10154
-0.13719 -0.01962 0.07416
0.10098 0.03437 -0.14975
-0.13247 -0.07418 0.16727
0.00135 -0.07274 0.30566
0.08574 0.02730 -0.15703
0.08558 0.02683 -0.15775
-0.17040 0.01596 -0.26691
-0.01245 0.00355 -0.19922
-0.19134 -0.00118 -0.05973
0.00686 -0.05969 0.30364
0.08106 0.02493 -0.14055
0.08387 0.02373 -0.11967
0.08387 0.02369 -0.11975
0.08001 0.02523 -0.14789
0.08477 0.02277 -0.10061
0.08476 0.02276 -0.10049
-0.12692 -0.02661 0.07900
0.07795 0.02340 -0.14915
0.05731 0.02101 -0.22587
-0.20114 0.01264 -0.11035
0.06225 0.02231 -0.20356
0.03758 0.00339 -0.04193
0.16836 -0.04431 -0.09018
0.06973 0.01880 -0.15151
0.06912 0.02076 -0.15474
-0.12910 -0.03289 0.08253
0.00498 -0.00467 0.15244
0.07306 0.01885 -0.09587
0.14206 -0.07456 0.33597
0.07480 -0.01204 0.25891
0.07850 -0.02711 0.25648
-0.18712 -0.03321 -0.37271
0.08115 -0.02693 0.26147
0.14570 -0.06322 0.30161
-0.05793 -0.03169 0.11792
0.14713 -0.07113 0.31321
0.03724 0.01325 -0.17053
0.12687 0.03088 -0.06256
0.05185 0.01170 -0.16427
0.05499 0.01276 -0.12967
0.02808 -0.05418 0.33303
-0.04603 -0.04315 0.13019
0.11096 -0.06066 0.28517
0.04994 0.01161 -0.13953
-0.00729 -0.01586 0.13378
0.03763 -0.00540 0.08292
0.04068 0.00157 0.15687
0.04178 0.00098 0.15919
-0.04603 -0.04315 0.13019
0.04657 0.01228 -0.15638
0.04655 0.01193 -0.15723
-0.00749 -0.00717 0.14891
-0.00749 -0.00717 0.14891
0.01086 0.00150 -0.08910
0.13866 0.04053 0.05417
0.00185 -0.10309 -0.64937
-0.12727 -0.03382 0.08202
0.00652 -0.00200 0.02153
0.01316 -0.01811 0.14749
0.04196 0.00935 -0.14966
-0.04439 -0.04117 0.13168
0.02186 -0.01307 0.04618
-0.07669 0.00087 -0.02721
0.15389 -0.02334 0.23438
-0.07676 -0.02808 0.09535
0.04305 0.00529 0.20405
0.03644 0.00051 0.14373
0.13996 0.00617 0.20173
0.03537 0.01242 -0.15520
0.15389 -0.02334 0.23438
-0.04210 -0.05019 0.13819
0.09270 0.01822 0.03117
0.01129 0.00714 -0.08097
0.03659 0.00956 -0.10959
0.00016 -0.12816 -0.69681
0.07019 -0.05582 0.28572
0.01729 -0.00055 0.11206
0.03143 0.00646 -0.12284
0.00146 -0.07413 0.30553
-0.13255 -0.03561 0.08258
0.08372 -0.00822 0.24156
0.00919 -0.00354 0.08848
0.01158 0.00082 -0.22598
0.08447 -0.01597 0.24639
0.07122 -0.06353 0.29024
0.02576 0.00687 -0.13933
0.00727 -0.01169 0.13706
0.01408 -0.00217 0.02036
0.10379 -0.00608 0.22181
0.01999 0.00641 -0.16830
-0.06962 0.00298 -0.09729
-0.01693 -0.00841 0.13225
0.01698 0.00538 -0.19780
0.02691 0.00100 -0.02942
0.04502 0.00432 -0.03426
0.08616 -0.02853 0.26471
0.07079 -0.01039 0.28177
-0.06459 -0.03145 0.10496
0.01762 -0.00212 0.10648
-0.09629 -0.11382 0.24848
0.02250 -0.00677 0.23954
-0.07887 -0.02475 0.08086
0.09678 -0.03370 0.26138
0.14052 -0.00315 0.21299
0.01909 -0.00199 -0.01590
0.00909 0.00428 -0.19352
-0.10669 -0.02559 0.07603
-0.10202 -0.11429 0.35825
-0.03664 0.00716 -0.17184
0.37211 0.11646 0.44732
-0.10185 -0.02127 0.07300
0.01112 0.00455 -0.12914
0.07046 -0.06698 0.29817
0.03184 -0.00053 0.14051
-0.09112 -0.08108 0.17893
0.03075 -0.01447 0.31104
0.10483 -0.05495 0.27725
-0.12984 -0.01687 0.06610
0.01075 -0.00239 -0.00554
0.00245 0.00463 -0.18250
0.08437 -0.05177 0.26700
0.00635 0.00213 -0.08123
-0.13204 -0.04051 0.08514
0.04948 -0.02319 0.34525
-0.05765 -0.02848 0.11450
-0.08335 -0.12019 -0.56882
0.05300 0.01418 -0.14055
0.09677 -0.03370 0.26140
-0.03487 -0.02081 0.12214
0.01395 -0.04305 0.31980
-0.06284 -0.10702 0.19428
0.04741 0.00115 0.26560
-0.05657 -0.02296 0.10998
0.11776 0.00039 0.15459
-0.05387 -0.05632 0.13900
-0.05387 -0.05632 0.13900
-0.05654 -0.01820 0.10122
-0.10261 -0.03733 0.08521
0.00691 0.00786 -0.16519
-0.04914 -0.05096 0.13345
-0.10229 -0.09912 0.22539
-0.01336 0.00511 -0.17571
-0.01018 -0.00399 -0.02166
-0.01484 0.00608 -0.16906
0.04284 0.00360 0.24357
0.03774 -0.03750 0.32940
0.05173 -0.02462 0.33845
-0.02039 0.00393 -0.15373
-0.10518 -0.02700 0.07577
-0.02738 -0.05270 0.16161
-0.05174 -0.03527 0.12021
-0.12943 -0.01745 0.06841
-0.05173 -0.03531 0.11995
0.02470 -0.00103 0.11022
-0.02014 -0.05747 0.18753
-0.11921 -0.03467 0.08119
-0.18452 -0.03602 -0.37888
0.02880 0.00093 0.15257
0.02305 -0.00049 0.10733
0.04454 0.00002 0.26790
-0.02826 -0.00158 -0.00323
0.14978 -0.02006 0.22894
-0.04511 -0.34195 -1.00000
-0.03961 -0.10684 0.21505
-0.03961 -0.10684 0.21505
0.13516 -0.00800 0.21573
0.06854 -0.06102 0.29274
0.01156 -0.04638 0.32337
-0.04081 -0.00417 0.07241
-0.11975 -0.01973 0.07155
-0.07627 -0.02675 0.09717
0.13818 0.01582 0.18444
-0.31518 0.03596 0.01058
0.02217 -0.00175 0.10636
0.09283 -0.05209 0.26747
0.07648 0.01519 -0.03601
-0.09651 -0.03744 0.08692
0.00888 -0.01767 0.14049
0.11973 0.04298 -0.24286
-0.05743 0.00215 -0.02055
-0.04314 -0.00288 -0.01915
-0.05330 -0.05562 0.13820
-0.05710 0.00541 -0.10735
-0.13818 -0.07894 0.18912
0.07973 -0.02629 0.25772
-0.06856 -0.11524 0.19135
0.04436 -0.04685 0.34941
-0.12767 -0.02486 0.08017
-0.18102 0.02337 -0.20683
-0.10658 -0.02661 0.08013
-0.12016 -0.07144 0.15407
0.10225 -0.05720 0.28146
0.04031 0.00072 0.15736
-0.11063 -0.07888 0.18129
0.04661 0.01313 -0.16610
0.08233 -0.03567 0.26137
-0.16238 -0.02595 0.10373
0.06364 0.00597 0.21242
-0.11116 -0.03148 0.07932
-0.03296 0.00399 -0.14624
-0.03288 0.00145 -0.10489
0.14593 -0.06439 0.30204
-0.11606 -0.03419 0.08137
0.07053 -0.05648 0.28849
0.07327 -0.04165 0.27942
-0.12532 -0.04058 0.08584
-0.19322 0.00486 -0.10306
-0.13217 -0.04833 0.09891
-0.05915 -0.03003 0.11555
-0.11612 -0.01771 0.06878
-0.03715 -0.00014 -0.09561
0.02518 -0.00228 0.08408
-0.03800 0.00369 -0.13127
-0.09049 -0.12016 0.26077
-0.11508 -0.03607 0.08272
-0.03663 -0.06780 0.16750
0.14000 0.00074 0.20837
-0.11502 -0.03166 0.07907
-0.11502 -0.03166 0.07907
-0.01903 0.00213 -0.10046
0.01983 -0.00131 0.10191
0.00815 -0.00275 0.08326
-0.10149 -0.03356 0.08707
-0.00052 -0.00306 0.08720
-0.02604 -0.01895 0.13316
-0.09595 -0.00568 0.06277
-0.03810 -0.10451 0.21711
0.09420 -0.04387 0.27343
0.08285 0.02283 -0.15253
-0.13803 -0.07457 0.17961
0.08679 0.02430 -0.13055
-0.00857 0.00097 -0.11589
-0.00724 0.00419 -0.10515
0.01390 -0.06526 0.33329
-0.07268 -0.10294 0.17708
0.11401 0.02925 -0.00386
-0.23046 -0.01690 0.05651
-0.08036 -0.00042 0.05930
0.10774 -0.07018 0.32944
0.00369 0.00430 -0.21045
0.10913 0.03070 0.02538
0.06099 -0.02475 0.32989
0.05804 0.01085 -0.05171
0.02253 -0.00334 0.07840
-0.03313 -0.10156 0.22079
0.10808 0.03945 -0.23152
-0.04432 0.00029 -0.09583
0.04339 0.00838 -0.08379
-0.19935 0.02971 -0.10883
0.16707 0.04585 0.11213
0.06441 0.00982 0.00000
0.10129 0.03211 -0.14577
-0.06379 0.00941 -0.20176
0.19064 0.00672 0.20926
-0.18940 0.03210 -0.13403
0.13866 0.04053 0.05417
-0.12327 -0.07526 -0.65919
0.02083 0.00879 -0.20203
0.07796 0.01389 0.01962
0.10514 -0.02957 0.25511
0.12476 0.04402 -0.24106
0.03011 0.00811 -0.10660
-0.05810 0.00138 -0.07924
-0.05810 0.00138 -0.07924
0.02853 -0.01351 0.30731
-0.22278 -0.14181 0.36081
0.04105 0.00538 -0.05429
-0.00056 0.00212 0.13845
0.03335 0.01127 -0.19080
0.24299 0.01322 0.38258
-0.06986 0.00285 -0.10215
0.04361 0.01132 -0.08485
-0.03503 0.00421 -0.13076
0.22192 0.00432 0.23680
-0.18272 -0.00943 -0.00721
0.05308 0.01438 -0.13980
0.04352 0.00911 -0.12321
-0.08712 -0.03087 0.09167
0.04509 0.00954 -0.11186
0.10304 0.03320 -0.15095
0.10326 0.03363 -0.15027
0.10289 0.03298 -0.15159
-0.08123 0.00766 -0.10171
-0.24318 -0.05148 0.29487
-0.02504 0.00504 -0.10683
0.03733 0.01362 -0.16970
0.03288 -0.05474 0.32496
0.20273 0.08228 0.04965
0.07211 0.01225 0.05953
-0.04143 0.00294 -0.13338
0.26351 0.03279 -0.23430
-0.09033 -0.29592 -0.91955
-0.02340 0.00402 -0.19199
0.20283 0.07591 -0.05186
-0.05984 -0.00055 0.00685
-0.00214 -0.08494 0.30067
-0.18662 0.02584 -0.20598
-0.04410 -0.00111 -0.04418
0.24893 0.11406 0.05793
0.03768 0.00590 -0.07150
0.01872 -0.01242 0.13290
0.06559 0.01214 0.09200
-0.12165 0.01641 -0.20370
-0.06363 -0.16875 -0.50082
0.09038 0.00136 0.29284
-0.03165 -0.00019 -0.07034
-0.04151 -0.32278 -0.93338
0.18432 -0.00281 -0.35628
0.07961 -0.02265 0.26157
-0.17478 -0.02574 0.10709
-0.12402 0.01595 -0.11336
0.07626 -0.01038 0.25081
0.04420 0.00379 -0.05722
-0.03632 0.00956 -0.18774
-0.08091 0.00632 -0.09904
0.25986 0.11322 0.00513
-0.09268 0.01276 -0.15156
-0.13699 -0.08691 0.24871
0.40164 0.08829 0.43997
0.22316 0.07986 -0.14752
0.25440 0.10081 -0.03573
0.09437 -0.01624 0.25083
0.06827 0.01259 -0.03905
-0.03341 -0.00265 -0.01482
0.09737 0.02976 -0.14364
0.12700 0.03194 0.07531
-0.03272 -0.00334 -0.01192
-0.20043 -0.01701 0.02753
0.08385 0.02628 -0.16122
0.23842 0.11005 0.02372
-0.05402 -0.09091 0.19411
0.01747 -0.03156 0.31394
0.17957 -0.04562 0.27198
0.03302 0.00017 0.07425
-0.25374 -0.10598 0.33170
-0.23438 -0.13024 0.35186
-0.01716 -0.00245 -0.02622
-0.05551 -0.00087 -0.06008
-0.00742 -0.00182 0.10497
-0.02629 -0.00327 -0.01760
-0.12654 -0.01212 -0.17766
0.06130 0.00913 -0.01083
-0.13362 -0.04065 0.08244
0.18951 0.01956 0.19491
-0.19878 -0.01549 -0.01481
0.08509 0.01773 0.03077
-0.14889 0.00869 -0.07384
-0.07546 0.01279 -0.06520
-0.13247 -0.08227 0.20806
0.09278 0.02536 -0.12118
0.04365 0.00727 -0.07608
-0.08811 -0.00472 -0.10648
-0.07426 0.00944 -0.10580
-0.07557 0.00146 -0.02602
0.07099 -0.05689 0.28103
0.05212 0.00534 -0.02572
-0.08593 -0.03386 0.09151
-0.07045 0.00911 -0.09585
0.22748 0.10274 0.10335
-0.18602 -0.01609 -0.01696
-0.04809 -0.18556 -0.55724
-0.07511 0.00618 -0.08922
-0.07182 0.00488 0.01502
-0.07568 0.00434 -0.08233
-0.25751 0.00189 -0.04319
0.03622 0.00951 -0.13172
-0.07463 0.00795 -0.14398
-0.22380 -0.12290 0.29899
-0.22221 -0.12495 0.28672
-0.19381 -0.00447 -0.04479
0.22430 0.03024 0.20932
0.12793 0.03486 0.05596
0.07943 0.02022 -0.10641
0.03878 0.00390 -0.06120
-0.01755 -0.31595 -0.97035
-0.05220 0.00118 -0.06928
-0.23011 -0.13689 0.35524
-0.05220 0.00118 -0.06928
0.08406 0.01003 0.16704
0.06792 0.01339 -0.06022
0.12914 0.03483 -0.02255
-0.04059 0.01203 -0.17705
-0.04054 0.01068 -0.18019
0.06930 0.01531 -0.11836
-0.07879 0.00698 -0.09677
-0.08135 0.01028 -0.14719
-0.13012 0.02380 -0.12897
-0.05423 0.00006 -0.01977
-0.01783 0.00555 -0.16648
-0.07919 0.00309 -0.01224
0.06885 0.01432 -0.12086
-0.06064 -0.00043 -0.05429
-0.19769 0.00580 -0.09706
-0.09194 -0.05185 0.12020
0.07863 -0.06120 0.28410
0.04840 0.01218 -0.14560
-0.19460 -0.01642 -0.02267
-0.25310 -0.07608 0.27732
0.12559 0.03841 -0.20045
-0.05011 -0.00034 -0.01358
-0.03200 -0.11777 0.23932
-0.12343 0.00823 -0.04786
0.01325 -0.01316 0.16978
0.05505 0.01019 -0.10027
-0.09209 -0.04124 0.09057
0.08131 -0.06074 0.28541
0.12279 0.04019 -0.11494
-0.22327 0.03193 -0.16798
0.01180 -0.06841 0.31457
-0.09033 -0.29592 -0.91956
-0.00960 -0.00365 0.00842
-0.18094 0.02432 -0.23028
-0.00680 -0.00349 0.00510
-0.11142 -0.09340 0.39289
-0.03340 0.00010 -0.12011
-0.01345 -0.00488 0.02799
0.02743 0.00966 -0.17901
-0.00087 -0.00189 0.05089
-0.00818 -0.22724 -0.78571
-0.01760 -0.00551 -0.01394
-0.02562 0.00636 -0.15831
0.00931 -0.00084 -0.04459
0.03442 0.00058 0.16092
-0.00074 0.00650 -0.16221
0.00188 -0.00371 0.05386
0.00600 0.00140 -0.13890
0.00188 -0.00371 0.05386
0.03019 -0.02277 0.31572
0.00739 -0.01200 0.14082
0.02871 -0.01138 0.30691
0.00093 -0.00505 0.03324
0.02249 -0.01465 0.30779
0.02248 -0.01467 0.30776
-0.08710 0.00479 -0.21650
-0.01431 0.00411 -0.13221
-0.01988 -0.00152 0.05124
-0.04353 -0.12325 0.22617
0.05794 0.01603 -0.11618
-0.00486 -0.07521 0.29585
-0.04102 -0.33274 -0.97138
-0.01257 -0.08250 0.28951
0.00672 -0.00185 0.05655
0.06438 0.01575 -0.12371
-0.06061 -0.00273 -0.26402
-0.02366 -0.00594 0.01869
-0.00956 -0.08241 0.26230
0.00345 -0.00335 0.00025
-0.29904 0.04799 -0.06575
-0.02722 -0.00733 0.09613
-0.04717 0.00136 -0.08621
0.05319 0.00867 -0.08790
0.02704 -0.01347 0.31013
-0.08795 0.01936 -0.24763
-0.01151 -0.06520 0.26746
-0.01137 -0.07192 0.26607
-0.00912 -0.09425 0.30107
0.01020 -0.00484 0.05506
0.02985 -0.05058 0.32657
-0.09822 0.01500 -0.18834
0.09160 0.02328 -0.11588
-0.10379 0.00670 -0.05591
0.21073 -0.16620 -0.29892
0.00657 0.00049 -0.26595
0.01026 0.00745 -0.22314
0.06003 -0.00028 0.21892
-0.03794 -0.28543 -0.91223
0.02259 0.08255 0.19360
-0.08584 0.01264 -0.13195
-0.13286 0.02058 -0.11697
-0.01955 -0.05845 0.25543
-0.01715 -0.09349 0.29795
-0.12974 -0.07333 0.16336
0.01385 -0.00204 0.02737
-0.12746 0.02063 -0.21630
-0.12830 0.02403 -0.20835
0.01509 -0.00320 0.03613
-0.02069 -0.08522 0.28116
0.21536 0.08695 0.01303
-0.03530 -0.00171 0.04902
-0.03701 -0.00538 0.00516
-0.02769 -0.06576 0.19685
0.02657 -0.00172 0.14524
0.10087 -0.02899 -0.42693
0.02182 -0.00179 0.07951
-0.03958 -0.00507 0.00508
0.02515 -0.00196 0.11351
0.02946 0.00041 0.16024
-0.02591 -0.10208 0.29862
-0.02586 -0.29701 -0.92612
0.02443 0.00575 -0.09505
0.14600 0.04338 -0.09478
0.10355 0.03640 -0.19562
0.01820 -0.00388 -0.01093
0.02934 -0.00126 0.08136
-0.01118 0.00315 -0.21140
0.02394 0.00044 0.05563
-0.26539 0.03092 -0.05650
0.02958 0.00039 0.12185
0.03170 0.00083 0.14648
0.05071 0.01669 -0.16884
-0.16336 -0.02964 -0.39566
-0.03184 -0.00198 -0.04405
0.03633 0.00107 0.19725
-0.29414 0.03797 -0.07003
-0.03293 -0.00864 -0.24640
-0.03306 -0.00872 -0.24680
-0.04204 0.00204 -0.09828
0.12618 0.02646 -0.01594
-0.09054 0.00678 -0.20810
-0.00660 0.00357 -0.10394
0.12716 0.04439 -0.24262
-0.20770 0.03234 -0.22177
-0.08611 0.00952 -0.17258
-0.17025 0.01549 -0.26760
-0.11116 0.01621 -0.21439
-0.11116 0.01621 -0.21439
-0.29805 0.05632 -0.07155
-0.04464 0.00193 -0.10049
-0.17681 -0.01114 0.00181
-0.02728 0.00249 -0.18795
-0.25113 -0.10497 0.30194
-0.11125 0.00479 -0.20373
-0.04272 -0.09497 0.20847
-0.05465 -0.00107 0.00269
-0.04689 -0.08338 0.19528
-0.22486 -0.09648 0.23398
-0.19488 -0.08857 0.32026
-0.04734 -0.09442 0.20567
-0.04426 -0.12775 0.25134
0.26073 0.06407 0.21871
-0.05686 0.00105 0.07244
-0.05686 0.00105 0.07244
0.12805 0.03060 -0.00426
-0.05568 -0.07276 0.14763
0.21070 0.02019 0.19757
0.01134 -0.01030 0.11124
0.08093 -0.01441 0.22593
0.03933 0.00154 0.04073
0.10209 0.03478 -0.12355
-0.01214 -0.02241 0.15425
-0.22088 -0.10387 0.25242
-0.06221 -0.02084 0.09908
0.08362 0.02895 -0.16108
-0.06212 -0.03178 0.10726
0.08625 0.02786 -0.11842
0.06834 -0.06505 0.29301
-0.06128 -0.06393 0.14388
0.06969 -0.05162 0.28527
0.07729 -0.01049 0.24198
0.04568 -0.00030 0.01099
-0.06515 -0.10198 0.19483
-0.06378 -0.11375 0.19422
-0.07141 -0.01493 0.06672
-0.06554 -0.11293 0.19157
-0.06630 -0.11128 0.19119
0.07499 -0.01177 0.25946
-0.11872 -0.10192 0.40869
-0.21533 -0.05633 0.16956
0.07879 -0.06095 0.28543
-0.07471 -0.00613 0.05676
0.07640 -0.02245 0.26127
-0.06921 -0.11048 0.19128
0.08046 -0.04853 0.27343
-0.07769 -0.00368 0.04756
-0.07129 -0.10102 0.18550
0.07888 -0.01552 0.25461
-0.07122 -0.11372 0.19560
0.07925 -0.01077 0.24963
0.08140 -0.03072 0.26290
0.08192 -0.03222 0.26299
-0.07310 -0.10583 0.18930
-0.07226 -0.12665 0.20526
0.08069 -0.00847 0.24862
0.07886 0.00053 0.22909
0.08114 -0.00461 0.23603
0.08114 -0.00461 0.23603
-0.07641 -0.12213 0.21014
0.08031 -0.00085 0.20734
0.14833 -0.07590 0.30748
-0.08511 -0.01357 0.06616
0.08675 -0.01687 0.25067
0.07965 0.02413 -0.15050
-0.08159 -0.08508 0.18523
-0.08158 -0.08502 0.18540
-0.05327 -0.13877 0.24436
-0.08173 -0.08963 0.18913
0.08965 -0.03187 0.26383
-0.20974 -0.04292 0.15184
-0.20974 -0.04292 0.15184
0.08653 -0.06316 0.28690
0.03183 -0.02095 0.31113
0.05895 0.00461 0.03775
-0.08931 -0.01369 0.06995
-0.03221 0.00305 -0.07777
0.09089 -0.00731 0.24052
-0.08311 -0.12029 0.22002
-0.08309 -0.12017 0.22033
0.09213 -0.01252 0.24746
0.09346 -0.01776 0.25303
-0.17139 0.00481 -0.05925
0.09664 -0.04508 0.27070
0.02750 -0.00097 0.00019
-0.08656 -0.09039 0.20078
0.09602 -0.01622 0.25258
-0.08679 -0.11398 0.22225
-0.20601 -0.04961 0.16088
-0.08776 -0.11111 0.21867
-0.20600 -0.01923 0.13305
-0.08948 -0.10000 0.21265
0.18581 0.06480 -0.00803
-0.09052 -0.11595 0.22734
0.10353 -0.05319 0.26495
-0.10115 -0.00364 0.06063
0.10464 -0.03588 0.26674
-0.09664 -0.09320 0.20797
-0.20406 -0.07512 0.18952
0.11014 -0.06835 0.30349
-0.10215 -0.00396 0.05667
-0.09817 -0.08136 0.19748
-0.10296 -0.01041 0.06206
0.10590 -0.03793 0.26631
-0.09808 -0.10267 0.21757
0.10621 -0.03482 0.26592
0.03812 0.00057 0.01170
0.10730 -0.02480 0.26804
-0.10406 -0.00728 0.06749
-0.20308 -0.02032 0.12136
-0.02508 0.00082 -0.09702
-0.02508 0.00082 -0.09702
-0.09912 -0.10542 0.22285
0.11362 -0.06693 0.30832
-0.10029 -0.09960 0.22096
0.22125 0.00353 0.23337
0.22045 0.00521 0.22920
-0.10603 -0.00771 0.06651
-0.10327 -0.07559 0.16347
-0.10313 -0.07544 0.17001
-0.02195 0.00618 -0.15538
-0.10219 -0.10676 0.23087
0.35780 0.07908 0.59716
-0.10317 -0.09777 0.22239
-0.07966 -0.08968 0.19316
0.03753 0.00184 0.03402
-0.10527 -0.09692 0.22244
-0.10730 -0.07467 0.16680
0.10787 -0.01605 0.20530
0.12445 -0.07104 0.32164
0.11639 -0.01723 0.24673
-0.01402 -0.00254 -0.02861
-0.00333 -0.08248 0.30251
-0.19851 -0.01727 0.11994
0.06424 0.01520 -0.12529
-0.19828 -0.08081 0.19967
-0.08134 0.00989 -0.13775
-0.01275 -0.00358 -0.02077
-0.11973 -0.01213 0.02108
-0.19760 -0.01555 0.12045
0.13948 -0.07529 0.32510
-0.19921 -0.13089 0.30356
0.10293 -0.04395 0.27150
0.13877 -0.06674 0.30676
0.12950 -0.01886 0.24152
0.14105 -0.07224 0.32209
-0.19662 -0.01582 0.11062
0.13643 -0.04342 0.28341
0.17683 0.06215 -0.05671
-0.15629 -0.02709 0.09532
0.13065 -0.01775 0.23834
0.13065 -0.01775 0.23834
0.13867 -0.04874 0.28525
-0.12606 -0.01413 0.06956
0.12754 0.02734 0.17006
-0.12866 -0.00943 0.03800
-0.12866 -0.00943 0.03800
0.20848 0.01827 0.19852
-0.08179 0.00909 -0.13530
0.14654 -0.03203 0.25597
0.15026 -0.05746 0.27778
-0.13402 -0.00743 0.05933
0.14888 -0.02722 0.25237
0.15094 -0.02953 0.25817
-0.01134 0.00619 -0.15070
-0.19424 -0.12956 0.30364
0.02153 0.00690 -0.17468
-0.13680 -0.08814 0.24378
-0.00888 0.00429 -0.13441
0.07638 0.02261 -0.14699
-0.02403 0.00324 -0.12850
0.12667 0.02978 -0.04610
0.15999 -0.05736 0.25466
-0.00362 0.00200 -0.09686
0.00429 -0.00504 0.03990
0.00350 -0.00296 0.02052
-0.00040 0.00076 -0.06192
0.16403 -0.05965 0.25429
-0.14562 -0.02474 0.08962
-0.14658 -0.01493 0.08214
-0.14591 -0.04224 0.10874
-0.14793 -0.00613 0.08659
0.00686 -0.00367 0.00608
-0.18997 -0.10794 0.26651
0.00631 -0.00264 -0.02550
0.16188 -0.01116 0.22382
0.06544 0.01796 -0.12394
0.05640 0.01910 -0.18682
0.16944 -0.06605 0.25509
0.05422 0.01420 -0.15515
-0.15253 -0.11277 0.35556
0.00383 0.00313 -0.12218
-0.15250 -0.00829 0.08519
0.05480 0.01202 -0.12280
0.07058 0.00807 0.05257
-0.18754 -0.03746 0.13730
0.00258 0.00633 -0.15899
0.00498 -0.00467 0.15244
0.01449 -0.00012 0.02682
0.17048 -0.04550 0.25588
0.08100 -0.02064 0.25674
-0.18934 -0.07953 0.22831
-0.18707 -0.02821 0.12385
-0.15471 -0.02763 0.10055
-0.15601 -0.05151 0.13714
-0.15601 -0.05151 0.13714
0.03703 0.00371 -0.06166
-0.15651 -0.06311 0.17917
0.19759 0.00861 0.20288
-0.18669 -0.02363 0.12633
-0.07719 0.00825 -0.14526
0.02312 0.00845 -0.18499
0.19784 0.00489 0.20845
0.04506 0.00138 0.15253
0.01787 0.00572 -0.20028
0.18351 -0.06107 0.28032
0.00453 0.00645 -0.25472
0.07506 0.01495 -0.06151
0.19508 0.00570 0.20899
-0.16571 -0.02062 0.10240
0.01681 0.00102 -0.07763
0.17610 0.07614 0.21249
-0.16738 -0.02359 0.11707
0.00737 0.00388 -0.21177
-0.15258 -0.12026 0.38845
0.06717 -0.06172 0.29958
0.00839 -0.06544 0.32183
0.01858 0.00445 -0.08962
-0.26468 0.02963 -0.05973
-0.00345 0.00176 -0.11300
-0.17465 -0.03533 0.13477
-0.18277 -0.12453 0.30870
0.05350 0.00456 0.01923
-0.00140 0.00098 -0.09627
0.06826 0.01711 -0.12343
0.15406 0.05314 -0.10563
0.18689 0.00682 0.20313
-0.17845 -0.12180 0.30992
-0.17724 -0.02158 0.09395
-0.17847 -0.02035 0.10489
-0.00011 -0.00184 0.11867
-0.19927 -0.13071 0.30431
-0.01179 -0.00548 0.02979
0.00421 -0.00241 0.01566
0.00422 -0.00297 -0.01167
0.04232 0.00377 -0.04510
-0.13820 -0.00993 0.06541
-0.06579 0.00231 -0.01912
-0.06197 -0.12394 0.23826
-0.12034 0.01341 -0.05996
0.00187 -0.05187 -0.06027
-0.00642 0.00396 -0.19797
-0.03111 0.00996 -0.26900
0.05385 0.00691 -0.03174
0.07052 -0.06907 0.30367
-0.04263 -0.00212 0.01472
-0.06841 -0.14096 0.23223
0.06627 -0.04726 0.33247
0.05534 0.01387 -0.13944
-0.09257 -0.24721 -0.75666
0.07807 -0.03100 0.26319
0.05917 0.00701 0.20308
-0.04093 0.00448 -0.23375
0.03975 0.00705 -0.05695
0.05054 -0.09533 0.31085
0.07795 -0.04139 0.25726
-0.15310 0.01515 -0.14759
-0.08033 0.01512 -0.09901
0.02637 -0.00383 0.07628
-0.05886 -0.01958 -0.25859
-0.05891 -0.12825 0.19294
-0.05447 -0.00040 -0.20509
-0.07331 -0.00195 -0.08549
-0.09218 0.00655 -0.15928
0.10762 0.02725 0.01506
0.05293 0.01341 -0.11037
0.07561 0.02684 -0.21315
0.03584 0.00790 -0.15315
-0.01047 -0.07692 0.25750
0.05023 0.01244 -0.13716
0.11953 0.01945 -0.04978
0.00033 -0.00492 -0.01495
0.05027 0.00588 -0.04251
-0.00483 -0.00275 -0.01721
0.05302 0.01070 -0.09888
0.00911 -0.07124 0.27864
-0.12526 0.02179 -0.07911
-0.01631 -0.00450 -0.01309
0.18705 0.00784 0.20730
-0.01223 -0.00278 -0.02661
-0.01291 -0.00408 -0.02237
-0.01152 -0.00476 0.05540
0.18225 0.06341 0.11585
-0.05216 0.00141 -0.03204
0.01743 -0.05108 -0.49121
-0.01218 0.00034 -0.03680
-0.08798 0.01995 -0.24630
-0.15151 -0.03210 0.10400
-0.08299 -0.29000 -0.89025
-0.15997 -0.02069 0.09909
-0.07286 0.00658 -0.08585
0.04873 0.00999 -0.10876
0.20605 0.05790 0.14169
-0.01814 -0.00243 -0.03159
-0.05539 -0.00181 -0.01491
-0.01708 -0.00472 0.00781
-0.03889 -0.10201 0.21361
-0.15265 0.01468 -0.16028
-0.01913 -0.00266 -0.03093
-0.12794 -0.06008 -0.45206
0.08878 -0.01793 0.15064
-0.20104 -0.13564 0.31957
0.00099 -0.00269 -0.01410
-0.17775 0.02504 -0.13253
-0.17825 0.02089 -0.12960
-0.01986 0.00014 -0.03303
0.25423 0.05272 0.21582
0.04073 0.01394 -0.18514
-0.06827 0.00230 -0.26810
-0.07802 0.00338 -0.00757
-0.03170 0.00862 -0.16520
0.21274 0.08246 0.00286
-0.07802 0.00338 -0.00757
0.00425 -0.00289 -0.01122
-0.19298 0.02802 -0.23454
-0.00346 0.00501 -0.19873
-0.02105 -0.00539 0.01364
0.04388 0.01055 -0.13282
0.00944 -0.00373 0.00817
0.25153 0.10504 -0.02041
0.04175 0.00856 -0.15195
-0.02280 -0.00433 -0.01464
0.00883 -0.00238 -0.01910
0.00976 -0.00083 -0.02516
-0.02534 -0.00445 -0.00308
-0.05447 -0.00040 -0.20509
0.08303 0.02518 -0.14258
0.01875 -0.00203 0.01500
0.02025 -0.00296 0.02853
-0.05014 -0.00610 -0.16298
0.00383 0.00313 -0.12218
0.20133 0.00800 0.20839
0.02188 0.00024 0.01894
0.11012 0.01171 0.07770
0.00530 0.00060 -0.09711
-0.10569 -0.00357 -0.05802
-0.12388 0.01293 -0.15943
-0.18714 -0.04460 0.14045
0.08369 0.02662 -0.16114
-0.03120 -0.00219 0.07214
0.04040 0.01017 -0.13381
-0.10900 -0.01251 -0.25091
-0.03472 0.00399 0.00646
-0.02295 0.00565 -0.24863
-0.20433 -0.04964 0.13914
0.00202 0.00422 -0.15923
-0.15236 -0.02599 -0.40614
0.16461 0.04923 0.06185
-0.13276 0.00037 -0.20005
-0.04611 -0.00319 -0.02526
-0.19348 0.02633 -0.20617
-0.05259 -0.00056 -0.00623
0.01676 0.00444 -0.08647
-0.03700 -0.00338 -0.00854
-0.15555 -0.11469 0.35141
-0.04482 -0.00401 -0.00947
-0.07520 0.01669 -0.26169
-0.04381 -0.00273 -0.01497
-0.07102 0.00334 0.00192
0.03098 0.00935 -0.15010
-0.13568 0.00389 -0.16653
-0.00039 -0.00027 0.01435
-0.07267 0.00443 -0.01686
0.33907 0.07760 0.38286
0.23083 0.03532 0.18966
0.01284 -0.00196 -0.03665
0.17143 0.04709 0.17646
0.00000 0.00010 -0.01787
0.00000 0.00010 -0.01787
0.02499 0.00671 -0.18496
0.02556 0.01008 -0.18692
-0.04601 -0.00026 -0.00142
0.02556 0.01008 -0.18692
-0.06213 -0.02013 0.09750
0.02712 0.00919 -0.15737
-0.02599 -0.00376 -0.00878
-0.19111 -0.13626 0.35667
-0.04293 -0.09981 0.20383
0.06063 0.02372 -0.22827
0.07683 -0.02289 0.25914
0.05091 0.01243 0.23301
0.41748 0.08013 0.42953
0.02283 0.00788 -0.18660
0.09885 -0.06240 0.28457
0.02770 -0.03961 -0.49244
-0.15629 -0.02728 0.09460
0.01766 0.00126 -0.01634
0.21125 0.01854 0.20770
0.03236 -0.00263 0.08534
0.02117 0.00690 -0.17133
-0.18563 -0.02053 0.11709
-0.03247 -0.00183 -0.00642
0.16616 0.00384 0.21712
0.03096 -0.00757 0.30335
0.13439 0.04156 -0.14827
0.04881 0.00588 0.19852
0.03298 -0.00098 0.05469
-0.03181 0.02160 0.13837
-0.03544 -0.00390 0.01947
-0.06957 0.00372 -0.09540
0.07461 0.02096 -0.12658
0.02757 0.00143 -0.01519
0.02303 0.00379 -0.09220
0.10283 -0.04410 0.27081
-0.02043 -0.10307 0.29219
0.11211 0.03345 -0.19369
0.02163 0.00451 -0.08986
-0.15310 0.01515 -0.14759
0.01975 0.00547 -0.11486
0.14391 -0.06271 0.32826
0.00026 -0.07680 0.31735
0.02486 -0.00196 -0.01211
0.01469 0.00668 -0.15888
0.16873 -0.00769 0.21898
-0.21300 0.03313 -0.21367
0.05107 -0.02270 0.34189
0.01478 0.00664 -0.13474
-0.15860 -0.00269 0.03467
0.18549 0.01931 0.20861
0.02751 0.00472 -0.08050
0.20397 0.04404 0.18919
0.05811 0.01472 -0.13413
-0.16887 -0.07842 0.18858
-0.17563 -0.02349 0.11499
