# .PCD v.7 - Point Cloud Data file format
VERSION .7
FIELDS x y z
SIZE 4 4 4
TYPE F F F
COUNT 1 1 1
WIDTH 1878
HEIGHT 1
VIEWPOINT 0 0 0 1 0 0 0
POINTS 1878
DATA ascii
0.11404 -0.01135 -0.00138
-0.09875 0.00800 -0.00142
0.13202 0.01807 0.00553
0.04238 -0.02130 0.00600
0.11423 -0.01735 -0.00023
0.13219 0.01806 0.00530
-0.04286 0.03682 -0.00577
0.01207 -0.02167 -0.01621
0.00820 0.02605 -0.11280
0.12367 0.00148 0.00579
-0.05426 -0.01814 0.00893
0.08097 0.00119 -0.10568
0.03899 -0.03704 0.00600
0.03585 -0.04786 0.00757
-0.05396 0.02810 -0.00174
0.03585 -0.04786 0.00757
-0.21038 -0.00361 0.32044
0.00937 -0.00835 -0.04583
-0.00635 -0.00826 -0.01655
0.05464 0.03878 -0.10422
0.09843 0.03875 0.00250
0.13224 0.00615 0.00431
0.06306 -0.00107 0.00375
0.06306 -0.00107 0.00375
0.13079 -0.01609 0.00690
0.05098 -0.00458 0.00209
-0.11155 -0.01700 -0.01146
0.10074 -0.00476 0.00343
0.08623 0.00782 -0.04147
-0.12611 0.00123 -0.00139
0.06234 0.00145 0.00410
-0.10339 -0.02047 0.00220
-0.10565 -0.03522 0.00788
0.01094 0.04082 -0.02764
0.13056 -0.01937 0.00534
0.03820 -0.04323 0.00564
0.06109 0.03504 -0.04463
0.12928 0.03312 0.00168
0.12477 0.00022 0.00572
-0.12350 -0.01514 -0.00371
0.13917 -0.03093 0.00860
0.11409 -0.02244 0.00206
-0.10062 0.02769 -0.00438
0.05191 -0.00162 0.00106
0.05260 -0.00657 0.00287
0.06024 0.03845 0.06757
-0.13437 -0.04707 0.02514
-0.06920 -0.01843 0.00827
-0.02755 -0.01435 -0.01876
0.04397 0.02260 -0.20665
0.00717 0.02619 -0.08377
0.05318 0.03336 -0.00033
0.11548 -0.03180 0.00736
-0.01595 0.03014 0.18047
-0.04120 0.03157 -0.08340
-0.06558 0.02275 -0.04650
0.13438 -0.00242 0.00271
-0.02545 -0.01540 -0.01898
0.00437 0.01800 -0.28116
0.05487 0.02550 -0.00007
0.10315 -0.00230 0.00340
0.00396 -0.03572 0.02262
-0.07793 -0.00631 0.00024
0.07567 0.01233 0.00390
-0.01521 0.02242 -0.33407
0.05655 -0.00008 0.00331
0.00388 -0.01138 -0.01850
0.13016 0.01858 0.00488
0.13033 0.01886 0.00475
0.05742 0.03268 0.00189
0.12912 0.00057 0.00577
-0.10464 -0.01332 -0.00340
-0.03509 0.02171 0.20033
0.07472 -0.00471 0.00321
-0.06450 0.03761 0.01313
-0.06450 0.03761 0.01313
0.03242 -0.03479 0.00536
0.36644 0.11860 1.00000
-0.14554 0.03437 0.07390
0.06159 -0.00296 -0.03423
0.13040 0.01541 0.00556
-0.13567 -0.04245 0.00154
0.00065 -0.01761 -0.01599
-0.03309 -0.04544 0.00608
0.09142 0.00920 0.16670
0.10663 -0.03469 0.00662
0.12466 0.01236 0.00285
0.14064 0.02585 0.01066
0.10687 0.00082 0.16781
0.12676 0.01552 0.00452
0.10110 0.01208 0.00450
0.00173 0.02457 -0.30642
-0.01187 0.02492 -0.16446
0.13009 -0.00361 0.00455
0.02930 -0.05876 0.12109
-0.10127 0.03061 -0.00793
0.02609 0.02530 -0.23208
-0.06172 0.00805 0.00312
-0.03603 -0.04368 0.00410
-0.02459 -0.00798 -0.01667
0.10162 0.03499 0.00042
0.03321 -0.01093 -0.01965
-0.04506 0.00133 0.00250
-0.11886 0.00054 -0.01105
-0.04343 -0.00359 0.00002
-0.04264 0.00021 0.00103
0.08592 -0.00380 0.00489
-0.13826 -0.04095 -0.00018
0.05794 0.00424 -0.04106
-0.13533 -0.02628 -0.00170
-0.12672 0.01480 -0.00736
-0.04024 -0.02829 -0.00086
-0.03894 -0.02107 -0.00274
-0.04884 0.01265 0.00083
0.02698 0.00673 -0.18504
-0.04946 -0.00650 0.00097
-0.03115 0.02705 -0.02239
-0.04958 -0.00445 0.00003
-0.04782 0.03669 -0.00219
-0.03860 -0.03086 0.00011
-0.03734 -0.03130 -0.00300
-0.03847 -0.03215 0.00052
-0.03513 0.00002 -0.00850
-0.03742 -0.01725 0.00109
-0.04244 0.02771 -0.05174
-0.05105 0.00010 0.00133
-0.16765 -0.06789 0.13041
-0.03177 -0.01654 -0.01672
-0.06183 0.03988 0.11935
-0.03768 -0.04045 0.00369
-0.03071 0.00014 -0.01732
-0.03681 -0.04297 0.00353
-0.03211 -0.01149 -0.01878
0.00270 0.02167 -0.30223
-0.18718 0.06336 0.32860
-0.03463 -0.03438 0.00313
0.08073 0.03799 0.01508
0.10043 0.03457 0.06222
0.08069 -0.00674 0.00535
-0.03121 -0.03378 0.00483
-0.02496 -0.00153 -0.01657
-0.03061 -0.03273 0.00479
-0.03161 -0.04127 0.00904
-0.11576 0.04459 0.09984
0.06887 -0.04794 0.13999
-0.05763 0.02274 -0.04597
-0.05501 0.03341 -0.00279
0.12618 -0.04547 0.01129
-0.05860 -0.00357 0.00087
0.01659 -0.00814 -0.01604
-0.06144 0.01456 0.00848
-0.05585 0.03333 -0.00464
0.12043 0.09088 0.63650
-0.02185 -0.02767 0.00209
-0.06097 0.00140 0.00186
0.02535 0.02676 -0.22343
-0.01454 -0.00392 0.00154
-0.06525 -0.01735 0.00436
-0.06308 0.00956 -0.00041
-0.05976 0.03251 -0.00552
0.07116 0.03708 -0.00045
-0.00980 0.00018 -0.00969
-0.00752 -0.00754 -0.01827
-0.00709 0.02700 -0.01969
-0.01835 0.03066 -0.02128
-0.06165 0.03249 -0.00566
-0.06730 -0.01689 0.00239
0.06233 0.01556 -0.04083
0.05007 0.01221 0.00322
-0.00725 0.02401 0.02076
-0.00207 -0.00706 -0.01659
-0.06387 0.03331 -0.00462
0.04985 0.03270 0.00085
0.00510 -0.03051 -0.01761
0.08793 -0.00476 0.00392
-0.01593 0.02122 -0.34962
-0.05285 -0.00632 0.00069
-0.07434 0.00816 0.00084
0.06512 0.03419 -0.00012
-0.02920 -0.03130 0.00423
-0.05811 -0.13237 0.46151
0.01689 -0.03146 0.00716
0.01790 -0.02722 0.00289
0.00368 0.02231 -0.30286
0.03287 0.03741 -0.15267
-0.05430 -0.01667 0.00111
-0.01781 0.02410 -0.30525
0.02237 -0.03009 0.00681
-0.09250 -0.03348 -0.04564
-0.07754 0.03324 -0.00600
0.02361 -0.00607 -0.01468
-0.08368 -0.00358 0.00064
0.02600 -0.02672 0.00496
-0.08847 -0.03196 0.00335
0.03054 -0.03212 0.00887
0.06410 -0.00988 0.00134
0.00396 0.02228 -0.30308
-0.09080 -0.03472 0.00356
0.03274 -0.04075 0.00728
0.00310 0.02349 -0.26975
0.00235 0.02492 -0.22185
0.12170 -0.04561 0.01220
0.12170 -0.04561 0.01220
-0.06755 -0.00008 0.00061
-0.09108 0.03339 0.00513
0.03607 -0.04641 0.00773
0.03607 -0.04641 0.00772
-0.10490 -0.03586 0.02071
0.03599 -0.04190 0.00637
0.04347 0.03257 -0.19163
0.06193 0.03732 -0.14637
-0.07929 -0.01806 0.00709
-0.10332 -0.04205 0.01379
0.04745 -0.00448 0.00145
0.00053 0.02552 -0.20706
0.05930 0.00133 0.00458
-0.11345 -0.04231 -0.00245
-0.10390 -0.02365 0.01331
-0.09976 -0.02188 0.00672
-0.10295 -0.04143 0.00876
0.01045 -0.05208 0.08341
0.06168 -0.00302 -0.03487
0.01586 -0.00852 -0.01431
0.07561 0.04037 -0.07457
-0.05770 0.03106 -0.06202
0.04008 -0.03237 0.00278
-0.10053 -0.01640 0.00662
-0.01765 0.02119 -0.35031
0.04231 -0.02381 0.00838
0.04177 -0.02446 -0.00056
0.04299 -0.02348 0.01211
-0.06087 0.03089 -0.04896
0.06522 0.03379 0.03825
0.04286 -0.02147 0.00697
-0.09823 -0.00363 0.00056
-0.10270 -0.02364 0.00556
0.04024 0.03233 -0.00467
0.05780 0.00253 0.00515
-0.01722 0.02364 -0.31427
0.04051 0.03292 -0.00774
0.06315 0.03300 0.00966
-0.10974 -0.04580 0.01316
-0.09792 -0.01061 -0.00262
-0.10522 -0.02667 0.00679
-0.04846 -0.00455 0.00047
0.04492 0.00265 0.00438
-0.11447 -0.03320 0.00355
0.04555 -0.00469 0.00283
-0.10982 -0.00732 -0.00963
-0.10601 -0.03447 0.00474
0.04733 -0.02109 0.00742
-0.05175 0.02473 -0.28893
-0.05255 0.03409 -0.07650
-0.09621 0.03244 -0.00512
-0.09559 0.03315 -0.00623
0.04791 0.01442 0.00618
0.06330 0.03477 0.06345
0.05487 0.00117 0.00197
0.04937 0.00098 0.00758
-0.09694 0.03856 -0.00408
0.00308 0.02533 -0.21549
0.00309 0.02529 -0.21681
0.04922 0.01486 0.00414
0.10768 -0.02933 0.11687
-0.10393 0.02245 -0.00327
0.05203 -0.00623 0.00042
0.03036 0.00189 -0.22692
0.00611 0.02587 -0.27978
-0.03854 -0.01409 -0.00319
0.03648 0.02675 0.00112
-0.01096 0.02373 -0.23908
0.02052 0.02749 -0.16436
-0.03225 0.02100 -0.01944
0.00222 0.01932 -0.28992
0.00238 0.01964 -0.29163
-0.08114 -0.00355 -0.00087
0.03000 0.01594 -0.22110
0.02083 -0.01193 -0.01599
0.02098 -0.01171 -0.01735
0.02711 -0.02000 0.05615
0.08715 0.03352 0.02552
0.00099 0.02187 -0.29271
-0.12146 0.03921 -0.05889
0.05403 -0.00829 -0.03873
0.07829 -0.00422 -0.00902
-0.03172 0.03747 -0.12734
-0.05833 0.03225 -0.00191
-0.11345 -0.02781 0.00207
0.02987 0.03138 -0.02731
0.03341 0.01245 -0.22743
-0.07419 -0.01325 0.00124
-0.05998 0.00133 0.00284
0.00896 0.02929 -0.01619
-0.00822 0.02335 -0.31650
-0.04670 0.01379 0.00067
0.03107 -0.01684 -0.01529
-0.01607 0.02591 -0.27424
0.02460 0.02692 -0.22804
-0.05234 -0.01733 0.00414
0.07532 0.03106 -0.00024
0.00748 0.01904 -0.28274
-0.04161 0.04158 0.10998
0.02522 0.01921 -0.20437
0.05441 0.02974 0.00251
-0.11732 0.03564 -0.01595
-0.11718 0.03588 -0.01614
-0.11054 0.03235 -0.01805
0.05858 0.00554 -0.07498
-0.11054 0.03235 -0.01805
0.02913 -0.01094 -0.01945
-0.08044 0.00968 -0.00087
0.04044 0.05067 0.06022
0.00417 0.02228 -0.30298
-0.04367 -0.00458 -0.00003
0.07893 0.03115 -0.07980
0.00242 0.02343 -0.27021
-0.05062 0.00983 0.00006
-0.04669 0.03277 -0.00045
0.02935 -0.00630 -0.01581
0.07649 0.02978 0.00645
0.07071 0.03254 -0.00363
0.05527 -0.02065 0.00608
-0.06886 0.02755 -0.03925
0.13198 0.05571 0.15986
0.07948 0.02844 0.00421
-0.05302 -0.02147 0.00362
0.08533 0.03941 -0.06075
0.03907 0.02881 -0.19899
-0.00941 0.03164 -0.01618
-0.12933 0.03861 0.14371
0.00308 0.02078 -0.29791
0.10050 -0.00180 0.05724
-0.10817 -0.02741 0.01029
-0.07095 0.03325 -0.00537
-0.10843 -0.02561 0.02392
0.06523 -0.00006 0.00402
-0.10001 -0.01825 0.00982
0.04511 0.02970 -0.09277
-0.07528 0.03314 -0.02363
-0.12321 -0.05238 0.03823
-0.02105 0.02826 -0.13709
-0.11345 -0.04231 -0.00245
0.04529 0.03262 -0.00140
-0.07536 0.02732 -0.04789
0.05156 0.03248 -0.00299
-0.10225 -0.02433 -0.01175
0.09781 -0.02053 0.00940
0.06167 -0.00884 0.06496
-0.00496 -0.00999 -0.02704
-0.13783 -0.03405 0.02973
-0.03011 0.03824 0.04398
-0.07625 0.00002 0.00101
0.10149 0.00366 0.00713
0.03143 -0.00248 -0.01788
-0.05752 0.00144 0.00165
0.12697 -0.04739 0.18788
-0.05679 0.01945 0.00246
0.03682 -0.04804 0.00816
-0.05368 0.03236 -0.00425
0.00127 0.02740 -0.25695
-0.10036 -0.00340 0.00016
-0.05533 0.00964 -0.00049
0.05720 0.00937 0.00290
-0.08638 -0.00891 0.06422
-0.03675 -0.00218 -0.12664
0.05817 0.01944 0.00599
-0.03276 -0.00617 -0.07352
0.13242 0.05618 0.17748
0.03601 -0.04821 0.00787
0.03601 -0.04821 0.00787
-0.06018 0.00127 0.00346
0.00113 0.02887 -0.24366
0.03111 -0.01168 -0.02013
-0.07342 -0.02309 0.06486
0.07965 -0.02015 0.00538
0.07965 -0.02015 0.00538
-0.06054 -0.01311 0.00142
-0.10001 -0.00467 -0.00028
0.02887 0.00848 -0.09983
0.03756 -0.04555 0.00736
0.03758 -0.04553 0.00730
0.05417 0.03335 0.00020
-0.05311 0.00115 0.00038
0.10708 -0.01700 0.16882
0.00759 -0.00021 -0.01402
0.03526 -0.04799 0.00782
0.06785 0.05464 0.13650
0.00800 -0.01168 -0.01615
0.02333 0.01630 -0.19605
0.03766 -0.04408 0.00641
0.03775 -0.04414 0.00664
0.05491 -0.01805 0.00350
0.05948 0.00501 0.00602
-0.03144 -0.04134 0.00300
-0.04937 0.03263 -0.00500
0.09033 0.04139 0.25224
-0.01992 -0.01383 -0.01681
0.03308 -0.01164 -0.02028
-0.07779 0.03663 0.07768
0.06077 -0.01536 0.00448
-0.02187 0.00285 -0.64877
0.07580 0.00374 0.00617
-0.08083 -0.02893 0.06971
-0.06256 -0.00091 0.00045
-0.07979 -0.02594 -0.08859
0.05847 -0.00572 -0.00138
0.03403 -0.04288 0.00327
-0.04736 0.03249 -0.00665
0.00169 -0.00784 -0.01624
-0.05014 -0.00070 0.00063
0.03649 -0.02349 -0.00200
-0.00000 -0.02700 -0.00866
0.00825 0.00202 0.03916
-0.06676 -0.01972 0.00272
0.01227 -0.01211 -0.01510
0.05574 -0.01643 0.00311
0.05172 0.03330 -0.00149
0.10219 0.03695 0.07219
0.05689 0.03346 0.00169
0.03843 -0.03981 0.00517
0.00157 0.02684 -0.26666
0.07984 -0.02168 0.00456
0.00993 -0.00707 -0.01696
0.03858 -0.04174 0.00414
-0.14446 -0.05516 0.05057
-0.04646 0.03266 -0.08835
0.05581 0.05109 0.06620
-0.02936 0.02945 -0.10712
0.03424 -0.01087 -0.01928
0.03352 -0.04306 0.00462
-0.00238 -0.01029 -0.14685
-0.08826 -0.02633 -0.08464
0.03454 -0.00737 -0.01743
0.05119 0.03339 0.00034
-0.06382 0.03259 -0.00413
-0.00625 -0.05083 0.04897
0.03899 -0.03494 0.00451
0.00953 0.02415 0.00077
-0.00200 -0.00695 -0.01692
0.01143 -0.05364 0.08625
0.05426 -0.01397 0.00530
0.12575 -0.06812 0.02914
-0.04182 0.03308 -0.00954
0.00624 -0.03222 -0.05279
0.03318 -0.04353 0.00639
0.05465 -0.02150 0.00582
-0.07237 0.03382 0.00693
-0.00368 -0.00703 -0.01729
-0.10217 0.03505 0.07106
0.03289 -0.01528 -0.00612
-0.00370 -0.01563 -0.01893
-0.03605 0.00097 -0.06889
0.10347 -0.02353 0.02218
-0.00481 -0.00757 -0.01735
-0.07341 -0.00376 0.00210
0.03591 -0.01160 -0.02024
-0.07819 -0.01708 0.00057
0.02814 -0.01105 -0.01896
0.02803 -0.01424 -0.01938
-0.07369 0.03279 0.00236
-0.00606 0.00014 -0.01459
-0.04073 -0.02476 -0.00236
0.01843 -0.06631 0.17266
-0.07492 0.00427 0.00106
-0.00821 -0.08821 0.26128
0.00409 -0.04929 0.06524
0.02942 -0.01155 -0.02090
0.09994 -0.00368 0.00385
-0.00644 -0.01109 -0.01984
-0.04046 -0.01701 0.00035
0.08810 -0.00798 0.05915
-0.00105 -0.06106 0.12276
-0.07842 -0.02016 0.00325
-0.03995 -0.02636 -0.00178
-0.02089 -0.03060 0.00983
-0.09515 -0.01753 0.03653
0.09228 -0.00488 0.00380
0.07641 0.03324 -0.00006
0.01391 -0.00761 -0.01737
-0.07339 0.03244 -0.00361
-0.03103 -0.04333 0.00068
0.01155 0.03149 -0.02011
0.06514 0.03422 -0.00010
0.05065 -0.01320 0.00397
0.02459 -0.05465 0.11766
0.00084 0.01312 -0.25626
0.02745 -0.04636 0.06637
-0.03863 -0.03090 0.00024
-0.04067 -0.01914 0.00306
-0.00895 -0.01224 -0.01838
0.01442 -0.01139 -0.01911
-0.03843 -0.03469 0.00433
-0.03843 -0.03469 0.00433
0.06582 0.03337 -0.00027
0.03437 -0.03735 0.00463
-0.03731 -0.03453 0.00189
-0.03735 -0.03453 0.00193
-0.11208 -0.05880 0.00466
0.04830 0.01361 0.00355
0.08060 0.03240 -0.00317
0.02597 -0.01096 -0.01941
-0.03182 -0.01685 -0.01582
-0.03813 -0.04309 0.00724
-0.03677 -0.03954 0.00302
0.08033 0.01303 0.00260
-0.03686 -0.03580 0.00356
-0.09768 0.03234 -0.00542
-0.03680 -0.04288 0.00299
-0.09944 -0.03924 -0.01401
-0.02769 0.02915 -0.02610
-0.02912 0.02689 -0.02086
-0.00837 0.02869 -0.23694
0.02529 -0.01190 -0.01627
-0.03521 -0.04761 0.00533
-0.10845 -0.04362 0.00387
0.06299 0.01233 0.00351
0.16575 0.04183 -0.07893
0.04292 -0.02232 0.00332
-0.03465 -0.04805 0.00643
-0.03054 0.02615 -0.00662
-0.02963 0.02617 -0.01029
0.06982 0.03341 0.00274
0.06242 0.03648 0.01654
-0.02704 -0.01171 -0.02057
-0.02815 -0.04926 0.09353
0.04806 -0.01751 0.00574
-0.04951 -0.07246 0.23350
-0.08421 0.01370 -0.00044
-0.02630 -0.01093 -0.01988
0.06976 0.00947 0.00296
0.04285 0.03237 -0.00623
-0.03055 -0.02448 0.00021
0.02388 -0.01098 -0.01908
0.01823 -0.00020 0.01077
0.02341 0.01929 -0.00845
0.02388 -0.01631 -0.01842
0.04586 0.01946 0.00801
0.04586 0.01946 0.00801
-0.03252 -0.04302 0.00907
-0.02842 -0.01903 -0.00525
0.01817 0.00397 0.00222
0.04696 0.04289 -0.05559
0.02320 0.01515 -0.00470
-0.08374 0.03245 -0.00517
0.05032 0.04282 -0.05289
0.04653 -0.01981 0.00344
-0.02408 0.00523 -0.61265
0.01875 -0.01184 -0.01953
0.00498 -0.02433 -0.07397
-0.01782 -0.02399 -0.00173
-0.01609 0.03187 -0.02275
0.04471 -0.01616 0.00617
-0.12182 -0.03337 0.00412
0.08438 0.02300 0.00744
0.08715 0.01761 0.00509
-0.01826 0.00033 -0.01697
-0.01849 0.00015 -0.01575
0.01973 -0.01108 -0.01879
-0.01840 0.02330 -0.01658
-0.01862 0.01743 -0.01637
-0.01804 -0.01114 -0.01931
0.02011 -0.03878 0.01797
0.07205 0.00501 0.00552
-0.10104 -0.04147 0.00386
0.07242 0.00050 0.00566
-0.00334 -0.01119 -0.01904
-0.09149 0.02627 -0.00226
0.00954 -0.05440 0.08299
-0.13719 -0.03651 -0.00001
-0.01344 -0.04965 0.06081
0.06009 0.00070 0.00413
0.02466 0.02715 -0.23823
0.04505 0.00259 0.00498
0.01995 0.03580 0.11172
-0.06913 -0.00484 0.00272
0.07153 -0.00563 0.00276
0.00207 -0.01175 -0.02004
-0.11551 -0.03498 0.00400
0.00626 0.02460 -0.25008
0.09001 0.03328 -0.00084
-0.10462 0.00011 0.06505
0.06256 -0.00580 -0.07539
0.00142 0.02268 -0.29411
0.00238 0.02260 -0.29734
-0.12105 -0.04581 0.00314
0.00664 0.02514 -0.22621
0.06446 0.03343 -0.00090
-0.07725 0.01097 0.03656
-0.10940 -0.04347 -0.00327
-0.00826 0.00380 0.04652
-0.11701 -0.04752 0.01078
-0.11908 -0.05248 0.01613
-0.11908 -0.05248 0.01613
0.07522 -0.01595 0.00740
-0.13305 -0.00329 0.16213
-0.08792 0.03493 -0.00492
0.07199 -0.00569 0.00313
0.03417 -0.03643 0.00855
-0.03594 -0.04361 0.00361
-0.07823 -0.02145 0.00292
0.00166 0.02272 -0.29150
-0.03606 -0.04526 0.00516
0.05803 -0.01533 0.00489
-0.00094 0.02244 -0.30008
0.04697 0.04526 0.13719
0.00659 -0.01237 0.03501
0.04229 -0.01653 0.00155
-0.12751 -0.06537 0.51660
0.00350 0.02227 -0.30312
-0.04698 0.04212 0.05212
0.06357 0.03524 -0.04298
-0.06637 -0.01716 0.00314
0.14737 -0.02412 0.01261
0.01720 -0.03240 -0.00665
0.14382 -0.02018 0.01036
0.09301 -0.02079 0.00368
0.00116 0.01750 -0.27896
0.00073 0.02277 -0.29689
0.13885 -0.03321 0.00780
0.01152 -0.02946 0.00368
0.13630 -0.04096 0.01113
0.00368 0.02215 -0.30460
0.00368 0.02215 -0.30460
0.06735 -0.02022 0.00608
-0.10827 -0.04087 0.00488
-0.05992 -0.00347 -0.00025
0.09995 0.01486 0.00506
-0.13142 -0.04449 0.00262
0.12542 0.04191 0.00714
0.00242 0.02380 -0.28507
-0.06023 -0.01523 0.00160
-0.03456 -0.00125 -0.06793
0.00372 0.02219 -0.30427
0.00107 0.02236 -0.30021
0.12055 -0.04408 0.00405
0.11833 0.02322 0.00354
0.04304 -0.01967 0.00473
0.10771 -0.03492 0.01519
0.05932 -0.00333 0.00144
0.11579 0.01655 0.00193
-0.12573 -0.04449 0.00238
0.04802 0.03654 -0.00032
0.04851 0.03652 -0.00145
-0.08835 0.00961 0.00044
-0.09464 0.00804 0.03757
-0.08323 -0.01305 0.00119
0.00348 0.02240 -0.30159
0.01534 0.03126 -0.20986
0.11449 0.03293 -0.00062
0.00669 -0.04281 0.05522
0.05847 -0.00582 -0.00154
-0.04833 0.00144 0.00215
0.05915 0.03331 -0.00067
-0.10159 -0.00243 0.00023
0.12036 -0.01586 0.00377
0.01194 -0.03576 0.01307
0.12238 -0.01739 0.00687
0.11674 -0.03341 0.00791
-0.00221 0.02307 -0.28480
0.10348 -0.00018 0.00507
0.03712 0.02976 -0.01146
-0.08508 -0.00462 -0.00003
0.10445 -0.03180 0.34228
0.08085 0.03001 -0.10197
0.03443 0.02685 -0.01476
0.06655 0.00146 -0.04282
0.12498 0.03490 0.00134
0.06384 -0.00323 0.00011
-0.08354 0.03321 -0.00489
-0.11393 0.04883 0.27147
0.07747 0.00951 0.00294
0.13130 0.02333 0.00909
-0.06429 0.01868 -0.04433
-0.09666 -0.00369 0.00151
0.13217 -0.01749 0.00542
0.01828 0.00137 -0.12688
0.06724 0.00120 0.00305
-0.00317 0.03110 -0.25603
-0.01864 -0.04526 0.13889
-0.08021 -0.00004 0.00052
0.07107 0.00182 0.00451
0.07065 0.03336 0.00054
0.07212 0.00121 0.00549
0.07836 0.02391 -0.00317
0.12713 -0.04276 0.00802
-0.05565 0.03410 -0.00747
-0.00268 -0.03904 0.04148
-0.05099 0.02815 -0.06481
0.12682 -0.04516 0.01008
0.07522 0.03191 -0.04449
0.10019 -0.03413 0.01403
0.02967 -0.03649 0.01200
0.09649 -0.01913 0.16975
-0.08089 0.03325 -0.00511
0.12338 0.03720 0.00357
0.07695 0.03326 -0.00138
-0.01476 -0.01977 -0.01737
0.11722 -0.01738 0.00241
-0.04821 0.03028 -0.08013
0.11724 -0.01740 0.00261
-0.06544 0.03314 -0.00658
-0.08390 0.03750 0.06782
-0.09311 0.03319 -0.00625
-0.09068 0.03321 -0.00502
-0.11016 -0.00296 0.06293
-0.09055 0.03314 -0.00531
-0.07532 -0.00333 0.00029
-0.05914 0.01376 -0.00037
-0.06599 0.02777 -0.04402
-0.06790 0.03322 -0.00696
0.04019 -0.02817 -0.00042
0.06087 -0.01738 0.00400
0.00560 -0.03055 -0.00664
0.10323 0.03300 -0.02642
0.01914 -0.00272 -0.09580
0.01660 -0.01115 -0.01915
-0.02963 -0.01349 -0.01872
-0.06570 -0.01998 0.00324
0.09822 -0.02599 0.04506
0.08690 -0.02115 0.02497
-0.00513 0.01752 -0.26871
0.13899 -0.04181 0.00883
0.00351 0.02508 -0.25267
0.11148 -0.03145 -0.05112
-0.04161 0.02776 -0.08558
-0.06355 -0.01793 0.00343
0.12268 -0.03897 -0.01827
0.12279 -0.03933 -0.01809
-0.00623 0.01807 -0.27489
-0.06672 -0.01424 0.00701
-0.00660 0.01815 -0.27424
-0.02222 0.02573 -0.20742
-0.11087 -0.03391 0.15131
0.00409 0.04212 -0.03109
-0.06420 0.02770 -0.06461
-0.06420 0.02770 -0.06461
0.00121 0.01845 -0.28438
-0.04503 -0.10445 0.43432
0.12141 0.01722 0.00191
-0.08847 -0.01625 0.00522
-0.10958 -0.02856 0.06550
-0.05285 -0.01746 0.00270
-0.05403 -0.01830 0.00281
0.14900 -0.00345 0.01039
0.10654 -0.03375 -0.04222
0.03564 -0.03393 0.00125
0.00108 0.02064 -0.29703
0.00167 0.02117 -0.29650
-0.00232 0.02265 -0.29560
0.14905 -0.00479 0.01047
0.12302 -0.01584 0.00466
0.00185 0.02141 -0.29844
0.02378 0.03240 -0.19008
0.00818 0.01867 -0.27800
0.01197 0.02405 -0.26832
0.00187 0.02111 -0.29946
-0.11182 -0.03866 -0.02389
0.00178 0.02120 -0.30010
0.00489 0.01940 -0.29160
0.03177 0.00697 -0.23364
0.00397 0.02390 -0.28112
-0.05823 0.01471 0.00050
-0.04487 -0.01381 -0.04158
0.01810 -0.03575 0.01478
0.01748 -0.03497 0.02734
-0.02489 0.03857 0.06054
0.08913 0.00074 0.00369
-0.05849 0.02811 -0.08746
0.00163 0.00551 -0.21363
-0.07256 -0.00360 0.00061
-0.05009 -0.08790 0.32966
-0.00804 0.02051 -0.26743
-0.00528 0.00452 -0.20578
-0.06408 0.03247 -0.00624
-0.06404 0.03230 -0.00639
-0.06473 0.03313 -0.00538
0.09675 -0.02630 0.06596
0.07196 0.03251 -0.02232
0.12188 0.01706 0.00320
-0.11371 0.03422 0.05212
-0.01003 0.02337 -0.25914
-0.00338 0.01198 -0.24687
-0.00338 0.01198 -0.24687
-0.07833 -0.00040 -0.03276
0.06229 0.00143 0.00311
0.01511 0.02444 -0.26776
-0.09087 0.02612 -0.00331
-0.14145 0.03908 0.16370
0.12728 -0.02525 0.00577
-0.01256 0.02079 -0.25011
0.13589 -0.04507 0.00861
-0.00154 0.00953 -0.23484
0.07884 0.03866 0.11240
-0.01564 0.02514 -0.21728
0.07189 0.00125 0.00469
0.07208 0.00119 0.00513
-0.06391 0.02807 -0.00284
0.07253 0.01452 0.00244
0.12024 0.02657 0.00379
-0.01344 -0.06210 0.16539
0.01737 -0.03081 0.01115
-0.08708 -0.00000 0.00134
-0.07011 0.03238 -0.00800
-0.00599 0.01903 -0.26742
0.01673 0.01751 -0.23628
0.00006 0.03930 0.03838
0.00228 0.01392 -0.26005
0.14613 -0.00225 0.00869
0.01511 -0.03515 0.02768
-0.04057 0.03189 -0.04191
0.09627 0.03714 -0.00130
-0.18274 -0.02081 0.33166
-0.12049 0.00152 -0.00158
-0.05875 0.03477 -0.08536
0.14776 -0.01512 0.01175
0.01072 0.01965 -0.26738
0.07017 0.02453 -0.07396
-0.07488 0.03330 -0.00550
0.01416 0.02676 -0.28266
0.00371 0.02059 -0.28391
-0.06264 0.03328 -0.00448
0.10682 0.03944 0.06422
0.10682 0.03944 0.06422
0.00098 0.00963 -0.23345
0.00084 0.01303 -0.25427
-0.06524 0.03178 -0.02663
-0.09419 0.03237 -0.00582
-0.05141 0.03112 -0.06530
-0.08883 -0.00011 0.00067
-0.04981 -0.00315 -0.00015
-0.07181 0.01373 0.00001
0.12795 0.01736 0.00627
0.00342 0.02019 -0.24805
0.11332 0.03843 -0.00046
0.11332 0.03843 -0.00046
-0.00120 0.02258 -0.29535
-0.09260 0.03239 -0.00534
0.14753 -0.02302 0.01163
0.07584 0.03188 -0.04243
0.05867 0.03381 -0.09479
-0.00080 0.02224 -0.29804
-0.00876 0.02087 -0.26583
0.00356 0.02214 -0.30412
-0.06856 0.03003 -0.05083
0.13139 0.04209 0.00367
0.08238 0.00951 0.00260
-0.11164 -0.01052 -0.00998
0.08501 0.00486 0.00628
0.08265 0.03256 -0.00159
-0.07527 -0.00085 0.00058
-0.08957 0.03143 -0.03220
0.05639 0.03413 -0.18069
-0.00846 -0.02266 -0.01715
-0.07556 0.03241 -0.00404
-0.05521 0.00810 -0.10089
0.02738 0.02601 -0.20018
0.07289 0.00055 0.00489
0.00341 0.02206 -0.30318
-0.06685 0.03488 -0.09260
-0.07619 0.00000 0.00066
0.08043 0.03850 0.17058
0.05576 0.03237 -0.01370
-0.06319 0.03414 -0.00457
-0.10581 -0.02914 0.00403
0.00324 0.02143 -0.29823
0.11959 0.03390 0.00105
0.05560 0.00514 -0.10096
0.08432 0.00438 -0.04012
-0.12063 -0.00543 0.06105
-0.03891 -0.02900 0.00009
0.09717 0.03335 -0.00170
0.04963 0.03378 -0.07064
0.02211 0.01289 -0.20287
-0.04732 0.01684 0.00498
0.00604 0.01270 -0.22367
-0.01534 0.03224 -0.23719
0.06662 0.03102 -0.05194
0.07282 -0.00372 0.00459
0.01491 0.03000 -0.17111
0.00373 0.02187 -0.30308
-0.00752 0.02795 -0.25574
0.00155 0.02272 -0.29596
0.00156 0.02243 -0.29965
0.00299 0.02285 -0.29518
0.00299 0.02285 -0.29518
0.00083 0.02155 -0.29885
0.00187 0.02257 -0.29738
0.00077 0.02278 -0.29713
-0.04081 -0.00848 -0.07203
0.04352 -0.01654 -0.11497
0.03381 -0.03979 0.00691
-0.13383 -0.01623 0.15596
-0.06293 0.02733 -0.06732
0.00367 0.02214 -0.30447
-0.02918 0.03146 -0.11564
-0.00083 0.02323 -0.29162
0.11640 0.02124 0.00306
0.07427 -0.00373 0.00365
0.00324 0.02229 -0.30246
0.00127 0.01704 -0.27924
-0.00259 0.02567 -0.26233
-0.00308 0.00750 -0.22224
0.08230 0.00954 0.00241
-0.06038 0.00076 0.00173
0.02129 0.01762 -0.23727
0.07202 0.03552 -0.00022
0.14985 -0.01094 0.00766
0.14985 -0.01094 0.00766
0.14909 0.00056 0.00921
0.14981 -0.00975 0.00866
0.15096 -0.01632 0.01224
0.14963 -0.00745 0.01009
0.14710 -0.01096 0.00353
0.14841 -0.01310 0.00774
0.14803 -0.01298 0.00675
0.14871 -0.02164 0.01256
0.14538 -0.01874 0.01287
0.14417 -0.02022 0.01114
0.14234 -0.02229 0.00772
0.14214 -0.02218 0.00706
0.14180 -0.02366 0.00906
0.13957 -0.01523 0.00809
0.00288 0.02086 -0.29840
0.12959 -0.05160 0.02570
-0.01141 0.04736 0.06660
-0.11854 -0.01242 -0.01174
0.03010 0.00701 -0.23363
0.11801 -0.02910 0.01466
0.11390 -0.04540 0.01066
0.10925 -0.04463 0.01335
0.03603 -0.04187 0.00646
0.10897 -0.04368 0.01994
0.10721 -0.04092 0.03291
0.09277 -0.02161 0.00592
-0.13741 -0.03942 -0.00054
-0.14409 -0.01023 -0.00564
0.11453 -0.03337 0.14891
0.08844 -0.02305 0.01353
0.00033 0.02319 -0.29096
0.00351 0.02219 -0.30391
-0.14577 0.00033 0.00233
0.11549 0.02546 0.00069
0.06098 0.03687 -0.00067
-0.14498 -0.01266 0.00086
-0.14502 -0.01266 0.00091
0.06655 -0.04173 0.08622
-0.14544 -0.00325 0.00312
0.04934 -0.02335 0.02053
-0.14537 -0.01344 0.00394
0.04179 -0.02448 -0.00052
0.04214 -0.02028 0.00683
0.12021 0.00025 0.00450
0.04034 -0.03100 0.00121
0.03886 -0.04490 0.00681
0.03770 -0.03765 0.00540
-0.14268 -0.00204 0.00152
0.06693 -0.00619 -0.07219
-0.14458 -0.02075 0.00436
-0.14396 -0.01715 0.00328
-0.14410 -0.01721 0.00384
-0.14242 -0.01037 0.00087
0.03687 -0.02954 0.00175
0.03431 -0.05428 0.12230
0.03050 -0.04468 0.08117
-0.14371 -0.01454 0.00305
0.14317 -0.02661 0.00973
0.01506 -0.04594 0.02573
0.00310 0.02010 -0.29419
0.00918 -0.06452 0.08896
0.00433 -0.05746 0.04445
-0.14265 -0.02200 0.00391
0.00354 -0.04786 0.06032
-0.14084 -0.01789 0.00095
-0.00697 -0.02718 -0.04335
-0.00226 0.02942 -0.05947
-0.14037 -0.02936 0.00110
-0.01185 -0.04412 0.05113
-0.13941 -0.02284 -0.00144
-0.14044 -0.02070 0.00356
-0.14076 -0.02075 0.00383
-0.02262 -0.05001 0.08681
-0.02034 -0.04685 0.04688
-0.01010 -0.07156 0.23153
-0.02931 -0.04316 0.05705
-0.13941 -0.02602 0.00183
-0.02782 -0.03505 0.00448
-0.03812 -0.03432 0.00238
-0.04511 -0.02045 0.00191
-0.04977 -0.01592 0.00560
-0.05023 -0.02678 -0.00619
-0.05287 -0.01998 0.00290
-0.05287 -0.02002 0.00295
-0.05463 -0.03006 -0.00235
-0.13731 -0.03930 -0.00047
-0.13744 -0.01486 0.00403
-0.13780 -0.03793 0.00071
0.07802 -0.01318 -0.04118
-0.07950 -0.01413 0.00443
0.00325 0.02198 -0.30329
-0.07783 -0.01446 -0.02735
0.09078 -0.00008 0.00462
0.00341 0.02189 -0.30255
-0.13687 -0.03812 0.00103
-0.11347 -0.04235 0.06420
-0.10239 -0.03258 0.02403
-0.10338 -0.03964 0.02230
-0.10557 -0.04054 0.03189
-0.10394 -0.04155 0.02187
-0.10330 -0.02211 0.02108
-0.10563 -0.04272 0.01848
-0.10850 -0.04500 0.00599
0.11792 0.01439 0.00285
-0.10996 -0.04412 0.00116
-0.11504 -0.04646 0.00783
-0.11466 -0.04385 0.00460
-0.11718 -0.04479 0.00465
-0.11783 -0.04279 0.00361
-0.11865 -0.04490 0.00549
-0.12386 -0.04568 0.00962
-0.12441 -0.04202 0.00243
0.00718 0.02005 -0.29464
-0.13772 -0.04453 0.00842
0.11609 0.03337 -0.01550
0.06698 -0.02124 0.00501
0.07039 -0.00369 0.00260
-0.13263 -0.02328 -0.00231
0.01330 0.04306 -0.04178
0.05802 0.04253 0.13394
-0.01309 -0.03061 0.00855
-0.10508 0.02430 -0.09410
0.03242 0.01205 -0.22798
0.00132 0.02030 0.32757
0.00805 0.00294 -0.19043
0.00309 0.02143 -0.28262
-0.08902 -0.02150 0.03266
0.00355 0.02218 -0.30406
-0.02271 0.02513 -0.21812
-0.09740 -0.00460 -0.00081
-0.03268 0.02640 -0.13879
-0.01641 -0.04298 0.04979
0.09313 0.02324 0.00306
-0.13806 -0.02985 0.00741
0.00337 0.02040 -0.29515
-0.01645 0.02895 -0.13982
0.10970 -0.04100 0.04174
0.11211 -0.01378 0.00079
0.11652 0.01773 -0.00158
0.11842 -0.01896 0.00118
-0.03137 -0.01255 -0.01987
0.00348 0.01984 -0.29140
-0.06832 -0.00081 0.00033
-0.05586 -0.00072 0.00103
0.00820 -0.00791 -0.01614
0.01257 -0.03143 -0.00048
0.13997 -0.02535 0.00824
0.10674 0.03246 0.00275
0.00756 0.02656 -0.13026
-0.12074 0.03852 -0.01418
0.05865 0.03287 -0.01500
0.06788 0.02999 -0.13988
-0.03266 -0.03658 0.00691
0.07025 0.02445 -0.07667
0.06391 -0.00463 0.00240
0.06448 0.03154 -0.15606
-0.10470 -0.03314 0.02288
-0.13526 -0.02662 -0.00137
0.09808 0.04017 0.00167
-0.10136 -0.02692 0.01031
-0.09681 0.01358 -0.00096
0.03423 -0.00816 -0.01639
-0.10387 -0.04380 0.01162
0.00318 0.02094 -0.29780
0.10497 -0.01897 0.02043
-0.00780 -0.03528 0.00357
-0.12438 -0.01326 -0.00364
0.00769 -0.00773 -0.01700
0.07997 0.02610 -0.02668
-0.05893 -0.01328 0.00199
0.12685 -0.04467 0.01247
-0.02756 -0.02660 0.00155
0.10693 -0.02621 0.00338
0.02304 -0.01771 -0.01495
0.11332 0.02547 -0.00462
0.10980 -0.04573 0.01316
-0.00209 -0.05114 0.03910
0.10098 0.00126 0.00624
0.12458 -0.03532 0.00978
-0.06052 -0.00468 0.00140
-0.11745 0.03809 -0.01014
-0.14032 -0.01908 0.00344
-0.00094 -0.00380 0.00145
-0.14636 0.02309 0.00205
0.06045 0.02973 -0.09843
0.09464 -0.00015 0.00408
0.02029 0.02379 -0.01369
0.11582 0.02130 0.00116
0.09874 0.03332 -0.00088
0.07449 0.03333 -0.00119
0.08453 -0.02034 0.01936
0.08498 -0.01548 0.00411
-0.11457 0.01435 -0.00424
0.05981 -0.00471 0.00365
0.14713 0.04350 0.01180
0.04851 0.03428 -0.05311
-0.00791 0.02621 -0.28688
0.04562 0.02353 -0.21887
-0.09356 -0.00353 -0.00145
0.04734 -0.00371 0.00421
0.08902 0.01626 0.06367
0.11535 0.01176 0.17072
0.11179 -0.02604 0.04349
0.11799 0.02770 0.00316
0.12397 -0.06830 0.02798
0.08692 -0.00302 0.00888
0.12409 -0.01033 0.00069
-0.10471 -0.03577 0.01966
0.05122 0.03938 -0.09697
0.04801 -0.00294 0.00340
0.11949 0.03414 0.00871
-0.11702 0.00033 -0.00295
-0.09343 0.03405 -0.00303
-0.11483 0.02203 -0.00431
-0.01645 -0.00694 -0.01781
-0.10100 -0.02253 0.00296
0.09764 0.00122 0.00581
-0.11852 0.01701 -0.00282
-0.11797 0.01703 -0.00574
0.14173 -0.02274 0.00924
0.08398 -0.00526 -0.00074
-0.09649 0.01446 0.00131
-0.09456 0.03863 -0.00259
0.07065 -0.01519 -0.06715
0.01126 -0.00121 0.00542
-0.10974 0.03255 -0.01221
0.03747 0.02492 -0.22188
0.06462 0.03254 -0.00425
-0.05648 -0.01323 0.00175
0.11300 -0.00747 -0.00299
0.00090 0.02164 -0.26278
0.03376 0.03010 -0.02458
0.09874 0.03259 -0.00100
0.10237 0.02937 0.00856
-0.01877 0.01750 -0.01097
-0.11055 0.01570 -0.00939
0.08306 -0.00568 0.00231
0.08306 -0.00568 0.00231
0.09112 0.03423 0.00220
0.13265 0.02995 -0.00839
-0.09135 -0.00460 -0.00112
-0.12109 -0.02951 0.07220
-0.10615 0.01784 0.15877
0.08561 0.03358 -0.06714
-0.12598 0.03349 -0.00922
-0.03827 0.02955 -0.08659
-0.13242 -0.01361 -0.00821
0.00368 0.02216 -0.30442
0.10295 0.03296 0.01059
-0.05620 0.03187 0.01584
-0.10535 -0.03240 0.01996
-0.06414 -0.00551 -0.00064
0.10203 0.04232 0.00743
0.10824 0.03259 0.00397
0.08119 0.02824 0.00298
0.06214 0.03876 -0.10829
0.06169 0.00095 0.00899
-0.09813 0.01497 0.00060
0.06811 -0.00471 0.00273
0.03060 -0.02611 -0.04414
0.08071 0.03288 0.00671
-0.01400 -0.00095 0.01630
-0.11172 -0.02439 -0.00455
0.09966 0.04130 0.24552
-0.04595 -0.00366 0.00207
-0.10632 -0.00560 -0.01605
-0.10632 -0.00560 -0.01605
-0.01287 0.00000 0.03333
-0.01494 -0.00211 0.01949
0.08905 -0.00009 0.00526
-0.12873 -0.00490 -0.01400
-0.08956 0.02834 -0.00083
0.01781 -0.05357 0.08592
0.10551 -0.02049 0.00591
0.01863 -0.01908 -0.01509
-0.04755 0.03260 -0.00791
-0.03863 0.02797 -0.17091
0.09361 0.02843 0.00522
-0.08146 0.00080 0.00079
-0.00123 0.02301 -0.28732
0.16445 -0.02698 0.14056
0.10301 0.04043 0.00449
0.12983 -0.02592 0.00470
0.13848 0.02790 0.01334
-0.09957 0.03329 -0.00240
0.13222 0.03407 0.00347
-0.12989 0.03334 -0.01257
0.08953 -0.00466 0.00237
0.07068 -0.00469 0.00287
-0.11129 -0.03607 0.02585
0.09485 0.00943 0.00298
-0.07114 -0.00577 0.00171
0.07629 0.00800 0.00491
0.04018 0.03278 0.00669
0.10314 0.03315 -0.00317
-0.03543 0.03005 -0.08656
0.13677 0.03444 0.01757
-0.11887 0.04086 -0.00998
0.07663 0.01437 0.01382
-0.01035 -0.03025 0.00577
0.02334 -0.00436 -0.01638
-0.13109 -0.00264 -0.00447
-0.01682 -0.00123 0.01369
0.09705 -0.00480 0.00396
0.04561 0.03066 -0.09206
-0.10042 0.03371 -0.01063
0.09130 -0.00243 0.00409
0.10251 -0.01642 0.01037
0.11043 -0.03404 0.00601
-0.11817 0.03468 -0.01131
0.00859 -0.00060 -0.01645
0.07801 -0.00022 0.00454
-0.10803 -0.03043 0.01009
0.02806 0.01329 -0.16464
0.07374 0.00586 0.00617
0.11737 0.02395 0.34559
0.07347 -0.00290 0.00387
0.04755 0.02957 -0.08702
-0.02142 0.02373 -0.22946
0.13838 0.02271 0.00142
-0.11903 0.03831 -0.00857
0.01602 -0.00201 0.01766
-0.12020 -0.03748 -0.00206
0.10954 0.03278 -0.00872
0.07951 -0.00497 0.00382
-0.12352 -0.03697 0.01009
-0.13148 -0.03822 0.01671
-0.02093 0.00449 -0.01315
-0.09037 0.00129 -0.00131
0.02913 0.03108 -0.13115
0.06359 0.03431 0.00087
-0.00675 -0.01119 -0.01858
0.10829 0.03237 -0.08399
0.02049 0.00989 -0.00872
0.11456 0.03270 -0.00488
-0.12468 0.01722 -0.00169
-0.10887 0.03194 -0.00811
0.02632 -0.00606 -0.01143
0.08324 0.00249 0.00538
-0.01669 -0.04599 0.14494
0.09994 -0.00220 0.00226
-0.12091 -0.05521 0.01800
-0.05093 -0.01798 0.00410
0.07174 -0.00446 0.00182
-0.00182 0.02634 -0.21724
0.06923 0.03260 -0.00065
0.14392 -0.02952 0.00763
0.04050 -0.02924 0.00226
0.00450 -0.06647 0.09359
-0.01691 -0.05121 0.04748
-0.02843 -0.04165 0.05789
-0.10407 -0.02754 0.04337
0.01220 -0.06574 0.09308
0.00321 0.02095 -0.29786
-0.08326 0.03651 -0.00226
0.00295 0.01886 -0.28657
0.02870 0.04038 -0.06770
-0.00527 -0.04394 0.05267
0.08753 -0.00564 0.00346
0.03036 -0.00879 -0.00663
-0.09973 0.03401 -0.00269
0.01261 -0.00236 -0.09538
-0.07787 0.03650 0.03909
-0.01599 0.00112 -0.00751
-0.06157 0.00021 0.00024
-0.00996 -0.01109 -0.12425
0.01559 -0.03964 0.02882
-0.04963 -0.00995 -0.07031
0.08082 -0.00643 0.00289
0.03289 -0.01269 -0.00324
-0.00495 -0.08234 0.27973
-0.09555 -0.02634 -0.07783
0.04665 -0.02390 -0.08792
-0.11957 -0.05060 0.00856
-0.07117 -0.01534 0.00121
0.05043 -0.01306 0.00317
-0.04055 0.02731 -0.08519
0.01713 -0.05448 0.06298
-0.04041 0.00869 -0.09081
-0.06450 0.03101 -0.06160
0.12923 -0.03392 0.13313
-0.04057 0.03105 -0.10029
-0.06503 0.03266 -0.02388
-0.05399 -0.01975 0.00256
0.14204 -0.03965 0.00680
-0.07136 0.01551 -0.00113
0.10825 -0.04174 0.03265
0.03199 -0.00135 -0.12287
-0.10657 -0.03433 -0.04366
0.00066 0.02190 -0.29552
0.06095 -0.01252 0.00054
0.15322 -0.05880 0.07360
0.12691 -0.01065 0.00257
-0.06846 0.01785 -0.03024
-0.01714 -0.05147 0.09236
0.06174 -0.00468 0.00280
0.12053 -0.04316 0.00959
-0.07166 0.03376 0.03470
0.01831 -0.04981 0.08834
-0.02119 -0.04769 0.02654
0.02301 -0.05903 0.12146
0.00186 0.02126 -0.30034
-0.03205 0.03350 -0.02947
0.03465 -0.04576 0.00829
-0.08457 0.03370 0.00393
0.03555 -0.05763 0.12224
-0.00348 -0.02573 -0.05518
-0.01029 -0.02103 -0.10274
-0.00849 0.02345 -0.24084
0.12891 -0.04220 0.13217
0.14110 -0.04015 0.00712
0.02867 -0.04598 0.08229
-0.05879 0.02737 -0.08568
-0.04066 0.02592 -0.14093
0.07692 -0.01748 0.00456
0.08946 0.00749 0.00445
-0.06206 0.02781 -0.04900
-0.05787 0.02714 -0.08695
-0.03330 -0.02139 0.00342
0.00336 0.01993 -0.29422
0.00375 0.02185 -0.30297
-0.04115 0.03325 -0.06902
0.10777 -0.04318 0.02844
-0.08737 -0.00458 -0.00061
0.04663 -0.02186 -0.08999
-0.06562 0.03330 -0.00376
-0.01081 -0.01717 -0.09992
-0.14083 -0.02274 -0.00306
-0.04064 0.02821 -0.14124
-0.12062 -0.04234 0.00274
0.13386 -0.03569 0.15236
-0.07360 0.00533 0.00164
-0.05635 0.02266 -0.11012
0.03226 -0.03147 0.00651
0.06375 -0.01760 0.00262
-0.01318 -0.04638 0.04033
-0.01046 -0.01765 -0.09156
-0.03301 -0.04382 0.00465
-0.04683 0.02821 -0.14086
-0.05795 0.02666 -0.08740
0.06389 0.01209 0.00613
0.05821 -0.03341 0.05186
-0.05636 -0.01298 0.00101
-0.03991 0.01009 -0.10974
-0.07540 -0.01821 0.00019
-0.00204 -0.00686 -0.01665
0.06486 -0.00359 0.00468
0.03905 -0.03894 0.00630
-0.05724 0.03286 0.00942
-0.05488 0.03320 0.01363
-0.03219 -0.03938 0.00376
0.00908 -0.05531 0.07341
-0.05612 -0.00357 0.00082
-0.13605 -0.01897 -0.00934
0.12428 -0.03368 0.17557
0.00013 0.02279 -0.28945
-0.07614 -0.01801 0.00361
0.12406 -0.03283 0.01139
-0.10971 -0.02426 -0.00496
0.01848 -0.06439 0.15485
-0.12105 -0.03463 0.00202
-0.05060 0.03044 -0.08361
-0.05440 0.03313 -0.01100
0.04065 -0.00391 -0.10436
0.09265 0.02559 0.00101
0.08358 -0.00488 0.00412
-0.12389 -0.04404 0.00102
-0.13487 -0.02145 -0.01080
-0.07489 0.00772 0.00088
0.03897 -0.03487 0.00437
0.00726 -0.05497 0.07552
-0.13767 -0.02143 -0.00219
-0.02264 -0.05059 0.04840
0.02539 -0.01673 -0.01746
0.05453 -0.02008 0.00546
0.05460 -0.02012 0.00562
-0.10354 0.03480 0.05960
0.05457 -0.01746 0.00520
-0.01879 0.02495 -0.31105
0.08256 -0.02733 -0.07346
0.03938 -0.03410 0.00354
0.08818 -0.00786 0.01150
0.08818 -0.00786 0.01150
-0.06561 0.03329 -0.07115
-0.05560 0.03286 0.00370
0.02473 -0.01721 -0.01709
0.00288 -0.04572 0.05057
0.16558 -0.04461 0.12452
-0.09596 -0.04123 0.14241
0.08034 -0.02058 0.00732
-0.00407 -0.06704 0.10032
-0.07785 -0.01616 0.00118
-0.03138 -0.01172 -0.02002
-0.05358 0.00422 -0.00076
-0.01166 -0.03146 0.00695
0.00453 -0.04711 0.06772
-0.07712 -0.03849 0.13776
-0.06558 -0.01996 0.00289
-0.04495 -0.01746 0.00601
-0.05765 -0.00830 -0.08953
-0.02557 -0.02884 0.00660
0.04947 -0.00477 0.00382
-0.02361 -0.05035 0.07386
0.02003 -0.04603 0.05708
-0.03796 -0.01365 -0.00669
-0.04608 0.03364 -0.00386
0.04978 0.00148 0.00331
-0.12787 -0.03462 0.00144
0.03980 -0.02826 0.00197
-0.12972 -0.04388 0.00342
0.05371 -0.02033 0.00512
0.04878 0.03484 -0.00048
-0.07992 0.03720 -0.07435
-0.12785 -0.04721 0.01982
-0.02504 -0.04737 0.06961
0.03918 0.01582 -0.10927
-0.10062 0.00957 -0.00061
0.00272 -0.05363 0.07265
-0.10483 -0.02454 0.02986
0.04454 -0.01482 -0.06659
0.07133 -0.01556 0.00516
-0.12739 -0.01839 -0.00255
-0.06982 -0.00739 -0.07284
-0.00164 -0.06225 0.08005
-0.04749 -0.00031 0.07994
-0.23955 -0.12090 0.35559
-0.06047 -0.01304 0.00124
0.13459 -0.04504 0.00957
-0.12845 -0.03790 -0.00971
-0.02723 -0.04297 0.04570
0.00857 -0.00403 -0.08227
-0.06526 -0.01746 0.00617
-0.10349 -0.03649 0.02581
0.07047 -0.01696 0.00391
0.07111 -0.00691 0.00638
-0.10310 -0.03630 0.03254
-0.01389 -0.00636 -0.06588
0.00012 -0.05434 0.07092
-0.06070 -0.00593 -0.00257
-0.00048 -0.05237 0.06864
0.13224 0.00615 0.00431
0.08833 0.03692 0.06635
-0.10550 -0.01341 0.14319
0.02502 0.01365 -0.16176
-0.10550 -0.01341 0.14319
0.10390 0.02233 -0.00575
-0.12670 0.01056 0.00017
0.04023 -0.03113 0.00261
-0.11319 0.05301 0.46977
0.11695 0.02623 -0.00511
-0.11036 -0.02060 -0.00686
-0.01054 -0.06126 0.16940
0.02731 0.02808 -0.14415
0.09051 0.00941 0.00418
-0.11259 -0.03082 -0.00288
-0.04657 -0.00446 0.00023
-0.06451 0.02736 -0.16140
-0.03966 0.03022 -0.08976
0.03922 -0.03553 0.19125
0.03066 0.02986 -0.10264
-0.03966 0.03022 -0.08976
0.02736 -0.02978 0.01058
0.10201 0.00181 0.00661
0.01888 -0.00071 -0.01545
-0.00643 0.00031 -0.09488
0.01641 -0.01735 0.03218
-0.10937 -0.00554 -0.00886
-0.06184 0.00198 0.00191
0.04490 0.00947 0.00210
-0.14265 -0.00644 -0.00230
0.02461 -0.04958 0.07434
0.00346 0.03178 -0.02591
0.04542 0.03051 -0.09270
-0.09400 -0.00097 0.00300
-0.08057 0.02787 -0.01586
-0.11023 -0.01078 -0.00808
0.11338 -0.02726 0.00564
0.03547 -0.02164 0.00125
0.00369 0.02216 -0.30449
0.13577 -0.04038 0.03827
-0.05700 0.03275 -0.00268
-0.05097 -0.00175 -0.00001
-0.01809 -0.03996 0.06345
0.07771 0.00947 0.00372
-0.08906 0.03325 -0.00513
-0.05723 0.02994 -0.00241
-0.09342 -0.00549 -0.00148
-0.04677 0.00137 0.00291
0.10292 -0.00228 0.00280
-0.08577 0.00064 0.00091
-0.05954 0.03152 -0.08417
0.05946 0.00525 0.00481
0.01490 0.01313 -0.23710
-0.07617 0.03251 -0.00760
0.08153 0.03718 -0.11539
0.05979 0.03286 0.00556
-0.00075 -0.06670 0.11193
-0.01810 -0.01337 -0.00115
0.00884 -0.02623 -0.01519
0.00565 -0.10410 0.34614
0.02355 -0.05692 0.37607
-0.01815 -0.00449 -0.07554
-0.09399 0.01006 0.01417
-0.06482 0.01069 0.02547
-0.04314 0.01365 -0.19914
-0.12479 -0.03234 0.12066
-0.08849 0.03246 -0.00459
-0.06817 0.03824 0.01869
0.09614 0.00362 0.01207
-0.01650 -0.03147 0.01464
-0.13281 -0.02340 -0.00985
0.12865 0.02337 -0.00019
-0.07396 0.03316 -0.00546
-0.09200 0.03685 0.06685
0.12445 -0.04975 0.02608
-0.01287 -0.04746 0.06666
-0.00564 -0.00696 -0.01700
-0.05066 0.03250 -0.02968
-0.13203 -0.00710 -0.00745
0.01512 0.01482 -0.24832
-0.13203 -0.00710 -0.00745
0.12488 -0.04991 0.02698
-0.11938 0.04030 0.18968
0.10716 0.00765 0.16620
-0.05181 0.03153 -0.07090
0.06278 0.00133 0.00550
0.03278 -0.01079 -0.02013
0.08601 -0.01350 0.00374
-0.09091 -0.00532 -0.00348
-0.08684 0.00180 0.00141
-0.02334 -0.01599 -0.01750
0.04371 -0.01122 -0.00269
-0.02092 -0.04844 0.09326
-0.05228 0.03244 -0.00961
0.04567 0.03162 -0.05072
-0.00872 -0.01644 -0.10449
-0.06532 0.01097 -0.06927
0.02799 -0.00595 -0.01513
-0.01645 -0.06780 0.18288
0.08234 0.00955 0.00366
0.15700 -0.04114 0.07145
-0.01727 -0.01093 -0.01962
-0.03881 0.03282 -0.01524
0.06470 0.00950 0.00229
-0.04791 0.01508 0.00256
-0.08555 -0.02177 -0.10446
0.09092 0.03339 -0.00173
0.00161 0.02152 -0.29728
0.09901 0.01562 0.00386
0.05316 0.00920 0.00611
-0.11865 -0.00216 -0.00093
-0.08438 0.03310 -0.00616
-0.11896 0.00054 0.00210
-0.12731 0.03347 -0.01027
-0.00043 -0.03496 0.00204
-0.11683 0.04050 0.19273
0.07388 0.03218 -0.01186
-0.08538 0.03351 -0.00070
-0.03251 -0.02981 0.00063
0.07657 0.00761 0.00828
-0.06524 0.02660 -0.06525
-0.09072 0.03169 -0.06172
-0.00104 0.01777 -0.26689
-0.04525 0.02748 -0.15142
-0.04216 0.00962 -0.13110
0.10820 -0.01719 0.00411
0.06792 -0.01296 0.00245
-0.00984 0.01597 -0.10471
-0.11935 -0.03772 0.01497
0.11852 -0.03582 0.00698
-0.00612 -0.01503 -0.09313
0.12350 -0.03614 0.00762
0.03843 0.01502 -0.10874
-0.08361 -0.00253 -0.00195
0.03283 -0.02386 -0.00088
0.08779 -0.00232 0.00386
-0.04755 0.03026 -0.12544
-0.09148 0.03415 -0.00217
0.02047 -0.00713 -0.01601
0.09399 0.03257 -0.00114
-0.11702 0.00045 -0.00229
-0.07062 -0.00219 0.00109
-0.01308 0.01169 -0.22796
-0.00549 0.01116 -0.23547
0.16380 0.04872 0.35602
-0.11038 -0.03255 0.00798
0.13898 -0.02806 0.00749
0.11004 -0.04419 0.04069
0.06198 -0.03854 -0.01181
-0.01960 0.01004 -0.24474
0.06061 0.00774 0.00445
0.06061 0.00774 0.00445
0.13248 -0.03849 0.14154
0.13248 -0.03849 0.14154
-0.13050 -0.03699 0.05217
0.03242 -0.05026 0.09654
0.01776 -0.06553 0.11883
0.09041 -0.00362 0.00522
-0.02256 0.02557 -0.12752
-0.12133 -0.04314 0.00071
0.09822 -0.03109 0.13091
-0.00401 -0.04596 0.03299
0.01290 -0.08730 0.24626
0.11078 -0.04529 0.01580
-0.05734 0.03532 -0.00491
0.03838 0.02856 -0.15429
-0.15214 -0.05715 0.06562
0.00164 0.00802 -0.22938
0.02469 -0.01363 0.00103
0.10174 0.00794 0.00493
0.01238 -0.01248 -0.00599
0.03313 -0.01104 -0.01861
0.04748 0.02942 -0.09254
-0.01386 0.01780 -0.24270
0.01699 -0.06518 0.13139
0.09315 0.02328 0.00349
-0.08848 -0.01795 0.00102
0.07661 -0.00471 0.00296
0.06630 -0.01388 -0.03318
0.03351 -0.00105 -0.12482
0.00012 0.02203 -0.30397
-0.06680 -0.01845 0.00280
0.27302 -0.11528 0.33696
-0.01365 0.01403 -0.24289
0.00015 0.02220 -0.30390
0.10058 -0.04075 -0.00132
0.04968 0.03089 -0.15505
-0.00843 0.01673 -0.26312
0.12102 -0.04520 0.01044
0.03888 -0.00710 -0.06460
0.00009 0.02218 -0.30432
0.00196 -0.06440 0.08570
-0.01266 0.01154 -0.23052
-0.01266 0.01154 -0.23052
0.05070 0.03294 -0.09109
0.13102 -0.03653 0.14648
-0.13611 -0.02477 -0.00844
0.07206 -0.01663 0.01014
-0.03661 -0.03512 -0.00025
-0.01196 0.00090 -0.18687
-0.03748 -0.04045 0.00321
0.08347 -0.10576 0.39226
0.02123 0.01018 -0.21119
0.00012 0.02200 -0.30381
0.01387 -0.05248 0.07156
-0.05551 0.00291 -0.07525
0.00445 0.01659 -0.25030
0.00327 0.02255 -0.28979
0.13077 0.03273 0.20362
-0.10469 -0.01983 -0.00237
-0.00700 0.02141 -0.27427
-0.09650 -0.01658 0.00967
-0.01397 0.01289 -0.23885
-0.00051 0.02250 -0.29285
-0.01977 0.02227 -0.21724
-0.00815 -0.01190 -0.01926
-0.07919 -0.01667 0.00009
-0.00019 0.02221 -0.30346
0.02355 -0.00597 -0.01630
0.00156 0.02360 -0.27500
-0.07911 -0.02064 0.00321
-0.09799 -0.03393 0.02206
-0.01917 -0.04036 0.06129
0.00738 -0.00116 -0.00582
-0.03957 -0.01001 -0.00756
-0.07950 0.03241 -0.00496
-0.00460 -0.00785 -0.01568
-0.01721 -0.01704 -0.08460
0.00292 0.01919 -0.27898
0.02262 -0.00693 -0.02053
-0.06065 -0.00445 -0.00058
0.07484 -0.00988 0.00158
0.00344 0.02206 -0.30323
0.05035 0.00122 0.00603
0.00466 -0.07868 0.21608
-0.01981 -0.03337 -0.02396
0.02305 -0.00922 -0.03566
0.07540 0.00134 0.00519
0.09857 0.00055 0.00517
0.00093 0.02290 -0.28628
0.00007 0.02207 -0.30332
-0.01784 -0.05138 0.06476
-0.00247 0.02176 -0.28818
-0.11602 -0.01236 -0.01103
-0.06220 -0.00454 -0.00028
0.09597 -0.00369 0.00357
0.00052 0.00009 -0.19992
-0.00014 0.02219 -0.30341
-0.04968 0.02669 -0.07781
-0.10643 -0.01882 -0.00099
0.06311 0.00122 0.00658
-0.01396 -0.03175 0.01206
-0.00022 0.01794 -0.24789
-0.07908 0.03737 -0.05958
-0.05371 -0.02126 0.00313
-0.00044 -0.06989 0.11572
-0.02114 -0.01739 -0.01581
-0.10156 0.00097 -0.00296
0.00151 0.01375 -0.26328
-0.07299 0.00409 -0.07618
0.01618 0.01529 -0.21754
-0.01308 0.00655 -0.16987
-0.04730 0.03594 -0.07519
-0.07423 0.00019 0.00075
0.00633 0.02061 -0.21483
0.12421 -0.03531 0.00874
0.06238 0.03240 -0.07942
-0.06150 0.00833 0.00026
-0.04775 -0.01134 -0.01441
0.11558 0.00104 0.17154
-0.06718 0.01246 -0.07033
0.10276 0.03729 0.00264
0.04428 0.00215 -0.11861
-0.05974 -0.00972 -0.00242
-0.00110 0.00267 -0.21052
0.12288 -0.01683 0.00108
0.08915 0.00199 0.00546
-0.05944 0.03292 -0.07865
0.00145 0.02186 -0.29885
-0.05118 0.00802 -0.12317
-0.01868 0.02719 -0.22129
-0.00030 0.02209 -0.30331
0.06368 0.03278 0.00246
0.01307 0.02459 -0.25703
0.07373 0.01358 0.00378
0.01940 -0.04683 0.06664
-0.05843 0.00975 -0.08222
0.00148 0.02253 -0.29791
0.13179 -0.03504 0.00876
0.13603 -0.02526 0.00769
-0.06533 -0.00361 -0.00073
-0.03842 -0.03209 0.00038
-0.02708 -0.02866 -0.00314
0.02017 -0.00814 -0.01620
-0.01339 -0.00794 -0.01814
-0.08285 -0.00469 0.00063
0.00144 0.02258 -0.29941
-0.00058 0.02256 -0.29716
0.00131 0.02207 -0.29904
0.00014 0.02217 -0.30455
-0.23921 -0.04145 0.33465
0.00008 0.02218 -0.30439
0.00271 0.02287 -0.28442
0.00188 0.02114 -0.29703
0.00191 0.02080 -0.29461
-0.01128 -0.06405 0.12604
-0.02117 0.02399 -0.20445
-0.00420 0.02144 -0.27522
-0.00831 0.02443 -0.25895
-0.05851 0.00989 -0.08192
0.00146 0.02111 -0.29659
-0.16593 -0.08319 0.46698
0.00455 0.02005 -0.29266
0.00306 0.02021 -0.29497
-0.00362 0.02271 -0.19666
0.04087 -0.02517 -0.00101
0.02262 0.00618 -0.20164
-0.10668 -0.01898 0.00100
0.01491 0.01495 -0.24895
-0.01882 -0.03048 0.00904
0.07349 0.02762 -0.15436
0.01115 0.02748 -0.23751
0.00095 0.01483 -0.26696
-0.01417 -0.04442 -0.00372
0.00028 0.02076 -0.29420
0.00016 0.02283 -0.29093
0.09884 -0.03626 -0.00037
-0.00320 -0.00338 0.04740
-0.04424 -0.01533 0.00259
-0.01649 0.01228 -0.25894
-0.02258 0.00876 -0.23232
0.02152 0.01099 -0.25254
-0.04882 0.02817 -0.08638
0.00030 0.02230 -0.29609
-0.06635 0.03227 -0.05128
0.00162 0.02117 -0.29657
-0.01217 0.03072 0.00085
-0.00717 0.01987 -0.26150
-0.10822 0.02503 0.14460
-0.13608 -0.04345 0.05893
0.00365 0.02214 -0.30451
-0.00436 0.02257 -0.28341
0.00333 0.02223 -0.30325
0.00221 0.02233 -0.27497
-0.06231 0.01672 -0.07443
-0.00175 0.02326 -0.28252
0.00315 0.02221 -0.29410
-0.08094 0.00906 -0.02333
-0.10330 -0.00578 0.12839
-0.07171 0.00622 0.00179
-0.06922 0.03714 -0.00245
-0.09049 0.02324 -0.00092
0.06308 0.01461 0.01057
-0.07053 0.00722 0.00163
-0.07043 0.00578 0.00129
-0.07036 0.00141 0.00207
-0.06550 0.03194 -0.02357
-0.11960 -0.04484 0.00417
-0.05116 0.02729 -0.07120
-0.09586 0.03640 -0.00215
0.00162 0.02254 -0.29841
0.00061 0.02419 -0.27906
-0.04145 0.01435 -0.11284
-0.09892 -0.03200 0.02244
-0.04825 0.03037 -0.12124
0.00146 -0.01689 0.06581
-0.07544 0.03829 0.09990
0.00247 0.02245 -0.30100
-0.00137 0.02240 -0.29649
-0.14099 0.02992 -0.01380
-0.20254 0.03334 0.10994
0.02598 0.05194 0.10669
-0.20522 0.04593 0.30548
0.02543 -0.05078 0.06490
-0.01656 0.02038 -0.34867
0.00332 0.02033 -0.29468
0.00159 0.02235 -0.29906
-0.14616 -0.01007 -0.00289
0.00331 0.02195 -0.30309
0.01134 -0.01108 -0.01909
-0.06755 0.03525 -0.04852
-0.01200 0.01311 -0.23380
-0.02192 0.03036 -0.12326
-0.14584 -0.00697 0.00173
0.06286 0.03119 -0.06288
-0.14491 -0.00317 0.00151
-0.14478 0.01403 0.00340
0.01365 0.01407 -0.25140
-0.13735 -0.05742 0.07516
0.00399 0.02265 -0.29868
0.00301 0.02237 -0.30161
0.19757 -0.08637 0.46942
-0.15898 -0.04057 0.44534
0.00891 0.02341 -0.28334
0.00366 0.02215 -0.30456
0.00329 0.02097 -0.29801
-0.14374 -0.01544 0.00243
0.00386 0.02206 -0.30385
-0.14341 -0.02006 0.00222
-0.08344 0.01455 0.00005
-0.23231 0.04710 0.26790
-0.08800 -0.00360 -0.00012
0.00164 0.02190 -0.29662
0.00000 0.02218 -0.30433
0.00200 0.02198 -0.29669
-0.04515 0.01911 -0.06986
0.01796 -0.00325 -0.17643
0.00190 0.02264 -0.29589
0.05195 -0.00343 0.00366
-0.05797 0.00742 0.00217
-0.04392 0.00954 -0.06770
-0.05734 0.01213 0.00019
0.10210 0.01191 0.00882
0.08512 0.02843 0.00949
-0.14603 -0.02805 0.44233
0.00415 0.02267 -0.29774
0.02920 -0.05018 0.08335
0.11956 0.03584 -0.01074
0.00776 -0.00770 -0.01412
-0.00234 0.01948 -0.28403
0.03858 0.03226 -0.08184
-0.08354 0.03927 -0.00138
-0.01224 0.01650 -0.23762
-0.00351 0.02287 -0.28980
0.00213 0.02232 -0.30107
0.00322 0.02129 -0.29993
-0.13412 -0.04283 0.00128
-0.04055 -0.02458 -0.00290
0.00265 0.02243 -0.29911
0.17661 0.05357 0.13072
