# .PCD v.7 - Point Cloud Data file format
VERSION .7
FIELDS x y z
SIZE 4 4 4
TYPE F F F
COUNT 1 1 1
WIDTH 1872
HEIGHT 1
VIEWPOINT 0 0 0 1 0 0 0
POINTS 1872
DATA ascii
-0.01494 0.01291 -0.01777
0.03336 -0.00280 0.04891
-0.04464 0.01342 -0.04723
-0.01219 0.00527 -0.01330
-0.03429 0.02081 0.00608
-0.01369 -0.00222 -0.01353
-0.01965 -0.01634 -0.01444
0.07676 0.03099 0.14574
0.05434 0.00704 -0.10779
0.01461 0.02533 0.02031
0.02693 0.02026 0.04648
-0.02611 0.00173 -0.02777
0.05510 0.01473 0.04803
-0.01051 0.00040 -0.01084
0.03616 -0.00463 0.03902
-0.01553 -0.02354 -0.00266
0.00000 -0.01116 0.00286
-0.01547 -0.00206 -0.01544
0.03513 -0.00891 0.04272
0.02510 -0.01257 0.05577
0.05879 0.03406 0.18720
0.02886 0.03064 0.03171
-0.01324 0.01178 -0.01577
-0.02435 -0.01748 -0.00732
-0.02247 -0.00413 -0.02186
-0.00900 0.00035 -0.01002
-0.05267 0.02597 -0.02958
0.04817 0.01040 0.04606
0.03578 -0.00561 0.03989
-0.03583 0.01007 -0.04111
-0.00878 -0.00004 -0.01006
-0.00697 -0.01269 -0.00493
-0.01514 0.00395 -0.01619
-0.02262 -0.01774 -0.00902
0.04483 -0.02053 0.05152
0.02002 -0.00806 0.02593
0.02005 -0.00811 0.02757
-0.05338 0.01232 -0.04446
-0.01481 -0.01473 -0.01349
-0.03498 0.02274 -0.04776
0.00775 0.02844 0.02198
0.05895 0.01711 0.04990
-0.02652 -0.00298 -0.01571
0.02301 0.02732 0.02361
0.04426 -0.01331 0.05092
-0.01218 -0.01038 -0.01317
0.04343 0.02016 0.05557
-0.01866 -0.02109 -0.01466
-0.01165 -0.02081 -0.00865
-0.02147 -0.01679 -0.01005
0.02017 0.02548 0.01903
0.07592 0.03394 0.07367
-0.01473 -0.00199 -0.01478
-0.01958 -0.02483 -0.01820
-0.01990 0.00795 -0.01706
-0.02191 -0.01244 -0.01061
-0.01053 -0.02145 -0.00699
0.03783 -0.02130 0.04318
0.07142 0.03628 0.09400
0.02866 -0.01380 0.05922
0.00904 -0.01018 0.01123
0.00063 -0.01231 0.00267
0.04133 -0.00347 0.04138
0.03034 0.02865 0.03044
0.02612 0.02836 0.03951
0.02116 0.02773 0.02072
-0.01338 0.00508 -0.01448
0.00079 0.02187 -0.01831
0.08711 0.04321 0.12812
0.02809 0.01071 -0.05375
0.04676 0.02482 0.04275
-0.03708 0.01619 -0.03917
0.04443 -0.01774 0.05019
0.04443 -0.01774 0.05019
-0.01207 -0.01256 -0.01132
-0.01213 -0.01260 -0.01101
-0.05831 0.02651 -0.00104
-0.01156 0.01281 -0.01453
0.03242 -0.00942 0.04712
-0.05333 0.01182 -0.03523
0.01815 -0.00866 0.01743
-0.00578 -0.01289 -0.00408
0.07328 0.04455 0.16046
0.01052 -0.00872 0.01118
0.06534 0.02932 0.14750
-0.01389 -0.02013 -0.01148
-0.01133 -0.01293 -0.01075
0.02191 -0.00853 0.01783
-0.01387 -0.01911 -0.01172
-0.02644 -0.01605 -0.00633
-0.01152 -0.01955 -0.00914
0.02361 0.00049 0.05271
0.02688 0.03036 0.02775
-0.01156 0.01509 -0.01564
0.07177 0.03315 0.07457
0.02059 0.02789 0.02075
0.02060 0.02780 0.02052
0.01125 -0.00851 0.01150
-0.00872 0.00820 -0.01128
-0.00911 -0.00477 -0.01004
-0.02207 -0.00159 -0.01264
0.02359 0.00323 0.05212
0.01783 0.02708 0.03340
-0.01480 0.00620 -0.01620
0.08838 0.03579 0.07426
-0.03633 0.00629 -0.03813
-0.03822 0.00796 -0.03839
0.06359 0.03365 0.13956
-0.01998 0.00626 -0.01598
-0.03703 0.01881 -0.02160
-0.03348 0.00144 -0.02118
0.00077 0.02277 -0.01231
0.02179 0.03447 0.11665
0.01101 0.02367 -0.00328
-0.01221 0.01963 -0.02974
-0.01397 0.00409 -0.01491
-0.04971 0.01705 -0.02779
-0.03067 0.00119 -0.02861
-0.01238 0.01413 -0.02749
-0.01504 0.01116 -0.01794
-0.02198 -0.02281 -0.00840
-0.00057 -0.01034 0.00256
-0.00935 0.00533 -0.01138
0.08195 0.04595 0.15609
-0.04149 0.00844 -0.03867
-0.00932 0.01377 -0.01251
-0.01571 -0.01999 -0.01441
0.00250 0.02318 -0.01476
-0.01454 0.01023 -0.01707
-0.01254 0.01349 -0.01552
0.02343 -0.00562 0.02380
-0.00972 0.01514 -0.01621
0.03990 0.01967 0.03746
0.03990 0.01962 0.03776
0.00175 -0.00636 0.00872
-0.01821 -0.00861 -0.01737
-0.06122 0.02490 -0.01205
0.08759 0.03573 0.07533
-0.03764 -0.00024 -0.01490
0.04147 0.01512 0.04354
-0.04859 0.00893 -0.00738
-0.03251 0.00213 -0.01504
-0.00238 -0.00681 0.01096
0.02197 -0.00934 0.01207
0.00766 0.01117 -0.10095
0.04309 0.00688 0.04382
0.06768 0.03433 0.14258
0.01445 0.02325 0.01250
-0.04374 0.01356 -0.04740
-0.01317 -0.00238 -0.01333
0.02483 0.01858 0.05281
0.04660 0.04120 0.02292
0.02219 -0.00263 0.04300
0.02417 0.02926 0.05366
-0.03332 0.01656 -0.03633
0.00486 -0.00964 0.00150
-0.03807 0.02306 -0.04810
-0.00381 0.02967 0.09920
-0.01025 0.01220 -0.01267
0.08583 0.03769 0.12629
0.06642 0.02911 0.14646
-0.00830 -0.00362 -0.00537
-0.03534 0.01165 -0.05522
-0.00794 -0.00312 -0.00351
0.07340 0.02459 0.15240
0.00296 0.01452 -0.03954
-0.01472 -0.02464 -0.00828
0.04590 -0.01121 0.04875
-0.00170 -0.01170 0.00042
0.02150 -0.00382 0.01411
-0.01057 -0.02701 -0.00567
0.05694 0.02686 0.06178
-0.03774 0.01938 -0.04816
0.02423 0.03198 0.17511
0.03363 -0.02395 0.05551
-0.00489 0.01613 -0.01919
0.06151 0.03422 0.14003
0.06715 0.02929 0.04917
0.08069 0.03734 0.11824
-0.00595 -0.00775 -0.00868
-0.00554 -0.00781 -0.00976
0.02015 -0.00351 0.02946
-0.00888 0.00940 -0.01178
0.01708 0.02426 0.05092
0.05442 0.01384 0.05448
0.07894 0.01478 -0.03902
0.02527 -0.01425 0.04747
0.06815 0.02791 0.07278
-0.05649 0.01364 -0.03265
0.06212 0.02216 0.06196
-0.00710 -0.00793 -0.00981
-0.00671 -0.00799 -0.01082
0.02332 0.00389 0.05252
0.06204 0.03473 0.14553
0.02980 0.02809 0.03613
0.02013 0.03028 0.05367
-0.00555 0.01459 -0.02019
-0.00897 0.00862 -0.01186
-0.01425 -0.01482 -0.01290
-0.01425 -0.01482 -0.01290
0.09536 0.02172 0.11716
0.00678 0.02891 0.05405
0.00279 -0.01177 0.00355
-0.00818 0.01684 -0.01363
0.01839 -0.00257 0.06388
0.02451 0.01735 -0.03406
0.04990 0.00857 0.05124
0.00628 0.04177 0.09988
0.08153 0.03024 0.06601
0.04879 0.01919 0.05785
-0.02258 -0.00223 -0.02272
0.04875 0.02683 0.06283
-0.00865 -0.02011 -0.00626
-0.01234 0.05301 0.11312
0.07317 0.02993 0.06935
0.02100 0.03774 0.21792
0.01571 -0.01031 -0.01666
0.01800 0.03041 0.05506
0.04699 0.00173 0.05006
0.03871 0.03035 0.14319
0.07926 0.03099 0.04327
-0.00596 -0.01199 -0.00336
0.01652 0.02487 0.01603
-0.03155 -0.01414 -0.00211
-0.00911 -0.01772 -0.00777
0.06362 0.03496 0.14218
0.03769 -0.01989 0.04395
0.03323 -0.00585 0.04264
0.06414 0.02569 0.02189
-0.00893 0.00770 -0.01134
0.03025 0.02777 0.09081
0.04570 0.00970 0.04333
0.02316 -0.00236 0.05209
0.07314 0.01907 0.00111
0.04718 0.02697 0.06170
0.04332 0.01489 0.04163
0.08310 0.03651 0.08147
0.00847 -0.00781 0.01521
0.06124 0.03016 0.04230
0.00764 -0.00961 0.00986
0.02101 0.02647 0.02695
0.00719 -0.01062 0.00965
-0.00898 -0.00047 -0.00991
0.04164 0.02467 0.02517
0.00864 0.02435 0.06137
-0.01399 0.01497 -0.01747
0.02754 0.00125 0.05026
0.00098 -0.00554 -0.01667
0.00257 -0.00664 0.02249
-0.01447 -0.00246 -0.00318
-0.01427 0.00530 -0.01547
0.08070 0.03228 0.05290
0.01009 -0.00930 0.01280
-0.00046 -0.01149 0.00174
-0.01609 -0.01606 -0.01590
0.01761 -0.00963 0.01906
0.07830 0.03972 0.10511
0.09912 -0.00736 -0.23868
0.03450 -0.00578 0.04138
-0.01122 -0.01035 -0.01287
0.01062 -0.00940 0.01328
-0.00007 -0.01262 0.01656
0.04298 0.03798 0.13155
0.04236 0.02503 0.03041
0.00811 -0.00259 -0.06439
0.06452 0.03257 0.07827
0.03153 0.02189 0.01464
0.01870 0.02613 0.01755
0.10375 -0.00870 -0.24821
0.10332 -0.00866 -0.24795
0.08559 0.03501 0.07970
-0.01216 -0.02208 -0.01006
0.01476 -0.00486 0.03721
-0.01337 -0.01426 -0.01186
-0.00692 0.01665 -0.01732
0.00741 -0.00825 0.00030
0.01308 0.02623 0.03430
0.02341 -0.00841 0.04382
0.04912 0.00920 -0.10257
0.06677 0.03670 0.08875
-0.02265 -0.00447 -0.02238
-0.02848 -0.01637 -0.00329
0.00724 0.02455 0.00546
-0.01249 0.00487 -0.01361
0.02410 0.00943 0.05293
-0.01344 0.01284 -0.01650
0.04991 0.00714 0.05112
0.01133 -0.00749 0.01195
-0.01969 -0.01563 -0.01485
0.01274 -0.00704 0.01560
-0.02364 -0.01049 -0.01674
-0.01465 0.00591 -0.01619
0.05279 0.02827 0.08215
-0.00150 0.02083 -0.01415
0.04596 -0.01120 0.04850
0.00199 -0.00318 -0.08127
0.01555 0.01747 -0.03622
-0.01494 0.01290 -0.01777
0.01440 -0.01092 0.01542
0.05041 0.02496 0.02022
-0.00797 -0.01252 -0.00528
0.06399 0.03306 0.06405
-0.01366 -0.00268 -0.01370
-0.00861 -0.01256 -0.00711
0.01775 -0.00659 0.01684
-0.01447 -0.01921 -0.01229
0.04188 0.01265 0.03959
0.08393 0.03565 0.08184
0.08152 0.03613 0.07920
0.03815 -0.01047 0.03855
-0.03567 0.01015 -0.03778
-0.02283 -0.00309 -0.02332
0.08217 0.01175 -0.06002
0.06883 0.02948 0.05148
-0.01421 -0.02678 -0.00479
0.03927 -0.01250 0.02861
-0.04202 0.01831 -0.01939
0.02949 -0.00561 0.04203
-0.00406 -0.01158 -0.00114
-0.04384 0.01685 -0.03383
-0.01512 0.00579 -0.01639
0.03980 -0.01176 0.04271
0.00019 -0.01016 0.00203
-0.01060 0.01404 -0.02843
0.03074 -0.00930 0.04866
0.06069 0.03050 0.04948
-0.01513 -0.01210 -0.01468
-0.05270 0.01305 -0.04256
-0.01302 0.01476 -0.01621
-0.03014 0.01884 -0.00830
-0.00473 0.02008 -0.02697
-0.03534 -0.00271 -0.00902
-0.02262 -0.01773 -0.00905
0.02378 0.00276 0.05246
-0.00648 -0.01191 -0.00426
-0.01230 -0.02305 -0.00965
0.02513 -0.00637 0.02716
-0.01423 0.00376 -0.01563
-0.01359 -0.01073 -0.01458
0.03672 -0.00362 0.03806
0.02855 -0.00892 0.04998
0.02437 -0.00306 0.03749
0.02578 -0.00321 0.04787
-0.02162 0.01885 -0.02586
0.03932 0.02166 0.03626
0.04186 0.01482 0.04108
0.01193 -0.00933 0.01672
-0.01217 -0.01898 -0.01022
0.00142 -0.00491 -0.00695
0.09913 -0.00827 -0.23616
-0.00506 -0.01188 -0.00815
-0.01720 -0.00854 -0.00977
-0.01551 -0.00350 -0.01535
0.03338 -0.00390 0.02918
-0.00424 0.01869 -0.01322
0.00699 -0.00987 0.00944
-0.00222 -0.01048 -0.00336
0.01736 -0.00658 0.01836
0.00652 -0.00822 0.00718
-0.00700 -0.01028 -0.00662
0.06148 0.03147 0.14280
0.00651 -0.00926 0.00961
0.03387 -0.00748 0.04238
0.00217 -0.00890 0.00263
0.03337 -0.01226 0.04666
0.03044 -0.00861 0.03644
0.01568 0.02598 0.04478
-0.01401 -0.00329 -0.01377
-0.01509 -0.01171 -0.01465
-0.01518 -0.00300 -0.01512
-0.00854 -0.01172 -0.00434
0.04155 0.00665 0.04231
0.01041 -0.00223 -0.11507
-0.00206 0.04815 0.09434
0.02978 -0.01029 0.04991
0.04012 0.00584 0.04059
-0.04148 0.01149 -0.04783
0.03188 -0.00967 0.04537
0.06034 0.02953 0.05314
0.04372 0.02248 0.04182
0.00022 -0.00920 0.00072
0.04274 0.00597 0.04359
0.03356 0.03190 0.14429
0.06404 0.03220 0.06549
0.05450 0.02727 0.07102
0.08078 0.01758 -0.03554
-0.01685 0.01577 -0.03972
0.00167 -0.01012 0.00150
0.03451 -0.02420 0.05425
-0.02925 -0.02500 -0.00145
-0.01483 -0.01703 -0.01298
0.03074 0.02094 -0.01332
-0.01284 -0.01895 -0.01072
0.05117 0.02696 0.04230
0.01438 -0.01195 0.01546
-0.01159 0.00426 -0.01390
0.00435 0.02154 -0.00893
-0.01350 -0.01190 -0.01430
-0.01879 -0.03111 -0.00286
-0.02233 0.00607 -0.02363
-0.00218 -0.00954 -0.00178
0.04289 0.01897 0.04134
-0.02305 0.00707 -0.02339
0.00770 -0.00805 0.00847
0.04012 -0.00633 0.04209
0.03576 -0.00189 0.04024
0.00947 -0.00806 0.01742
0.04216 0.02468 0.03770
-0.00486 -0.01130 -0.00157
0.03461 -0.00823 0.04257
-0.01257 0.00377 -0.01384
-0.01310 0.00637 -0.01411
-0.01166 0.01929 -0.03226
-0.01343 -0.01419 -0.01190
-0.01316 -0.00320 -0.01326
-0.01228 0.01667 -0.02481
-0.01344 0.00614 -0.01408
0.04643 0.00403 0.04796
0.01653 -0.00852 0.01746
0.04316 0.01500 0.04267
-0.01981 0.00624 -0.01885
0.03585 -0.00976 0.04311
-0.02112 -0.00608 -0.02027
-0.02112 -0.00605 -0.02044
0.00570 0.02230 -0.00214
-0.02251 -0.00643 -0.01935
0.03389 -0.00845 0.04726
0.00220 -0.01051 0.00295
0.04127 0.01382 0.04083
0.04133 0.01258 0.04147
0.04133 0.01258 0.04147
0.04263 -0.00434 0.04442
0.05876 0.03117 0.05155
0.03273 0.00993 0.04229
0.01285 -0.00723 0.01282
0.01150 -0.00848 0.01325
0.04190 0.01479 0.04117
0.01888 -0.01077 0.02376
0.02236 -0.01052 0.04611
0.04289 0.02367 0.04056
0.03061 0.03615 0.17491
-0.00005 -0.00562 -0.01837
0.02694 0.03266 0.17732
0.01736 0.04072 0.16233
-0.00267 -0.00786 0.06917
-0.00360 -0.01156 -0.00132
-0.00569 -0.00732 0.03033
-0.00258 0.01503 -0.01604
-0.01784 -0.03078 -0.00350
-0.00196 0.01512 -0.01655
0.02109 0.01900 0.05159
0.05921 0.03074 0.04848
0.06882 0.02573 0.08114
-0.01829 -0.03058 -0.00916
0.00422 -0.00234 -0.09502
-0.00589 -0.01253 -0.00290
0.04688 0.03672 0.01662
0.09062 0.03138 0.12749
-0.00234 0.01521 -0.01638
-0.03343 -0.00780 -0.05258
-0.01849 0.01842 -0.02191
-0.02000 -0.03027 -0.00343
0.03635 -0.02313 0.05275
0.04575 0.00923 0.04511
0.05087 0.00997 0.05233
0.02221 -0.00820 0.02435
0.06010 0.02014 0.05943
-0.02380 -0.00297 -0.02280
0.06750 0.02648 0.06586
-0.00202 -0.01160 -0.00022
0.01486 0.03832 0.19111
-0.02082 -0.03177 -0.00194
-0.01971 -0.03222 -0.00259
-0.01178 -0.00158 -0.01182
0.06384 0.02250 0.06476
-0.01467 0.00455 -0.01596
-0.01372 0.00464 -0.01454
-0.02035 -0.01941 -0.01105
0.00082 -0.01007 0.00190
0.01060 -0.00981 0.01305
0.03092 -0.00444 0.03181
-0.01233 -0.01302 -0.01111
-0.01988 -0.03271 -0.00193
0.00018 -0.01055 0.00215
0.04309 -0.01285 0.04611
0.03226 -0.01146 0.04748
-0.00525 -0.01222 -0.00306
-0.02067 -0.03289 0.00084
0.06575 0.02414 0.07613
-0.02088 -0.01696 -0.01114
-0.02597 0.00223 -0.02799
0.05202 0.02146 0.04310
0.02782 -0.00706 0.02770
-0.02307 -0.00519 -0.02169
0.02367 -0.00653 0.02582
0.02031 -0.00969 0.04884
0.04253 0.03156 0.02409
0.03265 0.03658 0.18398
0.00793 -0.00790 0.07572
-0.00405 0.01647 -0.02301
0.02752 -0.00305 0.04979
-0.02135 0.01303 -0.01972
0.03420 -0.00853 0.04469
-0.02008 -0.01704 -0.01250
0.02456 -0.00671 0.02623
0.02471 -0.00672 0.02727
-0.02589 -0.01938 -0.00774
-0.01252 0.01422 -0.01571
0.01541 -0.00460 0.03828
-0.01058 -0.02922 -0.00530
0.04578 0.01773 -0.03273
0.09543 0.02817 0.13620
-0.01847 -0.01018 -0.01653
0.05226 0.00976 0.05181
0.01815 0.03810 0.16701
0.02028 -0.00802 0.02258
0.00935 -0.00467 -0.00373
0.01857 0.02537 0.01861
-0.02742 -0.02198 -0.00111
-0.03119 -0.01993 -0.00151
-0.00679 -0.01230 -0.00445
0.03471 -0.01079 0.04477
-0.00451 -0.01028 -0.21022
-0.00449 -0.01030 -0.21031
-0.04662 0.00780 -0.00992
-0.00452 -0.01028 -0.21016
-0.00450 -0.01029 -0.21028
-0.00862 -0.01265 -0.00598
-0.00452 -0.01027 -0.21021
0.01978 -0.00789 0.02306
0.01191 -0.00840 0.01316
0.00061 0.02263 0.00925
0.01847 0.02658 0.01498
-0.00223 -0.01199 0.00930
-0.00943 -0.00190 -0.00710
-0.02897 0.00061 -0.01944
-0.00833 -0.01323 0.01070
-0.05702 -0.00655 0.05582
-0.01289 -0.01831 -0.01067
-0.03545 0.00169 0.00945
-0.01513 -0.01739 -0.01354
-0.00223 0.01552 -0.01744
0.00912 0.02043 -0.00466
-0.00700 0.02029 0.00444
0.02086 -0.00705 0.02262
-0.00644 -0.01205 -0.00213
-0.01201 -0.02195 -0.00853
-0.02330 -0.00371 -0.02358
-0.03062 0.01758 -0.01653
-0.02600 0.00673 -0.04232
0.02402 0.00809 0.05148
0.05556 0.04785 0.23120
0.02772 -0.00925 0.06259
0.00446 -0.00796 0.05958
0.02320 -0.00866 0.04316
0.02516 -0.01779 0.05442
-0.03190 0.01298 -0.00861
0.03944 -0.01574 0.04550
-0.02758 0.00056 -0.03191
-0.01750 -0.01906 -0.01384
-0.01838 -0.03192 -0.00360
-0.01484 0.02323 -0.03052
0.01456 0.02350 0.00569
-0.01519 -0.00248 -0.01503
0.01863 -0.00787 0.01558
-0.01246 -0.01128 -0.01304
0.02344 -0.00376 0.04181
0.06478 0.03075 0.07976
-0.00809 -0.01044 -0.00754
0.02517 -0.00763 0.02770
0.00654 -0.00523 0.01139
-0.00190 0.01589 -0.01604
0.03293 0.01502 -0.05524
0.04318 -0.00578 0.04503
-0.03016 0.00556 -0.03117
-0.01549 0.00376 -0.01655
0.04341 0.02445 0.04033
-0.01118 -0.01042 -0.01149
0.04463 -0.01985 0.04941
-0.01762 -0.03093 -0.00628
-0.01181 0.00647 -0.01307
0.03507 0.01882 0.03780
0.03774 -0.02082 0.04208
0.03774 -0.02082 0.04208
0.05931 0.01863 0.05849
-0.02461 -0.01708 -0.00714
0.03492 -0.02586 0.05462
0.02396 0.01626 0.05018
-0.00098 -0.00938 -0.00050
-0.03214 0.01117 -0.01156
-0.00406 0.01813 -0.01989
-0.00664 -0.00907 0.03135
-0.01820 -0.03091 -0.00427
0.04407 -0.01940 0.05058
0.01440 -0.01262 0.01576
-0.01221 0.00622 -0.01328
-0.02735 -0.01538 -0.00460
0.02959 -0.00637 0.03267
0.02467 -0.00359 0.04323
0.02670 -0.00779 0.02969
-0.00580 -0.01013 -0.00525
-0.01538 -0.02436 -0.00506
0.03709 -0.02037 0.04269
-0.01516 0.00486 -0.01630
0.02462 -0.00772 0.04084
-0.02607 -0.01664 -0.00562
0.01010 -0.00767 0.01071
0.02275 0.02860 0.02318
0.01786 0.02620 0.01749
0.02018 -0.00604 0.01490
0.01432 0.04310 0.05537
0.04476 -0.01939 0.05018
0.05042 0.00007 0.05594
-0.02834 0.00561 -0.04254
0.00066 0.02837 0.07981
-0.00895 0.00692 -0.01121
-0.00870 0.01969 -0.02942
-0.00876 -0.01923 -0.00437
0.01144 -0.00761 0.01307
0.06404 0.02339 0.06407
0.03143 -0.00227 0.04631
-0.01021 -0.02868 -0.00600
0.05222 0.02275 0.02586
0.03480 -0.02441 0.05350
0.03480 -0.02441 0.05350
0.02711 -0.01011 0.05134
-0.02435 -0.01285 -0.00832
-0.02994 0.00573 -0.02799
0.00274 0.02357 -0.03600
-0.01514 0.00486 -0.01632
0.02101 0.02802 0.02016
-0.01275 0.00412 -0.01388
-0.02097 -0.03343 -0.00141
0.03573 -0.00371 0.03661
0.04474 0.00741 0.04455
0.04641 0.01965 0.07085
-0.00796 -0.01135 -0.00836
-0.02815 -0.01747 -0.00234
-0.02161 0.01702 -0.04081
0.02893 -0.00800 0.03176
-0.01716 -0.02978 -0.01254
0.01172 -0.01021 0.01421
0.03971 0.00545 0.04076
-0.01549 -0.00420 -0.01522
0.05865 0.01910 0.05688
0.01564 -0.01030 0.01848
0.01376 -0.00794 0.01258
0.03128 -0.00951 0.03799
-0.02826 -0.02069 -0.00142
0.02333 0.00196 0.05245
-0.01005 -0.02528 -0.00650
0.00468 0.01893 -0.04820
0.03158 -0.01093 0.04163
0.04290 0.02820 0.02592
-0.02847 0.00065 -0.01991
0.03741 -0.01054 0.04203
-0.00603 0.01367 -0.06367
-0.00835 -0.00801 -0.01247
-0.00476 -0.00682 -0.00983
0.01594 0.02644 0.01613
-0.02302 -0.02381 -0.00645
0.04789 0.00517 0.05138
-0.01390 -0.01469 -0.01264
0.00117 0.02181 -0.01540
-0.02642 -0.01937 -0.00373
0.00701 0.02346 0.00581
0.00564 0.01642 -0.05384
0.02504 0.02936 0.02523
-0.02425 -0.01951 -0.00738
0.03438 -0.00417 0.03999
0.00876 0.02373 0.00837
-0.00890 0.00134 -0.01026
-0.01534 -0.02369 -0.00617
0.04996 -0.00185 0.04788
0.01638 -0.00943 0.01395
0.02483 -0.01544 0.05506
0.00758 -0.00882 0.01538
-0.01930 -0.00196 -0.01551
-0.01440 -0.02291 -0.01124
0.02608 -0.00288 0.07284
-0.02277 0.00608 -0.02654
0.04533 -0.00298 0.04416
-0.02324 -0.02117 -0.00780
-0.01519 0.01426 -0.01840
0.04613 -0.01250 0.04873
0.03722 -0.02159 0.04286
0.03761 -0.02090 0.04384
0.01752 0.02489 0.01599
0.00785 -0.00763 -0.01074
0.04124 0.02223 0.03829
-0.02204 -0.00306 -0.01863
0.00906 0.01938 -0.03953
0.07390 0.03382 0.08389
-0.02250 -0.01982 -0.00911
0.06011 0.03406 0.07196
0.00857 -0.01109 0.00961
0.00818 0.02501 0.00897
-0.02830 -0.01999 0.00110
-0.01128 -0.01682 -0.00965
0.00393 -0.00254 -0.09322
0.04616 0.00002 0.04756
-0.02883 0.00044 -0.02157
-0.02128 -0.01243 -0.01087
-0.00643 -0.00842 0.03255
0.03341 0.03595 0.17908
-0.02813 -0.02111 0.00360
-0.02222 -0.01061 -0.01152
-0.01199 0.01421 -0.01557
-0.02238 -0.00992 -0.01162
0.03814 -0.00802 0.03929
-0.01445 -0.02371 -0.00933
-0.01841 -0.00780 -0.01725
-0.02979 -0.02628 0.00052
-0.02977 -0.02630 0.00058
-0.00748 0.01656 -0.01588
-0.02851 -0.02008 -0.00077
-0.01299 0.00552 -0.01428
-0.01829 0.02065 -0.02669
-0.01829 0.02065 -0.02669
-0.01274 0.01120 -0.01553
0.02873 0.03049 0.06208
-0.00043 0.02051 -0.01740
-0.02847 -0.01438 -0.00381
-0.00124 -0.01110 0.00434
-0.01376 0.00406 -0.01179
0.03295 0.00677 0.04302
-0.01093 -0.02776 -0.00540
-0.00237 -0.00753 0.00790
-0.01397 -0.00400 -0.01375
0.04930 0.01903 0.03288
0.01427 -0.01132 0.01437
-0.01204 -0.00977 -0.01236
-0.02032 0.01663 -0.01957
-0.01456 0.00666 -0.01527
0.00037 -0.00573 -0.00551
0.03183 -0.01408 0.04994
-0.01346 -0.01000 -0.01363
-0.01589 -0.02132 -0.01321
-0.01460 0.00525 -0.01648
0.02481 -0.01856 0.05646
0.00001 0.02375 0.00177
0.00656 -0.01035 0.00723
-0.02568 -0.01351 0.00872
-0.01870 0.01684 -0.01898
0.00474 0.01549 -0.08727
-0.00302 -0.01234 -0.00237
-0.00866 -0.00960 -0.00897
-0.01338 0.00425 -0.01432
-0.02589 -0.02254 -0.00441
0.03313 0.04809 0.16338
-0.02421 -0.01990 -0.00046
0.00082 0.02253 -0.01715
0.02729 -0.00675 0.02486
0.04409 0.01655 0.06331
0.03482 0.02301 0.04602
-0.01367 -0.00358 -0.01333
-0.02285 -0.01295 -0.00928
0.00339 -0.01098 0.00730
-0.02540 -0.01582 -0.00783
-0.01064 0.00867 -0.10615
-0.03117 0.02003 -0.00551
-0.03098 0.00549 -0.01091
-0.01249 0.00991 -0.09879
0.02436 0.01854 0.04960
-0.03022 0.00604 -0.03174
-0.01895 0.01760 -0.02061
-0.02479 -0.00194 -0.02466
0.02381 0.00113 0.05216
-0.02917 0.00544 -0.03150
-0.02936 0.00418 -0.03172
-0.02354 -0.00412 -0.02646
-0.03045 0.00727 -0.00537
-0.02362 -0.00571 -0.01888
-0.01781 -0.02928 -0.01159
-0.00875 0.00972 -0.01147
-0.03048 0.00913 -0.00538
-0.01131 -0.01148 -0.01002
-0.02301 -0.00359 -0.02163
0.03455 0.03639 0.17919
-0.03572 0.01762 -0.01959
-0.03685 0.01819 -0.01346
-0.03497 0.01333 -0.01423
0.03242 -0.00944 0.04704
0.03296 -0.02129 0.05456
0.05260 0.01176 0.05212
0.05591 0.02281 0.04954
0.05630 0.01599 0.05578
0.03990 0.02355 0.03742
0.04147 0.01458 0.04099
0.05381 0.01362 0.05216
-0.00225 0.01497 -0.01750
-0.02360 -0.00155 -0.01757
-0.06084 0.03198 0.01566
-0.02426 -0.00036 -0.02269
-0.00689 0.01695 -0.03388
0.05997 0.02742 0.05596
0.03517 0.01391 0.04027
0.01122 0.02399 0.01012
-0.03220 0.02111 -0.03119
0.02652 -0.00511 0.02727
-0.02684 -0.00066 -0.02600
0.12923 0.03087 0.14656
0.02625 0.02948 0.02666
-0.05301 0.02721 0.00755
0.06580 0.02826 0.08194
0.00038 0.01789 -0.02398
0.10998 0.02526 0.10709
0.03575 -0.00883 0.04332
0.02473 0.01018 0.05836
0.09877 0.02644 0.10727
-0.00188 0.01850 -0.00946
0.03951 0.00637 0.03949
-0.03352 0.00910 -0.03587
-0.03353 0.00912 -0.03583
0.00375 -0.00659 0.02430
0.05935 0.02127 0.05142
0.01469 -0.01161 0.01559
0.02396 0.03578 0.18047
0.10808 0.02298 0.10888
0.09023 0.02737 0.12297
-0.01481 -0.01297 -0.01399
0.16091 0.04489 0.18936
-0.02720 0.01673 -0.03653
-0.00740 -0.01185 -0.01339
0.07062 0.02437 0.14340
0.00415 0.01702 -0.03226
0.03991 0.01921 0.03808
-0.01346 0.01284 -0.01637
0.02651 0.02905 0.01965
-0.02598 0.00013 -0.02655
0.02395 0.02869 0.02468
-0.01812 -0.03114 -0.00521
-0.00408 0.01974 0.00155
-0.00789 0.01519 -0.01095
-0.04045 0.03302 -0.00594
-0.03613 -0.00216 -0.00900
-0.02512 -0.00016 -0.02777
0.04258 -0.01362 0.05146
0.01038 -0.01698 0.01089
-0.01405 0.00643 -0.01461
-0.02029 -0.03609 -0.00093
0.00835 0.02982 0.03110
-0.04801 0.02208 0.00911
0.01674 0.03825 0.20000
0.01296 0.04170 0.20083
0.11001 0.02846 0.10536
-0.00209 0.01727 -0.01728
-0.00789 -0.00313 -0.00357
0.05045 0.01725 0.06986
0.00299 0.00441 -0.15123
0.04035 0.03100 0.07096
-0.03375 0.00158 -0.03680
-0.01290 0.00618 -0.01430
-0.02893 0.01779 -0.03364
-0.03976 0.02345 0.01301
-0.00881 -0.00424 0.03371
0.06816 0.02747 0.08125
-0.03575 0.01956 -0.01640
0.05543 0.01568 0.05553
-0.00091 -0.00736 0.01566
0.00116 -0.00701 0.01963
0.01994 -0.01564 0.02449
0.03483 -0.02707 0.05442
-0.04281 0.01926 -0.01716
0.03484 -0.02767 0.05462
-0.00037 -0.00603 -0.01691
-0.02634 -0.00638 0.00366
0.05145 0.00961 0.05231
0.08345 0.03349 0.08070
-0.01097 -0.02703 -0.00449
0.01226 0.02059 0.02748
-0.03065 0.00246 -0.03228
0.04298 -0.01568 0.05381
-0.01725 0.00722 -0.13408
-0.03479 0.01699 -0.03705
0.12289 0.03485 0.19652
0.00524 -0.01001 0.00786
-0.03030 0.00486 -0.03128
-0.00817 -0.00857 0.01404
0.03971 -0.01080 0.04239
0.08887 0.03381 0.08261
0.02530 -0.01790 0.05601
0.02530 -0.01790 0.05601
-0.03190 0.01778 -0.02348
-0.00447 -0.01228 -0.00191
-0.01821 -0.03130 -0.00323
0.00115 0.02938 -0.02646
0.03499 -0.00867 0.04380
0.03499 -0.00867 0.04384
-0.03725 0.01913 -0.01930
0.05440 0.02878 0.03622
-0.01157 -0.01155 -0.01224
-0.03559 -0.00128 -0.00962
-0.02289 0.00035 -0.02135
0.00332 0.00332 -0.16137
0.00109 -0.00649 0.01411
0.02057 -0.01095 0.03133
-0.00110 0.01839 -0.02120
-0.00468 -0.00775 -0.00173
-0.03322 0.00862 -0.03494
0.09838 0.03367 0.10860
0.02463 0.00270 0.05793
-0.03888 0.03494 -0.00502
0.00767 -0.01032 0.02161
0.11185 0.03466 0.13177
0.01827 -0.00833 0.06786
-0.02903 -0.02308 -0.00029
-0.00496 -0.01632 -0.00766
0.03559 0.02390 0.04192
0.01149 0.02364 0.01865
-0.02957 0.01693 -0.02538
0.09439 0.03280 0.09194
-0.01091 -0.02733 -0.00797
-0.02022 -0.01716 -0.01155
-0.00261 -0.01072 -0.00249
-0.00273 -0.01219 -0.00067
-0.02951 -0.00421 -0.00496
-0.02136 -0.01760 -0.01047
-0.02564 -0.02099 -0.00586
-0.00498 0.03026 -0.02460
-0.03158 -0.01349 -0.00236
-0.02084 0.01897 -0.02477
0.03313 -0.02336 0.05517
-0.00483 0.01687 -0.02565
-0.04824 0.02033 -0.00413
-0.01565 0.01892 -0.01706
-0.00874 0.01944 -0.00659
-0.02904 0.01253 -0.01179
0.02410 0.01648 0.05019
-0.00838 -0.02183 -0.01067
0.04210 -0.01058 0.04514
0.01440 -0.01262 0.01576
0.02485 0.02604 0.06647
0.01662 -0.00939 0.01756
0.08149 0.03409 0.08644
0.04442 0.00919 0.04368
-0.01287 0.01302 -0.01550
0.04179 0.00620 0.03924
0.04049 -0.01103 0.04335
0.01924 -0.01721 0.03623
0.04322 -0.00577 0.04545
0.02389 0.02214 0.05021
0.03268 -0.01076 0.04728
0.01070 -0.00526 0.01641
0.04123 0.00635 0.04222
-0.03943 0.00745 -0.03375
-0.01450 0.01438 -0.01793
-0.03121 -0.00569 -0.00338
-0.00741 -0.01166 -0.00540
0.01944 0.02642 0.01790
-0.03011 -0.02685 0.00050
-0.00856 0.00675 -0.01372
0.01984 -0.00729 0.02318
0.02611 0.02128 -0.00712
0.03278 -0.00546 0.03220
-0.03583 0.03361 -0.00841
-0.01257 -0.01036 -0.01295
0.03974 0.01248 0.03934
0.03092 -0.00563 0.03382
0.10121 0.03732 0.12101
-0.01337 0.01525 -0.01684
0.04778 -0.00079 0.04519
0.02978 -0.00596 0.03174
-0.04383 0.02824 -0.00590
0.10249 0.02524 0.10460
-0.02844 0.00941 -0.00698
-0.00063 -0.00612 -0.00537
-0.00633 -0.01189 -0.00592
0.05870 0.02111 0.03328
0.04629 -0.01333 0.04894
0.01482 0.03159 0.09744
0.04163 0.02173 0.03971
0.03332 -0.01053 0.04640
0.04253 0.00684 0.04321
0.09031 0.03317 0.09787
0.03141 -0.00224 0.04623
0.04407 -0.00804 0.04738
-0.03589 0.00981 -0.03298
-0.03828 0.03306 -0.00336
0.01365 -0.00517 0.03690
-0.02118 -0.01731 -0.01065
-0.03006 0.02082 -0.01011
0.02153 -0.00533 0.01636
-0.00894 0.01479 -0.01473
0.03154 -0.01061 0.04815
0.03992 0.01852 0.03820
-0.01486 -0.01301 -0.01369
-0.01171 -0.00299 -0.01163
0.05850 0.04792 -0.01171
0.09320 0.02807 0.10594
0.04359 -0.00421 0.04523
0.03988 -0.00322 0.04096
-0.00938 -0.01738 -0.00349
-0.04008 0.02627 -0.00669
0.01854 -0.00639 0.01951
0.02375 0.02825 0.05557
-0.02190 -0.02167 -0.01058
0.10216 0.02929 0.10565
0.02109 0.02989 0.07115
0.04066 -0.00412 0.04204
0.04208 -0.00991 0.04498
0.03589 -0.02396 0.05146
-0.03052 0.00425 -0.03207
0.00383 0.00362 -0.15973
0.02972 -0.00462 0.03087
0.00356 -0.00974 0.00872
-0.03137 0.00435 -0.03959
-0.03089 0.00784 -0.00550
0.00627 0.02996 0.03279
0.00379 0.01992 -0.04138
-0.02351 -0.01905 -0.00824
0.04111 0.00482 0.03530
-0.03829 0.03507 -0.00410
0.01829 -0.00822 0.02289
-0.01448 0.00393 -0.01567
0.01498 -0.01109 0.01734
-0.03065 0.00012 -0.00799
-0.04065 0.01765 -0.03407
0.02861 -0.00480 0.02869
0.09197 0.02886 0.11337
-0.02611 -0.02134 -0.00202
-0.01302 -0.01029 -0.01441
0.03093 0.02918 0.04362
0.02070 0.01313 -0.09969
0.00172 -0.01184 0.00116
-0.01220 0.00526 -0.01327
0.00023 0.02239 -0.00123
0.03899 0.00146 0.03873
0.10547 0.02866 0.11804
0.01038 -0.00555 0.03299
0.02087 -0.00777 0.02339
0.01988 0.00644 -0.11559
0.03877 -0.00022 0.03800
-0.01060 0.00891 -0.10633
-0.01357 0.00543 -0.01511
0.03290 -0.01401 0.04694
-0.02428 -0.00040 -0.02042
-0.03235 0.02181 0.02489
-0.03864 0.00191 -0.01975
0.02140 -0.01650 0.02179
-0.03625 0.02976 -0.00848
-0.00847 0.01944 -0.03127
-0.01128 -0.01682 -0.00965
-0.00728 0.01577 -0.01517
-0.01573 -0.02330 -0.00939
0.04048 -0.00619 0.04357
-0.01536 -0.01629 -0.01539
-0.01276 0.00486 -0.01363
0.00604 -0.00589 0.00616
-0.03417 0.00502 -0.03591
-0.02221 -0.01060 -0.01156
-0.02839 -0.01543 -0.00220
-0.01449 0.00956 -0.01931
-0.00227 0.01236 -0.01580
0.00371 0.04214 0.20452
-0.01227 -0.01765 -0.01089
0.00009 0.03131 -0.02182
-0.01604 -0.02554 -0.00476
-0.01240 -0.00966 -0.01238
-0.01243 -0.00970 -0.01202
0.01070 -0.00959 0.01241
-0.03104 -0.00416 -0.01198
0.00302 0.00435 -0.15247
-0.00242 0.01187 -0.02202
-0.01941 -0.00879 -0.01702
0.00366 0.01064 0.01054
-0.02989 0.01656 -0.02598
-0.01205 -0.00977 -0.01234
-0.00589 0.01564 -0.02024
-0.09467 0.05131 0.19509
0.03967 0.01415 0.03544
0.11018 0.04465 0.10117
-0.00048 0.02396 -0.01740
-0.01816 0.00883 -0.12133
-0.01840 0.00912 -0.11905
0.00121 0.02990 0.03579
-0.01441 -0.00167 -0.01418
-0.02237 -0.00163 -0.02194
-0.02043 0.01357 -0.01866
0.09959 0.03002 0.09908
-0.00696 0.01622 -0.00096
-0.03505 -0.00178 -0.01078
-0.03686 0.00431 -0.02724
-0.00940 0.00176 -0.01071
-0.02673 -0.01553 -0.00519
-0.02253 -0.00015 -0.02218
-0.02650 0.01599 -0.05033
0.04040 -0.00753 0.04178
0.00290 0.02117 -0.01205
0.03946 -0.01395 0.04283
-0.00783 -0.00904 -0.00803
-0.04173 0.09061 0.00329
0.00827 0.03043 0.02524
-0.04820 0.02450 0.01306
-0.03333 0.01842 -0.03845
0.01294 -0.00847 0.01351
-0.03037 0.00553 -0.03041
-0.03037 0.00553 -0.03041
-0.01293 0.01384 -0.01649
-0.01294 0.01240 -0.01587
-0.01385 -0.00240 -0.01374
-0.06490 0.02754 0.01577
0.00798 -0.00957 0.01088
0.04604 0.00719 0.04645
-0.00252 0.01725 -0.01673
0.04623 -0.00701 0.04844
0.03713 -0.02255 0.05272
0.04443 -0.01662 0.04978
0.08364 0.03618 0.08043
-0.00184 0.02128 -0.01948
-0.01523 -0.00395 -0.01476
0.00343 -0.01163 0.00459
0.09218 0.02827 0.11496
0.00742 0.02438 0.00613
-0.01553 -0.00278 -0.01544
-0.04538 0.00600 -0.02258
0.09539 0.03143 0.08862
-0.01322 -0.00177 -0.01336
0.10224 0.02723 0.10456
-0.02975 -0.02833 0.00080
-0.01178 0.01161 -0.01401
0.03550 -0.02371 0.05342
0.01602 -0.01103 0.01736
0.03198 0.03794 0.16523
-0.02296 -0.01735 -0.00851
0.02507 -0.01507 0.05389
0.02431 0.01033 0.05130
0.02712 -0.01337 0.05617
-0.01519 -0.00249 -0.01499
0.03233 0.02753 0.03161
0.09333 0.02557 0.12022
0.04123 0.02667 0.03840
-0.00869 -0.01362 -0.00726
-0.02048 -0.01740 -0.01081
0.02272 -0.00523 0.05834
-0.04660 0.02200 -0.02332
-0.00252 0.01788 -0.01700
0.02073 -0.01593 0.02346
-0.04824 0.02057 -0.00234
-0.00962 0.01074 -0.01145
-0.02969 0.01747 -0.03106
0.01183 -0.00578 0.04075
0.04736 0.01551 0.04989
0.01041 -0.01712 0.01263
0.04333 -0.00237 0.04322
-0.00003 -0.00650 -0.00193
-0.00933 0.00815 -0.01151
-0.00786 -0.00938 0.05277
0.01012 0.02361 0.02825
0.01396 0.02955 0.06932
-0.03675 0.00997 -0.04186
-0.02531 -0.02169 -0.00555
0.01852 -0.00493 0.04146
-0.00394 -0.00491 -0.02410
0.01463 -0.00421 0.02078
0.01236 -0.00592 0.03557
0.01524 0.02903 0.05566
-0.03135 0.00884 -0.05477
0.08814 0.03247 0.11452
-0.03028 0.01593 -0.07114
-0.00408 -0.01159 -0.00189
-0.01422 -0.01226 -0.01291
0.03366 0.03722 0.18178
0.01451 0.02771 0.00868
0.05737 0.02903 0.06149
-0.01303 -0.00087 -0.02518
-0.02470 -0.01803 -0.00625
-0.02994 0.01929 -0.00657
0.00730 -0.00918 0.01634
-0.01208 0.01140 -0.01511
0.07290 0.03121 0.07148
0.10468 0.02087 0.10925
-0.03115 -0.01860 -0.00163
0.03669 -0.02350 0.05271
-0.01961 -0.02994 -0.00447
-0.03511 0.00002 -0.00958
0.04336 -0.00306 0.04381
-0.01470 0.01563 -0.02223
0.02376 0.00943 0.05100
0.03107 0.03316 0.17164
0.01655 -0.00985 -0.03336
-0.01453 0.01491 -0.01774
-0.02507 -0.00308 -0.02519
0.00459 -0.00665 0.02333
-0.02280 0.01129 -0.02468
0.03129 -0.00535 0.03407
0.02913 -0.00634 0.03120
0.00654 -0.01013 0.01604
-0.00657 -0.01124 -0.00427
0.01785 0.03433 0.13241
-0.01996 0.01369 -0.01788
-0.02466 -0.01867 -0.00647
-0.01437 0.01305 -0.01728
0.03764 -0.01990 0.04367
0.09913 0.02800 0.10735
-0.00807 -0.01154 -0.00842
0.01296 0.04660 0.05515
0.03528 -0.00548 0.03770
-0.03139 0.01840 -0.02739
-0.02439 -0.00313 -0.01761
0.13692 0.03493 0.21003
-0.02038 -0.01247 -0.01551
-0.04170 0.00398 -0.01829
0.02564 0.03016 0.02322
0.03223 -0.00431 0.03403
-0.03071 -0.00662 -0.00365
-0.04194 0.00077 0.00174
-0.02271 0.00004 -0.01351
-0.00286 -0.00993 -0.00794
-0.00216 -0.01063 -0.00017
0.01005 -0.00996 0.01231
0.02990 0.01698 -0.03935
0.00407 -0.00861 0.00466
0.09575 0.02860 0.11153
-0.02592 0.01869 -0.00141
0.00772 -0.00804 0.00839
0.03482 -0.01596 0.21214
0.03581 -0.00499 0.03886
0.03241 0.02907 0.03278
-0.02221 0.01810 -0.01480
-0.02229 0.01072 -0.02509
0.04281 0.01551 0.04364
-0.01454 -0.00680 -0.01497
-0.01820 -0.00922 -0.01725
-0.01182 0.02279 -0.03153
-0.02207 -0.01431 -0.01048
0.04520 0.01437 0.05224
0.02588 -0.00320 0.04845
0.07015 0.03063 0.13610
0.00352 0.00338 -0.16000
-0.02403 -0.01791 -0.00754
0.03228 -0.00634 0.03950
-0.01236 0.00665 -0.01359
-0.02734 0.00750 0.00720
0.02864 0.03435 0.18090
-0.00330 0.02942 -0.02023
-0.02044 -0.00815 -0.01954
-0.00688 0.01621 -0.02073
0.00450 -0.00595 0.01817
-0.04610 0.00699 -0.02249
0.06490 -0.01401 0.25363
0.00194 -0.00546 0.01684
-0.03701 0.01877 -0.01876
-0.00166 -0.01117 0.00125
-0.04548 0.00660 -0.02221
0.02459 -0.00269 0.04086
0.02628 -0.00292 0.04880
0.02628 -0.00292 0.04880
0.05175 -0.01128 0.21447
-0.03188 0.00170 -0.00534
-0.00870 -0.02195 -0.00612
0.00986 0.02280 0.00116
0.02119 -0.00281 0.04267
-0.02036 -0.00778 -0.02004
0.04015 -0.00464 0.04158
0.03140 -0.00665 0.03409
-0.00602 -0.01096 -0.00702
-0.02489 -0.02142 -0.00613
-0.05497 0.03295 0.00925
0.04989 0.01145 -0.08280
-0.01889 0.00785 -0.01770
-0.01203 -0.01579 -0.01109
0.04289 0.02404 0.02859
0.02983 -0.01405 0.05067
-0.02010 -0.00883 -0.01566
-0.03261 -0.01700 -0.00207
-0.01932 -0.00875 -0.01762
-0.01883 -0.01667 -0.01364
-0.02586 -0.02227 0.00827
0.01253 0.02428 0.00533
-0.01111 -0.01631 -0.00974
-0.01413 -0.01435 -0.01308
0.04295 0.02381 0.02589
-0.03540 0.01666 -0.03451
-0.01395 -0.01845 -0.01157
-0.01757 0.00376 -0.05842
0.02816 -0.00184 0.04980
0.01711 -0.00294 0.03157
-0.02310 0.00822 -0.02262
0.00228 0.02291 -0.01123
0.03024 -0.01306 0.04986
0.04245 -0.00119 0.04366
-0.02762 -0.01626 -0.00388
-0.01460 0.01798 -0.02209
-0.02182 0.00644 -0.01364
-0.02317 -0.01454 -0.01464
-0.02693 0.00580 -0.00791
-0.05799 0.03353 0.01771
0.04084 0.02201 0.03915
-0.02432 -0.03173 0.00418
0.03003 0.00974 0.04457
-0.02021 0.00666 -0.01541
-0.01497 0.01520 -0.02135
-0.01422 -0.01600 -0.01348
-0.03048 -0.00755 -0.00436
-0.01301 -0.01463 -0.01137
-0.00884 -0.00799 -0.00355
-0.05254 0.01341 -0.02772
-0.01899 0.00615 -0.01709
-0.02233 -0.00605 -0.02022
-0.04286 0.00828 -0.01817
0.04094 -0.00611 0.04111
0.01634 -0.00685 0.01716
-0.00989 -0.02416 -0.00641
-0.02326 -0.00267 -0.02372
-0.00838 -0.01225 -0.00624
-0.03222 -0.00575 -0.00536
-0.03128 0.01464 -0.00763
-0.02023 -0.03450 -0.00102
-0.01423 0.01374 -0.01749
-0.01121 0.01400 -0.01430
0.03569 0.02447 0.04679
0.01469 -0.01035 0.01586
-0.01524 0.01487 -0.01844
-0.01257 0.01369 -0.01505
-0.02297 -0.02223 -0.00794
-0.01395 -0.00188 -0.01402
0.03057 -0.01196 0.04929
0.04313 0.02012 0.04151
-0.01952 -0.01727 -0.01437
0.04024 -0.01625 0.04613
-0.01249 -0.00232 -0.01240
0.00434 -0.01060 0.00397
0.00206 -0.00982 0.10132
-0.00128 -0.01077 -0.00225
-0.01550 0.00511 -0.01666
-0.02038 0.00399 -0.01584
0.04441 -0.01876 0.05035
0.03661 -0.02128 0.04047
0.02957 -0.01053 0.04092
0.06306 0.02905 0.11632
0.01736 0.03103 0.10362
-0.00179 -0.01057 0.00058
0.04671 -0.00676 0.04874
0.00219 -0.01049 0.00271
-0.00971 -0.02343 -0.00675
-0.01174 -0.01231 -0.01119
-0.02057 -0.03548 -0.00054
-0.01995 -0.03015 -0.00363
-0.01408 -0.01257 -0.01362
0.02216 0.00058 0.04091
0.01181 -0.01080 0.01371
0.02536 0.00044 0.05016
-0.02859 -0.00501 -0.01402
-0.03208 -0.00831 -0.00274
0.01481 -0.00565 0.03834
0.00885 -0.00895 0.01088
0.02314 -0.00738 0.02530
0.02417 0.01667 0.05068
-0.04398 -0.00010 0.02146
-0.04398 -0.00010 0.02146
-0.02271 -0.02467 -0.00633
-0.01196 -0.02271 -0.00824
-0.00925 -0.00639 -0.00799
-0.01825 -0.02916 -0.01162
-0.02997 -0.00558 -0.00721
0.02333 -0.00856 0.03791
-0.00583 -0.01092 -0.00718
0.02026 -0.00346 0.04875
-0.03168 -0.01924 -0.00087
0.00385 0.00941 0.01661
-0.03117 -0.01445 -0.00164
-0.02979 -0.02738 0.00082
-0.00414 -0.01712 0.00102
-0.03124 0.00395 -0.00436
0.00211 -0.00959 0.00350
0.00516 -0.00558 -0.06359
-0.00188 0.01243 -0.01594
0.06921 0.03895 0.12293
0.01349 -0.01141 0.01447
-0.00254 0.01498 -0.01648
0.00394 -0.00724 -0.12826
0.09551 0.02268 0.11815
-0.00765 -0.00759 0.00131
-0.00097 -0.00584 -0.01851
-0.00234 0.01693 -0.01542
-0.02195 -0.01332 -0.01055
-0.01427 -0.00990 0.06855
-0.03015 0.00186 -0.03187
-0.03025 0.01239 -0.01145
-0.00465 0.01539 -0.03099
-0.03808 0.01577 -0.01438
0.00437 -0.00656 0.02803
-0.01176 0.00567 -0.01308
0.03489 -0.02228 0.05423
0.00304 -0.00811 -0.04131
-0.00662 -0.01217 0.00841
-0.02962 0.00121 -0.03002
-0.00796 -0.01436 -0.00646
0.00632 0.00461 -0.14911
0.00461 -0.00396 -0.05303
0.00393 -0.00709 -0.12831
0.00628 -0.00323 -0.11204
-0.00244 -0.01054 -0.00652
0.00589 -0.00345 -0.06127
-0.02006 -0.01422 0.02175
-0.00902 0.00895 -0.01209
0.00567 -0.00341 -0.10219
-0.04124 0.00613 -0.02068
0.00473 -0.00226 -0.09442
0.00451 -0.00237 -0.09234
-0.03290 0.00404 -0.03340
-0.00894 -0.00889 0.01132
-0.01629 0.00618 -0.13357
-0.03545 0.01594 -0.01333
-0.02028 -0.03606 -0.00117
-0.01381 0.01318 -0.01650
-0.03549 0.00019 -0.00895
0.04546 0.00922 0.04451
-0.00256 0.01586 -0.01604
-0.02975 0.00269 -0.03948
-0.03475 0.01600 -0.01319
-0.00264 0.01543 -0.01578
-0.03374 0.01572 -0.01177
0.00189 -0.00726 0.02603
0.00438 -0.01154 0.02081
-0.03449 0.01274 -0.01240
0.00222 -0.00382 0.03258
-0.02996 0.00607 -0.03187
-0.01162 0.02194 -0.03273
0.00188 -0.00722 -0.06026
-0.03430 0.01525 0.00765
-0.00038 -0.01158 0.01380
-0.02314 -0.00169 -0.02098
-0.00018 -0.00456 -0.05212
-0.03300 0.00004 -0.01518
-0.00620 -0.01614 0.06067
0.00060 -0.01037 0.00336
-0.03156 -0.02085 -0.00085
0.00459 -0.00345 -0.06216
0.00821 0.00560 -0.13556
-0.03053 0.00241 -0.02994
0.02883 0.03034 0.02992
-0.00200 -0.00886 0.05311
-0.02603 -0.01254 -0.00626
-0.05440 0.01984 0.04248
0.00638 -0.00428 -0.03512
-0.01247 0.00555 -0.01403
-0.03515 0.00013 -0.02360
0.03070 -0.01513 0.04803
-0.00310 -0.00628 -0.02769
0.00400 -0.00715 -0.12830
0.00049 -0.00400 -0.06622
-0.03129 0.01900 -0.00827
-0.02304 -0.00194 -0.02226
-0.02484 -0.00142 -0.01074
0.10326 0.02241 0.09599
-0.03076 0.00534 -0.03184
-0.01809 -0.00958 -0.01725
-0.02149 -0.02098 -0.00942
-0.00078 0.01932 -0.01972
-0.00848 -0.00896 0.01765
-0.01282 -0.00372 -0.01272
-0.01999 -0.01583 -0.01646
-0.01270 0.00415 -0.01324
0.00432 0.02507 0.00962
0.10175 0.02354 0.10750
0.07189 0.02368 0.07707
-0.00899 -0.01513 -0.00815
-0.00391 -0.00756 0.02017
-0.00211 -0.00695 0.01528
-0.00241 0.01442 -0.04782
0.00417 -0.00408 -0.09902
-0.01931 0.00431 -0.01733
-0.02292 -0.02374 -0.00695
-0.02619 -0.01146 -0.00769
-0.02480 -0.01861 -0.00568
-0.00297 0.01810 -0.01248
0.00396 -0.00544 0.02523
-0.01482 -0.01477 -0.01348
0.00571 -0.00441 -0.08422
-0.01324 0.00987 -0.01591
-0.01307 -0.01477 -0.01166
-0.01324 0.01032 -0.01605
0.00566 -0.00210 -0.08147
-0.01269 -0.00623 -0.00633
-0.00199 -0.01097 0.00180
-0.00854 -0.00740 -0.00956
-0.00410 -0.00712 -0.00171
0.00784 -0.00271 -0.06039
0.00194 -0.00502 -0.12823
-0.02672 0.00233 -0.02421
0.00665 -0.00417 -0.02158
-0.02054 -0.03185 -0.00177
0.00642 -0.00263 -0.12179
-0.02134 -0.01246 -0.01093
-0.01341 -0.01834 -0.01115
-0.04184 0.00328 -0.01770
0.04690 0.00076 0.04719
-0.00446 -0.00762 0.00345
-0.02967 0.01300 -0.00917
-0.03020 -0.02312 -0.00117
-0.02251 -0.01921 -0.00853
-0.02781 0.00923 -0.01425
0.04662 0.00526 0.04746
-0.01168 0.01119 -0.01414
-0.00294 -0.00528 -0.02380
-0.02806 -0.01580 -0.00356
-0.00768 -0.01144 -0.00642
0.00435 -0.00434 -0.03085
-0.00036 -0.01128 0.01412
-0.00656 -0.01298 -0.00483
-0.02391 -0.00012 -0.00827
0.00063 -0.01135 0.00209
-0.01494 0.01013 -0.01739
-0.03907 0.00360 -0.01864
-0.01178 0.01332 -0.01476
-0.01929 -0.01703 -0.01432
-0.01388 0.01159 -0.01652
-0.03086 -0.00880 -0.00335
-0.01365 0.01368 -0.01647
-0.02368 -0.02466 -0.00654
-0.02264 0.00842 -0.02473
0.04470 -0.01297 0.04824
-0.03151 0.01617 -0.01762
0.04375 -0.01016 0.04705
-0.02327 -0.00305 -0.02397
-0.02549 -0.00115 -0.02653
0.03655 0.01947 -0.00433
-0.00487 -0.01211 -0.00131
-0.00436 -0.00783 0.01231
-0.00611 0.01484 -0.01923
-0.00781 -0.01164 -0.00509
-0.01491 0.00655 -0.01672
-0.01229 0.01302 -0.01534
-0.03144 -0.01470 -0.00214
-0.02517 -0.01229 -0.00746
-0.00914 0.00078 -0.01033
0.02314 0.00016 0.05277
0.01165 -0.00969 0.01337
-0.00248 0.01702 -0.01683
0.03547 0.02209 0.04543
-0.03257 -0.02277 0.00606
0.04054 -0.01527 0.04554
0.08983 0.02636 0.11460
0.02376 0.01762 0.04989
-0.00457 0.01556 -0.01858
-0.00220 0.01512 -0.01689
-0.00204 0.03153 0.08966
-0.02432 -0.01086 -0.01002
-0.00476 0.01820 -0.01981
0.03377 -0.00923 0.04551
0.03716 0.02864 0.05602
-0.02666 0.00097 -0.03082
0.00624 0.02442 0.00563
0.03521 -0.00813 0.04062
-0.03789 0.01959 -0.03930
0.03383 -0.00585 0.04563
0.04296 0.02818 0.02613
-0.00413 0.01671 -0.01613
0.00697 0.02518 0.00579
-0.00196 0.01643 -0.01619
0.03682 -0.00352 0.03807
0.04341 -0.01128 0.04634
-0.00904 -0.00129 -0.00978
0.00290 -0.00601 0.01859
-0.03309 0.01527 -0.05350
0.03064 -0.01014 0.04205
-0.00972 0.01789 -0.02351
-0.03436 0.02164 0.00421
-0.03216 0.01473 -0.00920
-0.02730 -0.01591 -0.00436
0.04547 0.00290 0.04947
-0.03301 0.01443 -0.06041
-0.02206 -0.03120 -0.00034
0.04633 -0.00051 0.04642
0.02581 -0.00586 0.02156
-0.03794 0.00000 -0.01332
0.08357 0.03470 0.08067
-0.02100 0.00962 -0.11101
-0.03794 0.00000 -0.01330
-0.02967 0.02078 -0.00751
0.02558 -0.01083 0.04038
0.15187 0.04198 0.15709
-0.02552 -0.01425 -0.01178
0.04110 0.02453 0.02781
-0.03086 0.01049 -0.00627
-0.02297 -0.00065 -0.02808
0.01222 -0.00416 0.03279
0.02550 0.02500 0.00547
-0.03645 0.00081 -0.01311
0.08330 0.03383 0.08007
-0.00209 0.01760 -0.01237
-0.00040 -0.01114 0.00185
-0.00546 -0.01701 -0.00165
-0.02800 0.02048 -0.00781
-0.02918 0.02206 0.00598
-0.00953 -0.02292 -0.00611
0.02798 -0.00281 0.04029
0.00526 -0.00977 0.00505
-0.03108 0.01442 -0.05698
-0.02271 0.00664 -0.02332
-0.01305 0.00681 -0.01591
-0.03394 0.00849 -0.03487
-0.00167 -0.01199 0.00069
0.01063 -0.00606 0.04414
-0.01991 0.00867 -0.11829
-0.03636 0.02080 -0.00137
-0.01425 -0.01298 -0.01317
0.01386 0.02526 0.01223
0.05143 0.00964 0.05224
0.05865 0.02820 0.04024
0.09103 0.03649 0.08675
0.07294 0.03059 0.06186
0.01713 -0.00676 0.01745
-0.02386 -0.00206 -0.02473
0.08779 0.03414 0.08553
0.09528 0.03404 0.09420
-0.00899 -0.01959 -0.00668
0.00651 -0.00836 0.00838
0.01312 -0.00476 0.02743
0.02742 -0.00486 0.02623
-0.03007 0.01694 -0.03367
-0.01565 0.00673 -0.13866
0.04578 -0.01274 0.04916
0.00495 -0.00553 0.00143
0.03632 -0.01122 -0.14888
0.10504 0.02890 0.10255
0.10504 0.02890 0.10255
-0.02220 0.00805 -0.02511
0.02350 -0.00570 0.02940
0.00305 -0.00884 0.00360
0.10080 0.03994 0.09951
-0.01126 0.00773 -0.12722
-0.03890 0.01085 -0.03583
-0.03158 0.00767 -0.03647
-0.01286 -0.01053 -0.01378
0.00132 0.02539 -0.00284
0.01092 0.01178 -0.08196
0.10469 0.02680 0.10250
-0.00319 -0.00637 0.00000
0.09336 0.03358 0.09710
-0.00888 0.01554 -0.01303
0.05551 0.02887 0.03172
0.04805 0.02455 0.02016
0.04425 0.00548 0.04950
0.09763 0.02569 0.11027
-0.02334 -0.02052 -0.00436
-0.02414 -0.01858 -0.00909
-0.02276 -0.01116 -0.01152
-0.02298 -0.00385 -0.02283
-0.02244 -0.03047 -0.00057
-0.01336 -0.02433 -0.01020
-0.02212 -0.00465 -0.02258
0.03840 -0.01901 0.04714
-0.01313 0.01591 -0.02470
-0.00873 -0.01539 -0.00748
0.04284 -0.01556 0.04773
-0.02677 -0.01028 -0.00643
-0.02254 0.00846 -0.02364
0.00126 -0.01146 0.00124
-0.02173 -0.02057 -0.00923
-0.02615 -0.01256 -0.00580
0.03314 -0.01479 0.04742
-0.01205 -0.00240 -0.01239
-0.03036 -0.00111 -0.00477
-0.02360 0.01044 -0.10284
-0.03514 0.01511 -0.05342
-0.03274 0.01515 -0.05217
0.00947 -0.01002 0.01335
0.04247 0.00542 0.04323
0.00894 -0.00605 0.04024
0.00537 -0.01068 0.00755
-0.03166 0.01319 -0.06839
-0.02517 -0.00065 -0.01414
0.12431 0.05131 0.18920
0.00904 -0.00964 0.01290
0.03410 -0.02349 0.05468
0.02765 0.00126 0.04972
-0.02174 -0.01882 -0.00961
0.04132 -0.00347 0.04178
0.03307 -0.02274 0.05483
-0.01345 0.00962 -0.01564
-0.00764 -0.01244 -0.00548
-0.02958 -0.02376 -0.00069
0.02794 -0.01497 0.05401
-0.02365 -0.01338 -0.00890
0.03958 -0.01256 0.04238
0.02450 -0.00552 0.02548
-0.00877 -0.01435 -0.00684
-0.01230 0.01023 -0.01475
-0.01524 0.00994 -0.01771
-0.01315 -0.01917 -0.01197
0.00822 -0.01010 0.00980
-0.01415 0.00475 -0.01488
-0.01389 0.01228 -0.01643
0.04303 0.01282 0.04266
0.03110 -0.00620 0.03204
0.02545 0.02776 0.02586
-0.00877 -0.01026 -0.00808
-0.02275 -0.02430 -0.00826
-0.01542 0.00618 -0.01612
-0.01512 -0.01071 -0.01493
-0.01035 -0.02779 -0.00511
-0.01229 -0.00180 -0.01236
-0.01537 0.01332 -0.01872
0.01258 -0.01155 0.01386
-0.02196 -0.03145 -0.00079
-0.01175 0.01054 -0.01419
-0.01704 -0.02831 -0.01345
-0.01209 -0.02361 -0.00798
-0.03559 0.00981 -0.06916
0.03343 0.02141 0.03309
0.03657 -0.02314 0.05174
-0.03281 0.00829 -0.03855
0.02516 -0.02002 0.05702
0.01975 0.00140 0.03674
-0.00783 0.01370 -0.01233
-0.03337 0.00913 -0.06374
-0.01470 -0.02253 -0.00214
-0.03527 -0.00044 -0.00970
-0.01800 -0.02931 -0.01119
-0.01506 -0.03001 -0.01699
-0.02895 -0.01187 0.10171
0.04114 -0.01740 0.05137
-0.04873 0.00911 -0.02720
0.02967 -0.01478 0.05198
-0.03213 0.01560 -0.03225
-0.03850 0.00081 -0.01532
0.02476 -0.01902 0.05677
-0.04332 0.00566 -0.00722
-0.04984 0.00575 0.01559
-0.06741 0.02425 0.07560
0.02477 -0.00745 0.02690
0.02672 -0.01265 0.05993
-0.01004 -0.02815 -0.00542
-0.01687 -0.02998 -0.01258
-0.04260 0.00385 -0.01795
0.03644 -0.02378 0.05386
-0.00288 -0.01133 -0.00075
-0.03252 -0.00411 -0.00176
-0.01766 -0.02966 -0.01249
0.04386 -0.01568 0.05256
0.01847 -0.01616 0.03628
0.01683 0.01201 -0.04075
-0.02402 -0.02376 -0.00679
0.04436 0.01835 0.07066
-0.03451 -0.00263 -0.00893
0.04244 -0.01499 0.04660
0.04246 -0.01499 0.04641
0.05132 0.00771 0.05311
0.02383 0.00268 0.05219
-0.03003 0.00110 -0.02757
-0.01217 -0.00253 -0.01193
0.00628 -0.00949 0.00160
0.04585 0.00893 0.04591
-0.04639 0.00393 0.01300
0.02625 -0.01375 0.05440
0.04483 0.01996 0.07073
0.03671 -0.02174 0.05262
-0.03603 -0.00555 0.00661
-0.03137 -0.00284 -0.00191
-0.02810 0.01610 -0.03326
0.00010 -0.00941 0.00155
0.07869 0.04421 0.15947
0.04603 0.01594 -0.00267
0.03330 -0.02132 0.05350
-0.02720 -0.00042 -0.02757
-0.00363 -0.01211 -0.00044
-0.03310 -0.00990 -0.00338
0.01175 -0.01015 -0.03626
-0.03583 -0.00224 0.01565
0.01423 -0.01168 0.01508
-0.02670 0.00243 -0.02718
-0.03062 -0.00070 -0.00729
-0.04145 0.00457 -0.01751
0.03026 -0.01409 0.06460
-0.03108 -0.00638 -0.00418
-0.02926 -0.00592 -0.00698
-0.06399 0.01404 0.04496
0.00679 -0.00944 0.01217
0.14356 0.03907 0.14238
-0.02856 0.00915 -0.00869
0.05819 0.01829 0.05780
0.05815 0.01825 0.05763
-0.02004 0.00546 -0.12512
0.02415 0.01804 0.04950
0.00847 -0.01051 0.01025
0.02441 0.00860 0.05125
-0.00563 0.03190 -0.02105
-0.02243 -0.02938 -0.00069
0.04559 0.00867 0.05060
-0.04134 0.00908 -0.04227
-0.02738 0.00187 -0.02730
-0.01757 -0.02997 -0.00556
-0.01080 -0.02874 -0.00383
-0.00247 0.01669 -0.01277
0.04845 0.01842 0.06075
0.04245 -0.01410 0.04728
0.01912 0.02425 0.01806
-0.02224 0.00709 -0.02661
-0.02341 0.00703 -0.01105
0.03098 -0.01544 0.04945
0.02055 -0.00872 0.02230
-0.03090 0.00859 -0.00576
0.04410 0.00165 0.04633
-0.00800 -0.00793 0.00866
0.04814 0.02005 0.06972
0.04649 -0.00658 0.04773
-0.03744 0.00455 -0.01859
0.06461 0.02380 0.06588
0.04935 0.00453 0.04803
-0.00093 0.03269 -0.02263
0.04593 0.00720 0.04577
0.01730 -0.00734 0.02527
-0.02263 0.00847 -0.02906
0.00032 0.02799 -0.02193
0.03750 -0.02223 0.04380
-0.00876 -0.01482 -0.00772
-0.02381 0.01893 -0.02327
-0.02952 0.01627 -0.00747
-0.00058 0.02882 0.02490
-0.02467 0.01444 -0.01294
0.15764 0.04435 0.17782
0.15101 0.04248 0.16282
0.04641 0.01965 0.07085
0.15146 0.04405 0.16171
-0.00516 0.01528 -0.01843
0.05213 0.01083 -0.08764
-0.00904 0.00864 -0.01127
-0.03930 0.00271 -0.01414
-0.00434 0.01566 -0.01750
0.04800 0.00255 0.05032
-0.00073 -0.01061 -0.01541
-0.02320 0.01879 -0.02602
0.00733 0.02636 0.01100
0.02830 0.03248 0.07331
-0.00032 -0.01018 0.00054
-0.03808 0.00251 -0.01456
-0.00885 -0.01760 -0.00815
-0.00243 0.01915 -0.01779
-0.03187 0.00541 -0.02726
0.10174 0.02033 0.08931
0.06845 0.02466 0.06056
-0.01623 0.00641 -0.12354
0.06883 0.03848 0.06803
0.03151 -0.01727 0.06457
0.06943 0.06589 0.44020
0.02432 0.00466 0.05150
0.04484 -0.01525 0.04181
0.04744 0.02096 0.04498
0.03960 0.01419 0.03805
-0.03669 -0.00014 -0.01168
0.04439 -0.01984 0.04998
-0.02956 -0.02705 0.00064
0.04437 -0.01989 0.05068
0.01841 0.03801 0.06053
-0.01201 -0.02390 -0.00859
-0.01061 -0.02821 -0.00539
-0.02479 -0.02353 -0.00617
-0.02354 -0.01246 -0.00938
0.04551 -0.01380 0.04878
-0.00753 0.01643 -0.02130
0.02836 0.02855 0.04056
0.04378 0.01744 0.06948
-0.03146 -0.00511 -0.00443
0.02493 0.02094 0.08161
0.02163 -0.00742 0.02510
0.05185 0.01191 0.04483
-0.01976 0.00583 -0.12505
-0.02612 0.00114 -0.02943
0.10376 0.03140 0.07443
0.00350 0.03150 0.00870
-0.02999 0.00160 -0.00350
0.07308 0.02523 0.08896
-0.01698 -0.01633 -0.01699
-0.00867 -0.01611 -0.00791
-0.01930 -0.00196 -0.01551
0.02449 0.01752 0.04912
-0.00919 0.00932 -0.13976
-0.01369 0.00937 -0.13720
-0.00243 -0.01115 -0.00078
