# .PCD v.7 - Point Cloud Data file format
VERSION .7
FIELDS x y z
SIZE 4 4 4
TYPE F F F
COUNT 1 1 1
WIDTH 1875
HEIGHT 1
VIEWPOINT 0 0 0 1 0 0 0
POINTS 1875
DATA ascii
-0.09999 0.13359 -0.21533
-0.04650 0.03713 -0.08647
-0.07366 0.07905 -0.08261
-0.10532 0.03541 -0.08562
0.00162 -0.07368 0.03538
-0.02452 0.08342 -0.17343
0.07778 0.12695 -0.19220
0.03687 0.04477 -0.11364
0.00197 0.10874 -0.07217
-0.00153 0.12469 -0.07823
0.08795 0.11956 -0.19696
0.04923 0.06089 -0.08227
0.06475 0.13030 -0.21023
0.09151 0.09288 -0.08846
0.00156 -0.06029 0.04144
-0.01388 0.04336 -0.11011
-0.06698 0.10676 -0.07729
0.09289 0.14358 -0.21769
-0.06690 0.11987 -0.08057
0.01581 0.10169 -0.11602
-0.06071 0.13184 -0.22381
0.04866 0.13064 -0.21054
-0.00818 0.08073 -0.08488
0.06159 -0.03816 0.17945
0.01939 0.08745 -0.11116
0.15885 -0.06085 0.19497
-0.01732 -0.15234 0.22420
-0.01326 0.07082 -0.09382
0.02162 0.07068 -0.10745
0.20398 -0.30384 0.27294
0.08697 0.04850 -0.07624
0.10735 0.08207 -0.02984
0.07503 0.07445 -0.08656
0.00757 0.02224 -0.00516
0.00927 -0.06713 0.03754
-0.12847 0.07759 0.04766
0.00532 0.04560 -0.07952
0.10687 0.06165 -0.01715
-0.05189 0.10519 -0.07754
-0.00452 0.09836 -0.07221
-0.01319 0.06169 -0.11536
0.05135 0.07172 -0.10835
-0.05018 0.09501 -0.08220
0.08178 0.00478 -0.05899
0.02173 0.11351 -0.18692
0.03366 0.03689 -0.03623
0.04281 0.11369 -0.07646
0.08546 0.13558 -0.20936
0.02610 0.08243 -0.11913
-0.07718 0.01581 -0.08055
0.04095 0.02395 -0.10704
0.00683 -0.03778 0.04881
0.05263 0.06465 -0.09016
0.06863 0.00638 -0.05563
0.08766 0.07785 -0.08717
-0.09575 0.10422 -0.09818
0.23376 -0.30975 0.27146
0.08062 0.05365 -0.07919
0.01132 -0.05531 0.05970
0.01191 0.01914 0.00065
0.02353 0.07760 -0.11735
-0.03550 0.02385 -0.09876
-0.18990 -0.30486 0.26088
0.04728 -0.25765 0.26740
0.04654 -0.27395 0.27148
-0.12831 -0.31023 0.27886
-0.13489 -0.25519 0.26269
0.05035 0.10928 -0.16508
-0.02166 -0.31399 0.27704
-0.04866 0.10669 -0.18621
0.10202 0.13789 -0.11509
0.15606 -0.31935 0.26350
-0.19381 -0.30225 0.26786
-0.08831 -0.27292 0.27025
0.14236 -0.31883 0.27243
-0.18534 -0.31582 0.26528
-0.20482 -0.30591 0.26396
-0.05264 0.11237 -0.19795
0.03635 0.12437 -0.10001
-0.02197 -0.31859 0.27538
-0.15503 -0.25610 0.26478
-0.09792 0.13981 -0.11684
-0.19684 -0.28593 0.27385
-0.11845 -0.17967 0.23311
0.13545 -0.31793 0.28885
-0.12151 -0.31407 0.27693
0.06442 0.12468 -0.15647
-0.03812 -0.31472 0.27913
-0.07323 0.05516 -0.07740
0.00265 0.05935 -0.05604
-0.19463 -0.31761 0.26418
-0.02819 -0.31404 0.27697
0.05683 -0.29855 0.27907
0.10007 -0.03223 0.17955
-0.11851 -0.17263 0.23080
-0.13599 -0.25052 0.26198
-0.25837 -0.31197 0.26657
0.11128 0.11674 -0.03597
-0.01585 -0.31409 0.27629
-0.26917 -0.31810 0.26358
-0.26492 -0.30949 0.25575
-0.17965 -0.31049 0.27853
0.14976 -0.32051 0.27068
0.10689 0.10403 -0.03270
-0.08526 -0.15131 0.22071
-0.02232 -0.32974 0.28581
0.05880 0.11118 -0.19234
0.16170 -0.28934 0.27789
-0.19938 -0.31060 0.26198
-0.26321 -0.29547 0.26059
-0.06968 -0.00642 0.02166
-0.06526 0.12269 -0.08026
0.05449 0.10524 -0.18066
-0.26548 -0.30164 0.26931
-0.18443 -0.00997 0.15057
-0.11160 -0.25579 0.26453
-0.18132 -0.31094 0.31121
-0.12261 -0.15850 0.22418
-0.12697 -0.31412 0.27714
-0.10558 0.13552 -0.12222
0.05701 0.12183 -0.07843
-0.08532 -0.14460 0.21902
0.05526 -0.31236 0.26737
0.11950 -0.25830 0.26894
-0.12322 -0.31090 0.28269
0.05602 -0.25863 0.27242
-0.26428 -0.31789 0.26050
-0.22265 -0.00087 0.14725
-0.12270 -0.16521 0.22622
0.11222 0.14577 -0.05850
-0.12827 -0.25628 0.26731
0.15276 -0.26886 0.27241
0.06095 0.11479 -0.19517
-0.14177 -0.25420 0.25868
0.11123 0.11987 -0.03525
0.11688 -0.27034 0.31282
0.03199 0.02057 -0.09536
-0.19819 -0.29858 0.26140
0.11035 0.10782 -0.03786
-0.10832 -0.16558 0.22676
-0.02724 0.01375 -0.11949
-0.14167 -0.31329 0.27384
-0.18235 -0.30837 0.28980
0.14134 -0.25038 0.27398
-0.02241 -0.33302 0.28196
-0.19319 -0.11606 0.19227
-0.20146 -0.28388 0.25961
-0.08062 0.12920 -0.20902
0.14739 -0.30175 0.29270
0.14151 -0.29439 0.28389
0.09782 0.12942 -0.10351
-0.00497 0.06074 -0.07266
0.05553 -0.28363 0.27718
-0.17033 -0.30492 0.28139
0.07043 0.06427 -0.08229
-0.09841 -0.15863 0.22423
-0.13552 -0.31214 0.26817
-0.09767 -0.16552 0.22701
-0.06561 0.11948 -0.19084
-0.01056 0.12489 -0.08010
-0.18592 -0.30481 0.27590
-0.11707 -0.16551 0.22683
0.10482 0.13484 -0.11858
-0.09677 -0.29993 0.27953
0.15608 -0.29205 0.26898
-0.01463 -0.31000 0.28073
0.04367 0.13532 -0.07996
0.06961 0.12847 -0.11289
-0.20880 -0.30140 0.27106
0.05878 -0.27616 0.27936
0.09530 -0.07832 0.19608
0.04229 0.11896 -0.07747
0.11350 -0.31604 0.28131
0.03624 -0.25631 0.26434
0.01679 0.02238 -0.04042
0.03761 0.02077 -0.10151
0.08951 0.11228 -0.08546
0.04130 0.09170 -0.07390
-0.10301 -0.17984 0.23306
-0.25370 -0.28729 0.27630
0.09968 0.12890 -0.08937
-0.03194 -0.30043 0.25666
0.02021 -0.01718 0.03794
-0.21943 -0.30714 0.27017
0.14500 -0.10118 0.21544
-0.18399 -0.25679 0.26772
-0.09236 0.00736 -0.06483
-0.18374 0.01571 0.14091
-0.11805 -0.11799 0.21129
-0.11258 -0.17425 0.23096
-0.00835 0.10677 -0.19072
0.00669 -0.01126 -0.01702
0.11910 0.10129 -0.03649
0.05830 0.12986 -0.08394
-0.19956 -0.01486 0.14864
-0.02347 0.01879 -0.10656
-0.15865 -0.30581 0.28089
-0.19381 -0.01532 0.14806
0.13093 -0.30695 0.28333
-0.09477 0.12930 -0.10979
-0.09155 -0.17988 0.23323
-0.11706 -0.15844 0.22437
-0.28591 -0.30753 0.26576
0.04551 0.12596 -0.08047
0.10886 0.14211 -0.05060
0.01979 0.01227 -0.00644
0.14271 -0.27428 0.27701
0.00682 -0.05700 0.04527
-0.01559 0.13097 -0.20877
-0.01160 -0.01136 0.00645
0.05000 0.06551 -0.20956
0.01500 0.07019 -0.09514
-0.07458 -0.00968 0.00709
0.04562 0.10732 -0.20648
-0.00292 -0.03860 0.03722
-0.08878 -0.27037 0.28334
-0.09621 -0.00368 -0.05769
-0.07865 -0.01347 -0.05717
-0.11230 -0.16559 0.22699
-0.07558 -0.16552 0.22727
-0.18417 -0.32866 0.26177
-0.01547 0.05865 -0.09035
-0.25658 -0.28342 0.25679
-0.09521 -0.25543 0.26196
-0.05105 -0.00898 0.04001
-0.04042 0.11214 -0.19700
-0.01263 0.08239 -0.08439
0.06666 -0.25649 0.26224
-0.19290 -0.23183 0.24256
0.10737 0.02534 -0.03566
-0.14977 -0.00042 0.16065
-0.01099 0.09059 -0.07731
-0.19006 -0.03204 0.15951
-0.00734 0.02476 -0.02001
-0.07833 -0.16037 0.22535
-0.00953 0.11518 -0.20048
0.07389 0.12930 -0.10429
-0.11229 0.05835 -0.01300
0.05100 -0.30752 0.28309
0.06804 0.11996 -0.18690
0.04182 -0.25668 0.26522
-0.04806 0.12593 -0.10373
0.00116 -0.04020 0.04106
0.08379 0.08485 -0.09200
0.02044 0.10336 -0.12734
0.13766 -0.31949 0.27371
0.02902 -0.25644 0.26579
0.03502 0.12065 -0.07786
-0.21259 -0.31636 0.25812
0.08241 -0.00986 -0.02846
0.10760 -0.31512 0.27644
0.10559 0.11712 -0.03450
-0.15777 -0.29032 0.26931
0.04309 0.04940 -0.09974
0.04357 0.06055 -0.10805
-0.08943 -0.18872 0.23661
-0.07036 0.11410 -0.22545
-0.08848 -0.17439 0.23102
0.13473 -0.30056 0.27529
0.11671 0.10947 -0.03106
-0.00448 -0.02954 0.04081
-0.20377 -0.31062 0.26247
-0.09455 -0.19388 0.23894
0.08503 -0.00790 -0.05086
-0.21481 -0.28528 0.26690
-0.08139 -0.16563 0.22912
0.10981 0.10321 -0.04135
-0.10400 -0.25561 0.26264
-0.23072 -0.28609 0.27050
0.14390 -0.26676 0.30188
0.06560 -0.02145 -0.06525
-0.08653 -0.17983 0.23378
0.03767 0.02414 -0.10724
0.04264 0.10518 -0.07049
0.07662 0.11591 -0.10296
0.12338 -0.31636 0.32281
-0.11783 -0.18663 0.23620
-0.10125 -0.31461 0.27988
-0.19638 -0.14690 0.20926
-0.07031 0.06242 -0.08033
-0.10668 -0.18737 0.23667
0.08109 -0.00497 -0.05461
0.03878 0.07309 -0.09654
0.05431 -0.16747 0.23259
-0.02739 0.10690 -0.17393
0.11392 0.13232 -0.20600
0.08781 0.14883 -0.21001
0.04782 0.11448 -0.17998
0.08848 0.09914 -0.10049
-0.20486 0.02519 0.13740
-0.11218 -0.15849 0.22447
-0.06983 0.07233 -0.08451
0.05476 0.00297 -0.00951
-0.00471 0.04051 -0.03712
-0.06262 0.00727 -0.03504
-0.06379 0.14147 -0.22169
0.08638 0.12665 -0.11470
-0.13246 -0.25838 0.25553
-0.17404 0.16847 0.06079
-0.07488 -0.15879 0.22450
0.05402 -0.26039 0.25674
0.02244 0.06306 -0.38034
0.10710 0.11662 -0.19594
0.03733 0.01245 0.03321
-0.00677 0.04005 -0.11114
0.07312 0.11735 -0.09939
-0.06487 -0.19434 0.24031
-0.16523 0.03576 0.18226
-0.04577 0.05297 -0.09401
0.10729 0.08741 -0.02678
-0.15601 0.17443 0.07375
0.09460 0.04577 -0.06733
0.05823 0.10720 -0.18931
-0.11245 -0.18691 0.23635
0.11415 0.12011 -0.03762
-0.02531 0.11249 -0.19518
-0.00886 0.00379 0.00274
0.11537 0.09916 -0.03920
0.11618 0.08898 -0.03424
-0.01369 0.07119 -0.11271
0.07540 0.08120 -0.08785
-0.02202 0.02734 -0.09661
0.02956 -0.16614 0.22912
-0.09240 0.06002 -0.08681
-0.07792 -0.00669 -0.05966
-0.10969 -0.19290 0.23826
-0.03471 0.08736 -0.12832
-0.10698 -0.17312 0.22962
0.04541 0.03415 -0.08765
-0.00977 -0.00587 0.01530
0.10047 0.04851 -0.02469
-0.10869 0.11889 -0.18477
0.04472 0.11646 -0.19078
-0.01086 0.03348 -0.10534
0.12116 -0.29504 0.28515
-0.01715 -0.14572 0.22163
0.04162 0.12057 -0.08214
0.05412 -0.01158 -0.04435
-0.21093 0.02464 0.13426
0.04734 0.07513 -0.11420
-0.19417 0.02493 0.13639
0.09057 0.04537 -0.07180
0.00288 0.03842 -0.02292
-0.18837 0.00239 0.14429
0.09524 0.14018 -0.09354
-0.02936 0.10763 -0.19177
0.09350 0.10790 -0.09257
-0.18070 0.11050 0.10140
0.01740 0.03024 -0.06112
-0.11526 -0.19361 0.23897
0.07730 0.12888 -0.10705
0.09696 -0.19127 0.23295
-0.18417 0.01179 0.14370
0.07482 0.07141 -0.08514
-0.02031 0.12108 -0.17545
0.01753 -0.00398 0.00266
0.07137 0.13650 -0.21242
-0.07327 0.06519 -0.08052
0.05559 0.10645 -0.18631
-0.05367 -0.18011 0.23401
0.07420 0.13826 -0.10587
-0.18762 0.02840 0.13478
-0.01038 0.02614 -0.02405
-0.02184 -0.20367 0.24256
-0.16344 0.00375 0.15288
0.09762 0.12161 -0.09903
0.11233 0.09459 -0.04277
-0.08970 -0.01113 -0.06266
0.06599 0.13202 -0.14298
-0.03408 0.11416 -0.20681
-0.00804 0.10823 -0.19527
-0.06920 0.07416 -0.07260
-0.13114 -0.27336 0.27272
0.00096 -0.02103 0.03942
-0.22530 -0.11474 0.19088
-0.07362 0.07310 -0.08273
0.05117 0.05491 -0.17961
-0.24490 -0.28466 0.26245
-0.01590 0.02895 -0.01959
0.08623 -0.00929 -0.03346
0.08658 0.03413 -0.06796
0.01823 0.01511 -0.02010
0.09820 -0.16222 0.27021
0.00902 -0.17940 0.23475
-0.24494 0.00012 0.15470
-0.16418 -0.00994 0.11977
0.05718 0.13097 -0.20910
0.05124 0.03889 -0.02587
-0.00927 0.03348 -0.08635
-0.08584 0.12099 -0.20501
-0.23740 -0.28606 0.26790
0.02257 0.09957 -0.12306
0.00184 -0.05876 0.03861
-0.01021 -0.02208 0.03571
-0.07444 -0.01305 -0.04688
-0.00414 0.08119 -0.08003
-0.03960 -0.00984 0.04085
-0.18487 -0.26358 0.26977
-0.09408 0.11261 -0.12383
0.06404 -0.28454 0.27460
-0.07132 0.03517 -0.06878
0.06540 0.07272 -0.09354
-0.02898 -0.20866 0.24625
-0.10280 0.12360 -0.20852
-0.09080 0.06590 -0.09079
-0.08188 -0.15885 0.22481
-0.02637 0.09967 -0.16642
-0.05949 0.09400 -0.07428
-0.09841 -0.17323 0.23034
-0.00522 0.07438 -0.08313
-0.13122 -0.25115 0.26450
0.10987 0.03836 -0.02326
-0.27097 -0.30881 0.25478
-0.19138 -0.20892 0.23565
-0.13204 -0.14078 0.21531
-0.07333 0.05786 -0.07873
-0.18861 -0.17218 0.21116
-0.10076 0.13113 -0.11749
-0.13344 -0.17454 0.23120
-0.12815 -0.02119 0.16939
-0.18496 -0.17049 0.22765
-0.18580 -0.21039 0.21046
-0.25319 -0.29621 0.24955
-0.18955 -0.14579 0.20548
-0.18730 -0.02698 0.16726
-0.13545 -0.20307 0.25305
-0.19116 -0.18161 0.22430
-0.15536 0.16137 -0.05142
-0.13246 -0.15659 0.22261
-0.07890 -0.15157 0.22103
-0.17844 -0.27737 0.22046
-0.15024 -0.28519 0.21538
-0.17396 -0.29303 0.27982
-0.12964 -0.29500 0.30647
-0.12943 -0.05079 0.18282
-0.27426 -0.30163 0.25414
-0.16747 -0.26970 0.27580
-0.12979 -0.14600 0.20561
-0.12569 -0.01546 0.15493
-0.18971 -0.15210 0.20909
-0.15475 -0.26718 0.26720
-0.12078 -0.30704 0.28257
0.10975 -0.09939 0.20570
0.05981 0.06906 -0.08872
-0.09900 -0.19395 0.23899
-0.02239 0.11046 -0.19301
-0.15221 -0.31236 0.26986
-0.19047 -0.13930 0.20985
-0.09210 -0.16541 0.22740
-0.11531 -0.21710 0.24176
-0.18024 -0.29583 0.28236
-0.08580 -0.04223 0.17978
-0.09496 -0.16032 0.22499
-0.12085 -0.27275 0.26503
-0.19097 -0.18659 0.22393
-0.18983 -0.27096 0.27199
-0.19322 -0.11492 0.17650
0.02317 0.11263 -0.18993
-0.18881 -0.25993 0.25953
-0.19674 -0.16571 0.21592
0.04710 -0.26270 0.26895
0.15310 -0.28269 0.27978
-0.10324 0.13758 -0.12810
0.15666 -0.08275 0.19038
-0.17424 -0.25583 0.26243
0.04483 -0.30713 0.26699
-0.09120 -0.31306 0.30386
0.00114 0.10054 -0.20568
-0.01421 0.08887 -0.09024
0.08681 -0.31278 0.28454
-0.01230 -0.02460 0.04445
-0.18709 -0.29581 0.28050
0.15181 -0.08187 0.20127
-0.18666 -0.28770 0.25517
-0.19453 -0.29187 0.26762
-0.08931 -0.30182 0.29109
-0.19058 -0.16290 0.21927
-0.18450 -0.30996 0.27892
0.01628 -0.30561 0.28168
-0.07128 0.05522 -0.07587
0.12711 -0.10114 0.20353
-0.09736 -0.27484 0.28003
0.09525 -0.25366 0.26598
-0.14122 -0.00297 0.12792
0.09752 0.09632 -0.06328
0.04580 -0.30392 0.27487
0.15841 -0.07889 0.21288
-0.13362 -0.30866 0.27461
-0.18851 -0.30089 0.27447
-0.09407 -0.31021 0.28182
0.03964 -0.27477 0.27400
0.14133 -0.31359 0.28863
0.09706 -0.20348 0.24932
0.09437 0.05244 -0.07295
0.09628 -0.22097 0.24674
-0.17506 -0.31099 0.28186
-0.05883 0.11796 -0.14147
0.09145 0.05529 -0.07319
-0.16736 -0.25525 0.26116
-0.11131 -0.31369 0.27453
-0.18621 -0.17898 0.22069
0.06341 -0.18159 0.23723
-0.14971 -0.25486 0.26236
0.14082 -0.10044 0.20373
0.11454 0.11660 -0.03648
0.08537 -0.27401 0.27014
-0.15500 -0.30257 0.28638
-0.00491 0.06389 -0.07424
0.15171 -0.29309 0.28274
0.01908 -0.13866 -0.64178
0.14515 -0.20681 0.24102
-0.16680 -0.00068 0.16971
-0.08592 -0.25925 0.25623
-0.14275 -0.30603 0.27844
-0.08378 -0.30963 0.27840
0.04144 0.12816 -0.09634
0.10102 0.10239 -0.04095
0.10654 -0.30978 0.29472
0.06962 -0.30537 0.27934
0.09881 0.06535 -0.04260
-0.18327 -0.21066 0.24001
-0.16562 -0.01350 0.16537
-0.10008 0.13655 -0.12734
-0.18679 -0.30918 0.25713
0.03493 -0.15112 -0.60526
-0.17276 -0.28652 0.26508
-0.06341 -0.20117 0.24262
-0.17370 -0.25178 0.26204
-0.20163 -0.31883 0.36041
-0.00437 0.08467 -0.08504
0.03511 -0.31167 0.28545
-0.08405 -0.17425 0.23106
-0.19281 0.01598 0.27401
0.04885 -0.31311 0.27022
0.15775 -0.09678 0.20871
0.09972 0.06738 -0.05171
0.10096 0.08476 -0.03102
-0.02543 -0.30724 0.26537
-0.06864 0.06883 -0.07339
-0.16286 -0.25629 0.21503
-0.05612 0.05598 -0.06274
-0.07833 -0.17288 0.23064
-0.00262 0.06039 -0.06773
0.01571 0.05687 -0.09774
-0.06908 0.06421 -0.07035
0.00546 0.11214 -0.19372
0.10605 -0.25823 0.27010
-0.05415 -0.20307 0.24340
-0.12858 -0.06174 0.18002
0.02078 -0.01890 0.04491
0.15670 -0.12451 0.21572
-0.06596 -0.30443 0.27823
-0.18494 -0.01770 0.15384
0.10002 0.06027 -0.03275
0.02282 -0.13936 -0.63542
-0.10444 0.14211 -0.14078
0.09568 0.07637 -0.08075
-0.08297 -0.30413 0.27814
0.08102 0.11545 -0.10316
0.02853 0.01959 -0.10705
0.07460 -0.30873 0.28757
0.09764 0.10561 -0.03623
-0.01565 0.09811 -0.19556
0.05571 -0.29273 0.27801
0.11319 0.10649 -0.03492
-0.15004 -0.24777 0.24637
-0.19172 -0.01590 0.15643
0.09776 0.11587 -0.07767
0.10118 0.12573 -0.09563
0.06781 -0.00648 -0.06337
0.02678 -0.27851 0.10367
-0.01280 0.10337 -0.07556
0.09927 0.10154 -0.02484
-0.05637 -0.25455 0.25589
0.09549 0.06850 -0.07547
-0.13023 -0.08246 0.19477
0.10022 -0.09738 0.20699
0.09800 0.10949 -0.05904
-0.07036 0.05886 -0.07962
0.00001 0.07844 -0.07565
0.07105 0.11819 -0.09702
-0.14579 -0.20966 0.24085
0.00065 0.11238 -0.07133
-0.05950 -0.18000 0.23370
-0.18373 -0.21703 0.23954
0.14893 -0.09525 0.19968
-0.20694 -0.28349 0.25588
0.02791 -0.01790 0.05047
0.08746 0.06578 -0.08072
0.07866 0.07839 -0.08790
-0.13009 -0.09177 0.19618
0.09342 0.11381 -0.09724
0.01175 0.04757 -0.12493
0.15669 -0.13536 0.22219
0.08894 -0.03891 0.17593
0.03649 -0.31523 0.28019
-0.05262 0.10332 -0.18825
0.12405 -0.10488 0.20069
-0.03090 -0.19443 0.24067
0.03155 -0.27270 0.26427
0.10066 0.10439 -0.04171
-0.19184 0.01976 0.13296
0.00861 0.12612 -0.09208
-0.09643 0.05231 -0.07931
0.06841 -0.17532 0.23532
-0.13106 -0.11616 0.20568
0.13030 -0.28229 0.28005
-0.05527 0.10106 -0.07782
0.09015 -0.25221 0.26255
0.06320 0.11749 -0.20070
0.08265 -0.03470 0.19345
-0.16712 -0.31070 0.28111
0.01714 -0.31398 0.27512
0.07870 -0.31518 0.27782
-0.00113 -0.25130 0.22292
-0.09363 0.13625 -0.12351
-0.07145 -0.31328 0.27451
0.08426 0.09550 -0.09529
0.07465 0.07815 -0.08824
0.10080 0.11716 0.00204
-0.15840 -0.30978 0.27703
0.08684 0.05062 -0.07680
0.10711 0.09526 -0.02561
0.12402 -0.30402 0.27913
-0.20297 -0.30021 0.26867
0.00258 -0.03087 0.04311
0.05322 0.04866 -0.07880
0.15613 -0.12027 0.21126
-0.21069 -0.30590 0.26538
-0.15749 -0.00201 0.16628
-0.20004 -0.29189 0.26732
0.01237 0.09121 -0.08640
-0.07370 -0.17683 0.23235
0.09737 0.11274 -0.07565
-0.04825 -0.25742 0.27500
0.13266 -0.09710 0.20451
0.08997 -0.30587 0.27542
0.04656 -0.15342 0.22626
-0.05103 -0.23140 0.08487
-0.09317 -0.30373 0.27363
-0.06862 -0.19403 0.23948
-0.19762 0.01012 0.15916
0.07703 -0.00468 -0.05598
-0.18307 0.05410 0.12639
0.09542 -0.06168 0.19971
0.15527 -0.17750 0.23964
0.01180 0.05201 -0.08358
-0.11815 -0.01760 0.16321
0.09675 -0.03706 0.18123
0.00063 -0.20869 0.24721
0.15046 -0.07646 0.19866
-0.16732 -0.02292 0.17277
-0.08928 0.12298 -0.20576
-0.06875 -0.18693 0.23662
-0.06397 0.14856 -0.22069
0.09669 -0.02908 0.17423
0.09567 -0.23707 0.25332
0.12921 -0.10537 0.20143
0.15016 -0.10543 0.20318
0.10770 -0.31297 0.28613
-0.00328 0.11521 -0.19930
0.01687 0.04767 -0.09663
0.09228 -0.31589 0.28049
0.09036 0.11558 -0.10229
-0.17209 -0.21440 0.24471
-0.07591 0.04769 -0.07557
0.13694 -0.10711 0.20777
0.04555 0.03508 -0.01105
0.06473 0.09030 -0.07594
-0.07331 0.06998 -0.08213
-0.18516 -0.02379 0.15811
-0.06726 -0.00123 -0.02971
0.00229 0.10906 -0.19184
0.10964 0.14583 -0.05426
-0.17843 0.16830 0.07867
-0.05815 0.06847 -0.09051
0.08467 -0.30933 0.29966
-0.11898 -0.15492 0.21882
0.14447 -0.10450 0.19961
0.02742 0.11747 -0.13761
-0.07907 0.04488 -0.07779
0.11331 0.14645 -0.04462
-0.15743 -0.31203 0.26881
0.09152 -0.03327 0.18681
-0.09445 0.11277 -0.11048
-0.14365 -0.25948 0.25892
0.03859 0.06635 -0.10637
0.09462 0.00422 -0.02084
0.16093 -0.20539 0.23652
-0.09696 0.06503 -0.08172
0.08729 0.06992 -0.08391
0.10162 0.13046 -0.06348
-0.19491 -0.24876 0.25783
0.00981 0.03210 -0.01455
-0.06778 0.10872 -0.10472
0.08042 0.10848 -0.10265
-0.06163 0.02600 -0.04113
-0.11485 0.04958 -0.01519
0.09448 -0.26258 0.27063
0.05160 0.07372 -0.16878
0.07949 0.00131 -0.05770
-0.09906 0.13143 -0.12538
0.09391 0.12350 -0.09762
-0.07018 0.04251 -0.08086
-0.06427 -0.25755 0.28017
-0.00645 -0.20897 0.24716
-0.07294 0.12557 -0.11294
0.09825 0.11521 -0.05037
-0.15077 -0.22690 0.26664
-0.06845 0.11815 -0.10348
0.09370 0.00044 -0.02827
-0.18008 -0.25062 0.25782
-0.07204 0.00069 -0.03764
0.11218 0.13168 -0.03226
0.02493 0.10943 -0.18991
-0.10041 -0.27432 0.27601
0.11654 0.11280 -0.03450
-0.01503 0.12882 -0.20693
0.16353 -0.06797 0.26966
0.10665 0.06940 -0.02708
0.04977 -0.17483 0.23410
0.10145 0.13409 -0.11491
-0.13444 -0.30469 0.30679
0.06882 0.12917 -0.14540
-0.09266 0.13387 -0.12068
-0.14803 -0.02804 0.17902
0.10107 -0.02831 0.17376
0.11229 0.13638 -0.04490
0.04574 0.13057 -0.21137
-0.00848 0.09425 -0.07368
-0.00996 0.09427 -0.19574
0.01819 0.11565 -0.19605
0.23190 -0.30181 0.27610
-0.07304 -0.19041 0.23655
-0.08475 -0.28554 0.29113
-0.09520 0.13119 -0.20572
-0.16751 -0.05555 0.18527
-0.00914 -0.18169 -0.03107
0.11051 -0.25388 0.26803
-0.01029 -0.31497 0.27799
0.03359 0.07035 -0.10564
-0.14621 -0.31239 0.26905
0.04119 0.02691 -0.10794
-0.07784 0.06582 -0.08719
-0.04423 -0.18713 0.23581
0.07535 0.06135 -0.07829
0.09112 0.08286 -0.08778
0.07635 0.10946 -0.09939
-0.08608 0.09810 -0.10246
-0.08171 -0.27239 0.26542
0.08199 -0.01262 -0.03159
0.10170 -0.31111 0.27742
-0.06441 -0.00009 0.00704
0.10337 0.07768 -0.02675
-0.00971 -0.25836 0.27576
0.11217 0.08957 -0.03880
-0.07040 0.00716 -0.03594
-0.08800 -0.00630 -0.06287
0.08877 -0.16790 0.23240
0.15895 -0.00931 0.16828
-0.07606 0.00783 -0.06098
-0.08598 0.12738 -0.20898
-0.06241 0.09111 -0.07813
0.07706 -0.00965 -0.05732
-0.01102 0.09459 -0.13973
-0.07206 0.00180 -0.05765
-0.09850 0.11597 -0.20758
0.00527 0.07632 -0.07149
0.11115 0.13320 -0.20527
-0.04068 -0.25673 0.26865
0.01442 0.07626 -0.09380
0.04176 0.08815 -0.07289
0.08577 -0.00457 -0.05151
0.10286 -0.01381 0.17748
0.14614 0.12163 0.12266
-0.06367 0.09634 -0.07587
-0.06640 0.10965 -0.07773
0.06054 0.07423 -0.09356
0.03814 0.08682 -0.06931
0.09321 0.12812 -0.19649
-0.02755 0.07894 -0.14968
0.00884 0.11658 -0.10558
-0.09040 -0.29023 0.29518
0.09857 0.13954 -0.11187
0.02064 0.02894 -0.04358
0.05346 -0.29762 0.23122
0.14488 -0.24929 0.26113
0.01192 -0.16517 -0.51957
-0.04426 -0.20421 0.26743
0.05652 -0.20968 -0.26798
0.14602 -0.31253 0.26558
0.02286 -0.14207 -0.63065
-0.05268 0.01567 0.02453
-0.04803 0.11193 -0.17808
-0.15101 0.00782 0.18685
0.11326 -0.25063 0.24068
0.02272 -0.14280 -0.63362
0.01214 -0.31535 0.28072
-0.05850 0.05950 -0.03870
-0.12728 -0.01718 0.16303
0.21963 -0.29871 0.26285
0.15404 -0.21778 0.25158
0.14009 -0.25889 0.26808
0.08109 -0.18877 0.24072
0.07682 -0.03623 0.18643
0.17167 -0.32117 0.27423
-0.10623 -0.17854 0.23255
-0.18886 -0.25618 0.26346
-0.19399 -0.17294 0.21286
0.07006 -0.03669 0.21069
0.06314 0.11836 -0.14814
-0.11300 -0.26920 0.33189
-0.11784 -0.17599 0.23033
-0.19596 -0.02640 0.18168
0.03930 -0.29000 0.26736
-0.20949 -0.29870 0.22182
0.07901 -0.29335 0.27673
-0.21237 -0.29700 0.21169
-0.06456 0.00102 -0.02917
0.09959 -0.09000 0.19786
-0.17743 -0.00961 0.16417
0.03866 -0.30770 0.28599
-0.04117 -0.08428 0.19651
-0.01646 -0.32142 0.27751
-0.08286 -0.31317 0.27384
-0.13422 -0.20851 0.24380
-0.14050 -0.24941 0.25744
-0.10611 -0.29184 0.27620
-0.19501 -0.03222 0.15449
-0.20296 -0.11547 0.19782
0.02492 0.10739 -0.18926
0.16147 -0.14978 0.21781
0.05124 -0.27404 0.27003
-0.07664 -0.31409 0.27814
-0.05488 0.11975 -0.20671
0.07775 -0.25882 0.27373
0.09966 -0.10583 0.20721
0.10190 -0.02318 0.17798
-0.18535 -0.29282 0.28997
0.07133 -0.30669 0.33416
-0.11631 -0.31059 0.28144
0.00631 0.11556 -0.19698
-0.08382 -0.30863 0.24635
-0.09807 -0.30290 0.26391
-0.19667 -0.15882 0.21397
-0.15864 -0.25404 0.25529
-0.18334 -0.31291 0.27264
0.06830 -0.19561 0.24434
-0.10857 -0.27004 0.24832
-0.12407 -0.01497 -0.17955
-0.02270 0.10754 -0.19325
0.11705 -0.09763 0.19905
0.06144 -0.19388 0.24278
0.10054 -0.01889 0.03077
0.03352 -0.30587 0.28097
0.02613 -0.30739 0.28762
0.03644 -0.26924 0.26400
-0.12762 -0.00904 0.16383
-0.06364 0.15192 -0.22300
0.18131 -0.31393 0.27018
-0.13516 -0.24495 0.25672
0.05520 -0.31471 0.27644
-0.11277 -0.16229 0.22557
0.06309 -0.05171 0.18537
0.09901 -0.06860 0.17771
-0.00620 -0.20213 0.24379
-0.15247 -0.30103 0.33647
-0.09398 -0.29295 0.28609
-0.00079 -0.23693 -0.14445
-0.13151 -0.26367 0.23324
-0.07844 -0.27363 0.27241
-0.11916 -0.23933 0.26062
-0.19274 -0.26832 0.25064
-0.09834 -0.28866 0.26138
-0.19652 -0.15904 0.23866
0.15156 -0.27069 0.26438
0.16035 -0.10291 0.19812
0.05389 0.10043 -0.06963
0.06579 -0.27491 0.27498
0.08800 -0.06194 0.19431
0.10482 -0.27585 0.27958
-0.08301 -0.29268 0.28252
-0.02145 0.10054 -0.19725
0.01128 0.06062 -0.07045
-0.16407 -0.28960 0.26264
-0.03274 0.09732 -0.12837
-0.03199 -0.25703 0.27244
-0.18849 -0.12076 0.19404
0.15156 -0.33612 0.28769
0.06892 -0.27489 0.27298
-0.00317 -0.31418 0.27603
-0.17385 -0.26056 0.26304
-0.14089 -0.23218 0.27552
0.16132 0.04240 0.15056
-0.00104 0.12953 -0.08378
-0.20952 -0.30643 0.23889
0.09413 -0.12436 0.21041
-0.12919 -0.03907 0.17880
-0.18083 0.10683 0.10346
-0.11638 -0.27438 0.28035
0.05065 -0.28898 0.28015
-0.19823 0.02591 0.14313
0.11507 -0.09976 0.20526
-0.07349 0.05217 -0.07804
-0.18206 0.05769 0.12149
-0.10057 -0.17630 0.23157
0.18102 -0.31163 0.28306
0.12571 -0.26727 0.27522
0.04079 -0.29921 0.28816
-0.10481 -0.26833 0.26326
0.02428 -0.25515 0.25524
0.09822 -0.15333 0.22495
-0.16282 -0.30421 0.27874
0.19879 -0.32240 0.27962
0.15828 -0.16483 0.25453
0.12102 -0.28116 0.34422
0.02948 -0.29650 0.25956
0.10137 0.12382 -0.20137
0.09928 -0.11555 0.21009
-0.18628 -0.04943 0.16843
-0.04528 0.08395 -0.08862
-0.04463 -0.17320 0.23188
0.05279 -0.26979 0.26721
-0.07777 -0.30812 0.27084
0.15545 -0.30008 0.27823
0.01525 0.10972 -0.19153
-0.13123 -0.30411 0.27759
-0.19212 -0.05887 0.16785
-0.19053 -0.27915 0.27293
0.16069 0.03838 0.15153
0.03492 -0.30951 0.21279
-0.16895 -0.31730 0.26785
0.16654 -0.25590 0.23248
0.10265 0.00312 0.17187
-0.07310 -0.17285 0.23077
-0.07477 -0.00748 -0.04358
0.05168 -0.27815 0.27196
-0.18266 0.08750 0.11752
-0.13936 -0.26006 0.26809
0.05206 -0.11357 0.02197
-0.12840 -0.04535 0.17730
-0.18549 -0.03781 0.16162
-0.05921 -0.20126 0.24293
-0.08554 -0.14908 0.21966
-0.09998 -0.31004 0.27992
-0.18504 -0.27599 0.28041
-0.02150 -0.19455 0.24058
-0.17861 -0.30301 0.29696
0.10782 -0.27521 0.27294
0.09719 -0.16257 0.22461
0.06517 0.06943 -0.09047
0.07127 0.13256 -0.20983
0.18622 -0.30932 0.26905
0.00468 -0.18779 0.23907
0.00647 -0.31715 0.29196
-0.06886 0.12457 -0.10022
0.15655 -0.13331 0.22124
-0.03135 -0.31166 0.28590
-0.02732 -0.31766 0.27359
-0.13603 -0.26458 0.23410
0.18358 -0.32201 0.27730
-0.19641 -0.21123 0.23418
-0.07301 -0.17998 0.23345
0.09859 -0.25921 0.24884
-0.05176 -0.16352 0.22697
-0.14753 -0.30125 0.28091
-0.18801 -0.01081 0.14316
0.15982 0.16523 0.10247
-0.19829 -0.16992 0.20752
0.08736 -0.05049 0.18963
-0.18058 -0.21875 0.25135
0.18789 -0.30741 0.28386
-0.05424 -0.19415 0.24045
-0.20342 -0.31773 0.26516
-0.02663 -0.30750 0.28670
0.09789 0.15139 -0.21502
0.10096 -0.05754 0.19243
0.09941 -0.08609 0.19758
0.10692 0.09639 -0.03154
0.04064 -0.26095 0.26703
-0.04953 -0.31385 0.27514
0.04439 -0.16729 0.23269
-0.18169 0.08201 0.11304
0.11433 -0.11161 0.19385
-0.00384 -0.31154 0.28441
0.18770 -0.31256 0.25931
-0.18896 -0.07886 0.14512
-0.07219 0.00594 -0.05791
0.13967 -0.25644 0.28152
0.01145 -0.30662 0.28196
0.09527 0.14981 -0.21189
-0.12872 -0.29991 0.29831
-0.17230 -0.00636 0.12661
0.03975 -0.30140 0.26958
0.02885 -0.01144 0.03660
0.12956 -0.30219 0.28973
0.13210 -0.31903 0.27055
-0.12250 -0.07677 0.19690
0.00249 0.07788 -0.07290
-0.03391 -0.20514 0.24436
0.15820 -0.28397 0.28101
0.15480 -0.22291 0.26114
0.04943 -0.19211 0.24172
0.01184 -0.15322 0.22704
0.14263 -0.33579 0.28731
-0.11282 -0.15410 0.20487
-0.09802 -0.26960 0.27213
0.09811 0.00492 -0.01392
0.16007 0.02049 0.15568
-0.17498 -0.32739 0.27813
-0.18980 -0.25134 0.25983
-0.14761 -0.30720 0.28349
-0.17866 -0.31829 0.27135
0.10662 0.09884 -0.03464
0.11290 0.13276 -0.03956
-0.21124 -0.29177 0.25951
0.01783 0.11625 -0.12307
-0.20660 -0.30861 0.25103
0.02583 0.10670 -0.12598
-0.10311 -0.17279 0.23095
-0.16250 -0.30492 0.31246
0.02977 -0.31072 0.25426
-0.18998 -0.14045 0.20810
-0.01393 -0.24433 0.16836
-0.12792 -0.00340 0.16672
-0.06719 0.00533 -0.03501
-0.12280 -0.21542 0.59187
0.07069 0.11842 -0.19859
0.17973 -0.30894 0.29505
-0.03320 -0.20846 0.24556
-0.05921 -0.20819 0.24517
-0.19382 -0.31051 0.26094
0.04695 0.13192 -0.09088
-0.00514 0.10579 -0.18371
0.03389 0.11507 -0.14844
-0.06760 0.13084 -0.11323
0.08997 0.12869 -0.10750
0.00126 0.10435 -0.17575
-0.10462 0.13497 -0.14426
0.04672 0.12909 -0.09050
-0.14620 0.00809 0.16608
0.03088 0.11326 -0.15510
-0.00269 0.10120 -0.17527
0.07119 0.12183 -0.09799
0.01223 0.11688 -0.11477
0.09204 0.14123 -0.10528
-0.02025 0.09669 -0.20427
0.07323 0.11110 -0.09410
-0.03017 0.11014 -0.19287
-0.00049 -0.01402 0.02381
0.01712 0.10730 -0.11632
0.00483 0.11393 -0.08437
-0.02606 0.11499 -0.20266
-0.16420 0.02903 0.14779
-0.00277 0.08647 -0.09201
0.07184 0.11854 -0.18184
-0.08067 0.13058 -0.11716
0.00632 -0.02667 0.04187
0.00443 -0.02944 0.04352
0.05307 0.11027 -0.07797
-0.06186 0.12516 -0.15956
-0.08849 0.00694 -0.06470
-0.11462 0.05891 0.00273
-0.07446 0.05853 -0.08709
0.11788 0.16049 -0.03230
0.08195 0.12563 -0.10780
0.09987 0.10917 -0.09714
0.07365 0.13162 -0.11728
0.11630 0.15057 0.01705
0.10355 0.13707 -0.12942
-0.08603 0.11546 -0.10872
0.06435 0.13536 -0.09839
0.03499 0.11879 -0.07483
-0.06950 0.13933 -0.12131
-0.02205 -0.01790 0.05291
0.00887 0.10498 -0.11828
0.10181 0.10888 -0.04580
0.04152 0.09541 -0.12607
0.09785 0.12703 -0.10169
0.08047 0.11844 -0.10699
-0.04605 0.09479 -0.07581
-0.18412 0.00600 0.14525
0.02030 0.10747 -0.19021
-0.06196 0.10441 -0.07562
0.11237 0.14088 -0.04534
0.09738 0.13553 -0.11574
-0.10659 -0.19388 0.23895
0.07121 0.12410 -0.10069
0.05479 0.05398 -0.05711
0.08953 -0.00308 -0.05015
-0.09921 -0.17943 0.23289
0.06732 0.12660 -0.20348
-0.00304 0.11273 -0.19203
-0.01676 0.10840 -0.18657
-0.17903 0.16806 0.07902
-0.11642 -0.16209 0.22474
0.06497 0.12260 -0.19611
0.11381 0.14038 -0.08939
-0.05761 0.11901 -0.20677
0.09642 -0.03280 0.18325
-0.04228 0.08249 -0.09380
-0.08865 0.12678 -0.11562
-0.07129 0.05800 -0.07230
0.08091 0.11714 -0.18708
-0.06810 0.12933 -0.10936
0.06767 0.11974 -0.19749
-0.06936 -0.19064 0.23794
0.06420 0.08239 -0.08251
0.07737 0.00478 -0.05885
-0.13540 0.00045 0.18656
0.03762 0.03876 0.00222
0.05019 -0.02505 0.17443
-0.05776 0.13259 -0.08050
-0.05370 0.08643 -0.08201
0.04490 -0.00795 0.02048
-0.01275 0.13153 -0.20844
-0.04189 0.08768 -0.08230
0.10593 0.13233 -0.04344
-0.15407 0.03026 0.14798
0.09349 0.10204 -0.09090
-0.12712 -0.01305 0.15990
0.04072 -0.00759 0.03007
-0.09213 0.12310 -0.11258
0.07627 0.12265 -0.19818
-0.07604 0.11558 -0.10827
-0.07192 0.12087 -0.20221
0.05680 0.12293 -0.08530
0.14720 0.11527 0.11482
0.06363 -0.00968 0.05492
0.00272 0.05076 -0.09594
-0.04396 0.11888 -0.20586
-0.09148 0.03778 -0.07821
-0.06930 0.12681 -0.20693
0.06517 -0.19206 0.24021
0.01995 0.11028 -0.18934
-0.00486 -0.03360 0.03597
0.01237 0.09438 -0.08667
-0.03961 0.11966 -0.18797
-0.05011 0.13028 -0.08827
-0.07320 0.06084 -0.08068
0.09431 0.04982 -0.07078
0.15497 -0.17676 0.23316
0.08948 0.12291 -0.10462
-0.11463 0.06037 -0.00422
-0.18974 0.08325 0.11525
-0.03952 0.07747 -0.08036
-0.07362 -0.00133 0.13327
-0.05518 0.09507 -0.07231
0.06995 0.08814 -0.08342
-0.05513 0.03169 0.00861
0.04427 0.12669 -0.20598
-0.06324 -0.00461 0.01987
0.14051 0.02513 0.16115
-0.00887 0.10002 -0.07026
-0.06645 0.07511 -0.06946
0.08590 0.00504 -0.05775
0.05124 0.07925 -0.11454
0.06747 0.12272 -0.12382
-0.08452 0.00283 -0.06400
0.10221 0.12355 -0.05834
-0.10360 0.12786 -0.14680
0.02534 0.11513 -0.12708
-0.07979 0.06231 -0.08761
-0.09735 0.12537 -0.20656
-0.16335 0.02446 0.14633
0.01212 -0.02526 0.04217
-0.06831 0.08539 -0.07611
0.08482 0.10952 -0.09758
0.00728 -0.25229 0.23662
0.06185 -0.16040 0.22796
-0.01370 0.09977 -0.07466
0.09430 0.10233 -0.14938
0.16251 0.05438 0.15309
-0.08479 0.05597 -0.08638
-0.06350 0.06427 -0.07400
0.09560 -0.01441 -0.00127
-0.04893 0.11020 -0.19622
-0.14486 -0.01456 0.15765
-0.05960 0.00884 0.00232
0.07145 -0.19331 0.24216
-0.09182 0.11141 -0.11390
0.00000 -0.20171 0.24408
0.01247 0.13666 -0.19390
-0.09089 -0.00286 -0.06170
0.10256 0.12836 -0.13434
0.10214 0.11531 -0.03922
0.11212 0.12747 -0.03200
0.11569 0.12978 -0.04123
0.06464 0.12636 -0.08257
-0.00312 0.09864 -0.19787
-0.09225 0.00918 -0.06556
0.01242 0.02207 -0.00481
-0.08190 0.11844 -0.11322
0.06986 0.07855 -0.08108
-0.00351 -0.17378 0.23340
0.01262 0.09859 -0.10554
0.05140 0.03871 -0.08595
0.07153 0.06193 -0.07917
0.03026 0.10081 -0.29522
-0.10221 -0.00078 -0.04874
0.08968 0.13138 -0.20622
0.14955 -0.10042 0.20829
-0.09118 0.04623 -0.08233
-0.08442 0.13525 -0.11903
-0.11485 0.07392 0.00750
0.06042 0.11528 -0.15766
0.05381 0.13143 -0.20718
0.05773 0.11209 -0.06332
-0.05404 0.03924 -0.13616
0.03984 0.12830 -0.08217
0.07392 -0.01356 -0.06389
-0.04511 0.09769 -0.07771
0.01125 0.06047 -0.09571
-0.06854 0.08178 -0.07528
0.03442 0.08660 -0.10585
0.04124 0.00156 0.02544
-0.06976 0.02351 -0.08923
0.07291 0.11456 -0.13428
-0.08325 -0.00240 -0.06441
0.00696 -0.19154 0.24026
-0.18452 0.00213 0.14707
-0.02774 0.09843 -0.05321
-0.06887 0.07824 -0.07500
-0.05425 0.00960 -0.02725
-0.09440 -0.01353 -0.04441
-0.09671 0.06073 -0.08198
-0.12532 0.00651 0.14379
-0.02497 -0.20173 0.24332
-0.00074 0.02145 -0.00738
-0.10031 -0.00716 -0.05293
-0.16472 -0.01086 0.16070
-0.04456 0.00669 0.03353
-0.11780 0.03519 -0.00390
-0.08274 0.05001 -0.08376
0.06926 0.05808 -0.07291
0.00594 0.12488 -0.07417
-0.05968 0.10035 -0.06855
-0.08083 0.11818 -0.20660
-0.17372 -0.00103 0.16936
0.07959 0.06537 -0.08256
-0.10800 -0.16234 0.22483
-0.06630 0.12296 -0.20047
-0.00917 -0.07090 0.03738
-0.00467 0.04953 -0.09458
0.10665 0.09138 -0.03032
0.15772 -0.07864 0.19511
-0.00862 0.12174 -0.07649
-0.05684 0.01281 -0.02964
0.06881 0.07143 -0.09407
0.06327 0.10810 -0.07770
-0.07894 0.13132 -0.20295
0.08897 0.09867 -0.09616
0.09932 0.12603 -0.19859
-0.09298 0.14414 -0.22545
-0.07315 0.02204 -0.03667
-0.09558 0.12328 -0.12063
-0.06564 -0.01066 -0.06023
0.08503 0.00163 -0.05644
0.08557 -0.01181 -0.02956
-0.13587 -0.18474 0.22510
0.03961 0.07939 -0.08537
-0.18969 0.05523 0.11659
-0.01843 0.13276 -0.20884
0.05504 0.05107 -0.40909
-0.00149 0.00432 0.00856
0.04637 0.05060 -0.18723
-0.04696 0.01166 0.03120
-0.09250 0.14660 -0.07979
0.04084 0.05795 -0.11478
-0.05572 0.07655 -0.08530
0.03997 0.09549 -0.07126
0.19621 -0.02814 0.59816
0.15807 -0.03775 0.17677
-0.09426 0.10913 -0.10970
-0.12295 -0.00100 0.11844
-0.06564 0.07827 -0.07783
0.03617 0.10220 -0.08765
0.16456 -0.00726 0.15210
-0.08290 -0.01573 -0.05991
-0.11253 -0.00134 0.17836
-0.08162 -0.00511 -0.06659
0.03240 0.10609 -0.07472
-0.10124 -0.00464 -0.05315
0.08576 0.07947 -0.09992
-0.09617 0.06997 -0.08524
-0.05815 -0.02142 -0.05704
-0.06523 0.08525 -0.06740
-0.07501 -0.00004 -0.05641
0.05478 0.09620 -0.07191
0.10303 0.11572 -0.18878
0.09324 0.11710 -0.09780
0.09376 0.11218 -0.09533
-0.00383 0.02143 -0.01087
-0.18465 0.02954 0.14012
-0.06536 0.12623 -0.21126
-0.03584 0.11177 -0.18035
0.00150 0.11772 -0.19065
-0.01300 0.09434 -0.19601
0.02913 0.10770 -0.18979
-0.06385 0.13539 -0.21662
0.06493 0.09415 -0.07340
0.00118 0.11418 -0.15295
0.04207 0.12069 -0.17720
-0.14903 0.00041 0.14232
-0.06053 0.13180 -0.20893
0.07758 0.11787 -0.19404
-0.01280 -0.02827 0.04367
0.10082 0.08526 -0.04148
0.00136 -0.02833 0.04158
0.02001 0.11497 -0.13648
0.08591 0.11219 -0.10291
0.08887 0.10475 -0.09514
-0.00474 0.09459 -0.07310
-0.04597 0.12973 -0.21010
0.11358 0.13206 -0.20083
0.00683 -0.20191 0.24448
0.05229 0.13166 -0.08017
-0.05380 0.12689 -0.07896
-0.09229 0.12076 -0.10595
0.10072 0.10573 0.02064
-0.13599 0.00421 0.17131
0.09017 -0.01020 -0.04671
0.01197 0.11237 -0.19179
0.06700 -0.00087 -0.04992
-0.07163 0.12425 -0.10606
0.00259 0.12995 -0.07897
-0.09163 0.05090 -0.08076
-0.09840 0.14463 -0.11442
-0.12295 -0.16276 0.22560
0.02645 -0.20578 0.24610
-0.00660 -0.20187 0.24445
0.05699 0.10375 -0.18682
0.01762 -0.20207 0.24496
0.02604 -0.20881 0.24618
0.04553 -0.19533 0.24413
0.07477 -0.18864 0.24071
0.00492 0.10802 -0.18322
0.02091 -0.20204 0.24436
0.02520 0.13561 -0.06629
-0.01395 -0.05582 0.03866
0.01087 -0.20188 0.24460
0.00054 -0.20881 0.24675
-0.00358 -0.02635 0.04265
0.03457 -0.18837 0.23985
-0.04418 -0.20145 0.24256
0.00616 -0.02420 0.04204
-0.01435 0.11131 -0.19271
0.02581 -0.02269 0.00020
-0.01592 -0.16654 0.22939
-0.00086 -0.19505 0.24178
0.05716 -0.00697 -0.05947
-0.05683 0.10472 -0.07497
-0.07917 0.04814 -0.07883
-0.04412 -0.20832 0.24569
-0.02504 0.09646 -0.16590
-0.00311 -0.20189 0.24386
0.01165 -0.20590 0.24684
0.06227 0.13026 -0.08170
0.01298 -0.01395 0.01715
0.04240 0.07337 -0.09826
0.01050 0.11353 -0.14017
0.03158 -0.18828 0.24016
0.02711 -0.19508 0.24179
-0.00395 -0.19466 0.24125
-0.00021 -0.18774 0.23819
-0.08703 -0.00132 -0.06296
-0.04452 -0.20614 0.24476
0.06661 0.11550 -0.19380
0.04318 0.11159 -0.19157
-0.10248 0.14510 -0.11391
0.06548 0.11683 -0.16453
-0.03828 -0.20894 0.24660
0.10227 0.11891 -0.18782
0.02728 -0.18819 0.23999
0.00702 -0.01494 0.02240
-0.00062 -0.05086 0.03667
-0.01624 -0.18772 0.23799
0.02180 -0.19513 0.24183
-0.05116 0.00206 0.02229
0.06887 0.05993 -0.07347
0.01765 0.11199 -0.19281
-0.07325 0.09234 -0.27471
-0.11925 -0.18341 0.23738
-0.05427 -0.18702 0.23701
-0.08906 -0.01418 -0.06241
-0.00577 0.10921 -0.18842
0.06671 -0.17888 0.23746
-0.04091 0.10378 -0.19592
0.00185 -0.05542 0.04406
-0.09955 -0.01317 -0.03709
-0.04495 -0.18712 0.23740
-0.03684 -0.19416 0.23983
-0.04892 -0.18708 0.23721
-0.02930 0.09419 -0.16278
0.00973 0.07061 -0.07955
-0.04503 -0.19441 0.23993
-0.01030 0.10636 -0.19342
-0.03271 -0.01640 0.05473
0.05546 0.08035 -0.10335
-0.03956 0.08370 -0.11162
-0.05186 0.05933 -0.01443
0.05548 0.09079 -0.07676
-0.06209 0.07385 -0.08328
-0.07532 0.00326 -0.05675
0.04589 -0.01249 0.03567
0.00348 0.12202 -0.07139
-0.03169 0.07529 -0.25218
-0.04767 0.00423 0.02747
-0.00854 0.09538 -0.19875
-0.10439 0.01068 -0.01695
0.02098 0.08346 -0.11510
-0.07700 -0.01561 -0.04929
0.09908 0.12149 -0.19879
0.06705 0.00926 -0.05774
-0.07138 0.03106 -0.06814
-0.00651 -0.02221 0.03817
0.01557 0.03755 -0.02209
-0.06888 0.02042 -0.05484
-0.08738 0.04328 -0.07927
0.01335 0.11977 -0.11236
0.08059 0.08155 -0.08904
-0.05572 0.01702 0.00072
0.01405 -0.03623 -0.04022
-0.04067 -0.01555 0.05047
-0.05470 -0.00372 0.02674
-0.04693 0.01813 0.03920
-0.00889 -0.05323 0.04082
-0.00033 0.08084 -0.07604
0.04079 0.01465 0.00136
-0.10589 0.01747 -0.01643
0.04421 0.03820 -0.03073
-0.00131 -0.00766 0.01954
0.02807 0.07917 -0.10957
0.06228 0.11040 -0.14604
-0.12060 -0.17079 0.21066
-0.04607 0.08824 -0.07875
0.10198 0.11939 -0.19341
0.05962 0.10228 -0.06970
0.09607 0.13490 -0.11057
0.00924 0.11269 -0.10684
-0.12918 -0.06141 0.18529
0.01143 0.11936 -0.09720
0.06814 0.01260 -0.05656
-0.07580 0.07931 -0.09238
-0.06769 0.05924 -0.06809
-0.09453 0.04056 -0.07771
0.08516 0.08801 -0.09020
-0.03468 0.08113 -0.14686
-0.05314 0.01928 0.02363
-0.03954 0.08678 -0.10929
-0.05088 0.08150 -0.07940
-0.02894 -0.01703 0.05135
-0.14154 -0.17155 0.32264
0.11618 0.09264 -0.04930
0.06793 0.06904 -0.09124
0.00005 0.12357 -0.16882
0.00057 0.03053 -0.01572
0.02211 0.07853 -0.12367
-0.01111 0.10313 -0.18068
0.11021 0.06853 -0.02804
-0.08318 0.03058 -0.07492
0.10391 0.11857 -0.19380
0.01106 0.10352 -0.09555
-0.10917 0.01417 -0.01257
0.16096 0.04823 0.14374
-0.00546 0.03664 -0.02768
0.11716 -0.02072 0.15496
0.04585 -0.01070 0.03027
0.02004 0.11046 -0.14189
-0.02749 -0.01140 0.02874
0.07837 0.08309 -0.08737
-0.01280 0.11144 -0.18235
0.10515 0.12167 -0.04178
0.01218 0.07618 -0.10550
0.01340 0.06717 -0.07585
0.08974 0.03997 -0.06757
0.07279 0.06811 -0.08252
0.12224 -0.10134 0.20500
-0.02222 0.11699 -0.19424
0.15486 -0.17750 0.23578
-0.02827 0.10545 -0.16130
-0.05755 0.00938 -0.02713
0.11190 0.04835 -0.02378
-0.03542 0.11320 -0.07177
0.00261 0.10718 -0.14664
-0.04925 0.12729 -0.12725
-0.06808 -0.25610 0.26534
0.06032 -0.18911 0.23989
0.09422 0.05239 -0.07296
-0.02367 0.10550 -0.18736
0.00968 0.11405 -0.19488
0.10911 0.11406 -0.19586
-0.09312 0.11527 -0.21077
0.09156 0.06179 -0.07619
-0.10215 0.12018 -0.20172
-0.03479 0.08849 -0.07709
0.01519 0.06856 -0.07425
0.15821 -0.08419 0.20285
-0.07393 0.13158 -0.10325
0.05434 0.08225 -0.10801
-0.05763 0.13426 -0.20703
-0.09424 0.12039 -0.20130
-0.01302 0.10756 -0.19163
0.02644 0.10343 -0.12669
-0.08104 0.11498 -0.11160
0.10677 0.11939 -0.19771
0.03764 0.11272 -0.18776
-0.03824 0.11146 -0.20093
-0.00618 0.10736 -0.14414
-0.09262 0.06364 -0.09004
0.04778 0.03716 -0.09159
-0.01173 0.08462 -0.07750
0.02237 0.10512 -0.12990
0.06648 0.00182 -0.05702
-0.08991 0.06258 -0.08765
-0.08151 0.09040 -0.10338
-0.01613 0.10080 -0.19661
-0.07692 0.13081 -0.10956
0.11341 0.06459 -0.02847
-0.08595 0.12332 -0.18698
-0.07248 0.11530 -0.10101
-0.02003 0.11090 -0.18769
0.10663 0.13330 -0.20640
0.09626 0.09259 -0.08864
0.15233 -0.21047 0.24033
0.06386 0.11194 -0.07019
-0.07483 0.07715 -0.08764
-0.05503 0.01497 -0.04445
-0.00245 0.08359 -0.07244
-0.09731 -0.00728 -0.05974
0.07376 -0.01819 -0.06270
0.02445 0.03216 -0.10877
0.03144 0.13083 -0.21235
0.05262 0.11234 -0.18786
-0.06531 0.06861 -0.07535
0.01455 0.05818 -0.06942
-0.11722 -0.18645 0.28351
-0.00184 0.12553 -0.20484
0.00388 0.00116 0.00989
0.04377 0.07709 -0.10745
-0.07363 0.04966 -0.07747
-0.00130 0.11255 -0.19252
0.01475 0.07454 -0.07223
-0.07090 0.13370 -0.21169
-0.09652 0.11665 -0.11296
0.11385 0.11260 -0.09566
0.16790 0.13239 0.10141
0.03104 0.10753 -0.19022
0.16365 0.10678 0.13108
-0.09669 0.11926 -0.18154
0.11222 0.04481 -0.01622
-0.04207 0.08176 -0.07870
0.17281 -0.00630 0.16521
-0.08332 0.06057 -0.08631
-0.18420 0.02115 0.14247
0.09268 0.13106 -0.08562
-0.06861 0.12693 -0.10263
-0.07422 0.07701 -0.07542
0.05196 0.07344 -0.10182
-0.17933 0.10077 0.09859
0.04140 0.11093 -0.06757
-0.06117 0.08094 -0.07984
-0.09461 -0.18689 0.23567
-0.18016 0.09669 0.10325
0.07589 0.00144 -0.05853
0.10949 0.03532 -0.02432
0.04366 0.06831 -0.11251
-0.07828 0.00382 -0.06360
0.06599 0.08346 -0.08745
-0.09697 0.12840 -0.21186
-0.08699 0.12762 -0.22109
0.09421 0.11992 -0.19702
0.02070 0.07979 -0.10483
0.03727 0.07306 -0.10560
-0.08923 0.10506 -0.10600
-0.05803 0.08140 -0.08001
-0.03242 0.10653 -0.10866
-0.11095 0.08367 -0.01870
0.09663 0.12869 -0.11795
-0.09478 0.12751 -0.10855
0.10750 0.04725 -0.02581
0.07196 0.08121 -0.08510
0.05339 0.04526 -0.09094
0.03738 0.06981 -0.10595
0.00230 0.08463 -0.07442
-0.05267 0.03715 -0.03594
0.05767 -0.16622 0.23293
-0.05793 0.06043 -0.08509
-0.06994 0.11890 -0.08632
0.03795 0.13014 -0.21306
-0.03151 -0.00880 0.03172
-0.03530 0.10682 -0.19241
0.06686 0.10038 -0.08847
0.16718 0.10758 0.11680
0.10097 0.12092 -0.19746
-0.02942 0.12173 -0.20597
-0.10162 0.11911 -0.21340
0.08391 0.12100 -0.19359
0.08520 0.12602 -0.10939
0.00905 0.10630 -0.19497
-0.07759 0.04356 -0.05980
0.15699 -0.07826 0.19413
0.01739 -0.04405 0.10993
0.12034 0.12719 -0.02470
0.09639 0.00000 -0.02839
-0.05894 0.02700 -0.03785
0.06315 0.10374 -0.07922
-0.17462 -0.05074 0.17598
0.07075 0.04537 -0.07088
-0.14341 -0.10433 0.20551
-0.08075 0.12549 -0.11466
0.06897 -0.00001 -0.05396
-0.09890 0.12654 -0.21678
0.01300 0.10652 -0.19106
-0.00171 -0.04088 0.03803
-0.07575 0.01482 -0.04753
-0.02602 0.09549 -0.16134
0.08491 -0.17111 0.23490
0.10560 0.11895 -0.18381
-0.04589 0.10546 -0.19038
-0.09529 0.11940 -0.11931
0.07041 0.08500 -0.08118
-0.05477 0.08924 -0.08215
-0.07140 0.10720 -0.10457
0.02009 0.05973 -0.10871
0.04446 0.11508 -0.19606
-0.03832 -0.20829 0.24543
0.08841 0.08773 -0.08929
0.15472 -0.17277 0.23388
0.04719 0.04826 -0.10253
0.01855 -0.14608 0.22175
-0.13017 -0.11149 0.19873
-0.00432 -0.05220 0.03524
0.05716 0.08809 -0.08869
-0.10048 0.11304 -0.19846
-0.06241 0.03444 -0.04351
-0.06147 0.12183 -0.20220
-0.11152 0.04606 -0.01812
-0.06666 0.00860 -0.03689
-0.09543 0.12263 -0.20898
0.03098 -0.16045 0.22926
-0.07064 0.10719 -0.08335
0.06327 0.11827 -0.07602
0.06326 0.00244 -0.05611
-0.09169 0.10186 -0.11078
-0.10297 0.01468 -0.05415
-0.01775 0.10939 -0.19500
0.03282 0.06068 -0.01952
0.07024 0.08199 -0.07965
0.13480 -0.10911 0.19717
-0.08993 0.12594 -0.20927
0.00140 0.09037 -0.15517
0.15877 0.00539 0.15953
0.13643 -0.09230 0.20000
-0.00204 0.07003 -0.13420
0.09967 -0.11104 0.20751
-0.08691 0.12226 -0.22687
-0.18664 -0.05495 0.17148
-0.05986 0.11939 -0.14957
-0.05597 0.07203 -0.09771
0.05811 0.11784 -0.07383
0.04951 0.04991 -0.10306
-0.03105 0.10322 -0.17399
0.06050 -0.01366 -0.03213
-0.01123 0.09610 -0.17581
0.11197 0.05473 -0.02924
-0.07089 0.07765 -0.07470
0.07489 0.05624 -0.07701
0.01370 0.08373 -0.09950
0.09102 0.06622 -0.08185
0.02503 0.07383 -0.11201
-0.07156 0.12104 -0.10523
0.09931 0.13142 -0.20689
0.03146 0.05296 -0.11437
-0.18439 0.03470 0.13940
0.03286 0.07327 -0.11439
-0.10334 0.11744 -0.20251
0.10983 0.13645 -0.20822
0.01678 0.11273 -0.10588
0.03641 0.11486 -0.19773
-0.10697 0.13752 -0.12580
0.02641 0.02101 -0.09728
-0.06168 0.10040 -0.07829
0.15315 -0.21716 0.24789
0.06849 -0.16108 0.22983
-0.07981 0.03558 -0.04140
0.15428 -0.19478 0.24130
0.00661 -0.06329 0.04181
0.04216 0.11983 -0.11829
-0.06933 0.09893 -0.09402
-0.19682 -0.14196 0.20499
-0.16809 -0.00702 0.15844
-0.03061 0.11432 -0.20624
-0.02972 0.10695 -0.18246
0.07078 0.05243 -0.07405
0.03072 0.09147 -0.23865
-0.07315 0.12361 -0.10997
0.03498 0.02008 -0.09430
0.03929 0.11146 -0.19352
0.08403 0.12884 -0.11512
0.07185 0.05585 -0.06620
0.06494 0.12033 -0.17559
0.06893 0.05069 -0.07163
0.06955 0.11702 -0.18802
0.00381 0.12419 -0.20308
0.08352 0.05823 -0.08279
-0.05012 0.11274 -0.19615
0.01130 0.02796 -0.00992
0.07431 0.05854 -0.07917
0.05370 0.08151 -0.11227
0.01342 0.02808 -0.01059
0.01053 0.02227 -0.00118
-0.06079 0.12624 -0.20679
0.02432 0.11239 -0.11535
-0.03097 0.10517 -0.19070
0.04611 0.12332 -0.20509
-0.08455 0.09310 -0.10434
0.04170 0.02444 -0.09803
0.06870 0.05555 -0.07231
0.06060 0.11760 -0.20195
0.07132 -0.00626 -0.06098
0.05844 0.05556 -0.07673
0.10050 0.06644 -0.04122
0.06938 0.13117 -0.20612
0.07886 0.12469 -0.19644
0.05199 0.06893 -0.29327
-0.03496 0.11479 -0.20441
0.01814 0.13097 -0.21223
-0.02493 0.10793 -0.19026
0.07395 -0.00622 -0.05865
0.03390 0.06501 -0.11018
-0.03742 0.07489 -0.11551
-0.00380 0.11051 -0.18922
0.00965 0.01879 -0.00006
0.00533 0.10730 -0.08602
-0.02143 -0.15246 0.22400
-0.07309 0.11166 -0.11012
0.07537 0.08438 -0.08922
0.00317 -0.02349 0.03923
-0.06123 0.00520 -0.02042
0.07904 0.11267 -0.10036
0.06591 0.10763 -0.08085
0.01201 0.11657 -0.19265
0.06230 0.04262 -0.21470
0.02126 0.10676 -0.18338
-0.00864 0.12085 -0.19935
0.01321 0.10664 -0.17951
0.05605 0.00439 -0.02055
0.08053 -0.01285 -0.03716
-0.05977 0.12480 -0.15772
0.07359 -0.00129 -0.05608
0.00394 0.13192 -0.20920
-0.00032 0.12736 -0.09047
0.02863 0.11300 -0.10498
0.05759 0.10733 -0.19178
-0.03667 0.11850 -0.10946
0.03157 0.02120 -0.10582
0.08059 0.12833 -0.11908
0.06275 0.06305 -0.08602
0.07222 -0.00346 -0.05536
0.06894 0.06587 -0.09336
0.07586 0.08973 -0.08944
0.07321 0.07597 -0.08648
-0.01248 -0.20158 0.24381
0.05485 0.09677 -0.19004
-0.06478 -0.00815 -0.06539
0.05515 0.12900 -0.20503
-0.06552 0.03392 -0.04373
0.08100 0.10477 -0.09542
-0.07725 -0.00935 -0.05035
0.01285 0.02302 -0.02323
0.00384 0.01459 0.00546
0.03499 0.02088 -0.10690
0.01115 0.12519 -0.20486
-0.06679 -0.00016 0.00482
0.02237 0.10388 -0.11745
-0.04374 -0.00193 0.02504
-0.02784 0.12590 -0.20635
0.08634 0.00724 -0.05300
0.07275 0.11288 -0.10253
0.06806 0.06373 -0.08276
0.08809 0.13420 -0.10840
-0.01562 0.09564 -0.19189
0.08769 0.00207 -0.05715
0.03061 0.07496 -0.11527
-0.01410 0.09571 -0.18321
0.08973 0.11297 -0.09903
0.03810 -0.16703 0.23042
0.00554 -0.00352 0.01067
-0.02329 -0.00104 0.01199
0.01851 0.06752 -0.11377
0.01178 0.11320 -0.10768
-0.06231 0.05759 -0.06102
0.03834 0.12917 -0.20630
0.01370 0.11590 -0.19533
0.07706 0.00649 -0.06195
-0.08287 0.02234 -0.07675
0.09824 0.00340 -0.01365
-0.00368 0.11712 -0.07262
-0.06451 0.00132 -0.00774
0.09620 0.10018 -0.03441
-0.06372 0.11874 -0.19361
0.08204 0.00136 -0.05928
0.06724 -0.01773 -0.06699
0.03501 0.12355 -0.07599
-0.08024 -0.00451 -0.06581
0.06460 0.08727 -0.27774
0.06294 0.11523 -0.11099
-0.05713 0.02159 -0.03644
0.02791 0.10150 -0.13697
-0.02459 0.13056 -0.20874
-0.07165 -0.00384 0.04426
-0.06904 -0.00831 -0.05093
-0.03291 0.10862 -0.18480
0.07559 0.09127 -0.09235
-0.09113 0.04828 -0.08375
-0.08221 0.05554 -0.17184
0.05184 0.03889 -0.05150
-0.07803 -0.00457 -0.06296
-0.06309 0.06924 -0.08196
-0.04384 0.13005 -0.20920
0.06158 -0.00241 -0.06681
0.07712 -0.00183 -0.05704
0.09527 0.06424 -0.07374
0.01038 -0.02992 0.04281
0.08735 0.07301 -0.08522
-0.04399 0.01306 0.04296
-0.01626 0.13205 -0.21086
0.06912 -0.01862 -0.06652
0.07594 0.09834 -0.09311
0.07084 0.12698 -0.19925
-0.03315 -0.01193 0.04071
-0.08267 -0.01396 -0.06385
0.08042 0.10801 -0.09685
0.02430 0.08767 -0.12159
0.06571 0.07600 -0.09491
-0.05730 0.03885 -0.03430
0.04060 0.06590 -0.10422
-0.06824 0.09935 -0.07379
0.05605 0.05928 -0.08636
0.07293 -0.01521 -0.06605
0.07651 0.07629 -0.08741
0.05877 0.05268 -0.06871
-0.05175 0.00978 0.02757
-0.00582 0.12597 -0.07421
0.07336 0.00787 -0.05187
0.06909 0.08442 -0.14443
-0.04651 0.11326 -0.19369
0.02796 0.11882 -0.11244
0.07607 0.05638 -0.08288
-0.01727 0.10441 -0.19188
0.07081 0.11490 -0.09626
0.05295 0.10621 -0.18890
-0.07624 0.11822 -0.19757
0.05905 0.09313 -0.09627
0.08269 0.11233 -0.10223
0.03197 0.05094 -0.11789
-0.00871 0.13128 -0.06600
0.06383 0.10327 -0.07070
-0.06658 0.13773 -0.08570
-0.06637 0.07205 -0.06925
0.07688 0.09583 -0.26371
-0.12150 -0.09743 0.20087
0.02136 0.07210 -0.31995
-0.12725 -0.01402 0.16421
-0.12707 -0.00994 0.16319
0.15931 -0.03196 0.18169
-0.07129 0.05065 -0.07300
0.09852 0.13303 -0.11321
-0.07153 0.04497 -0.07041
-0.07245 -0.00064 -0.05429
-0.03322 0.13236 -0.21113
0.03837 -0.16024 0.22847
-0.13255 -0.19364 0.23527
-0.15508 -0.26165 0.26560
