# .PCD v.7 - Point Cloud Data file format
VERSION .7
FIELDS x y z
SIZE 4 4 4
TYPE F F F
COUNT 1 1 1
WIDTH 1875
HEIGHT 1
VIEWPOINT 0 0 0 1 0 0 0
POINTS 1875
DATA ascii
-0.00291 0.27972 -0.17746
0.04595 0.32876 -0.23233
-0.12270 0.28782 -0.11834
0.03599 0.34989 -0.25148
0.08636 0.43587 -0.33764
-0.12021 0.25307 -0.18875
-0.03453 0.30053 -0.25310
-0.05647 0.27755 -0.25149
0.08612 0.43667 -0.33552
0.05039 0.23971 -0.21254
-0.00172 -0.04425 0.00967
0.09895 0.39038 -0.20343
0.02958 0.39539 -0.31880
-0.00967 0.18579 -0.12590
0.11428 -0.03919 -0.00456
-0.00261 0.28421 -0.18994
-0.05933 0.27582 -0.23888
-0.04652 0.25857 -0.14313
-0.01515 0.39219 -0.25477
-0.01922 0.30128 -0.24624
0.02710 -0.01310 0.00612
0.02710 -0.01310 0.00612
-0.15143 0.42391 -0.31489
-0.01083 0.37278 -0.05120
0.09473 0.30474 -0.19966
0.05854 0.23928 -0.24594
-0.01231 0.30260 -0.30910
-0.02289 -0.01689 0.01100
-0.01479 0.29471 -0.23009
0.06966 0.00449 -0.00005
0.11987 -0.01086 -0.00407
-0.05352 -0.01803 0.01483
-0.12109 0.24388 -0.21265
-0.00697 0.29493 -0.21424
-0.06791 -0.04893 0.01844
-0.02101 -0.04827 0.01281
-0.00909 0.19645 -0.19045
-0.11535 0.21949 -0.17989
-0.05860 -0.03179 0.01667
0.03686 0.21056 -0.14131
0.05249 0.23295 -0.22859
0.00902 0.39136 -0.26018
-0.09337 0.22236 -0.20727
-0.07409 -0.03165 0.01760
0.01287 0.34074 -0.24850
-0.01101 0.19083 -0.13354
0.05956 -0.03015 0.00338
0.04695 -0.06209 0.00577
-0.04720 -0.04731 0.01653
-0.03016 -0.06436 0.01602
-0.03016 -0.06436 0.01602
-0.02640 0.33654 -0.21446
0.10098 -0.01102 -0.00232
0.01023 -0.04188 0.00888
0.02256 0.19423 -0.13108
0.02870 0.31580 -0.25427
-0.01202 0.38882 -0.20097
0.05805 -0.03174 0.00324
-0.03737 -0.03073 0.01366
-0.00892 0.29165 -0.21176
-0.06535 -0.04983 0.01763
-0.02125 0.26053 -0.17344
0.00288 0.25688 -0.16738
-0.02294 -0.05941 0.01343
0.09183 0.39313 -0.20703
-0.06806 0.33529 -0.20786
-0.10751 0.24089 -0.21104
-0.01115 0.16349 -0.12973
-0.02848 0.00144 0.01148
-0.02848 0.00147 0.01142
-0.05930 0.27824 -0.25383
-0.01567 0.32891 -0.21197
0.01291 -0.00086 -0.00992
-0.07313 0.23666 -0.18001
0.00119 0.38577 -0.25432
-0.01386 0.15722 -0.12808
-0.08650 0.23313 -0.20277
-0.10190 0.22425 -0.21162
-0.11799 0.30354 -0.20771
0.01266 0.17770 -0.13465
-0.01433 0.13727 -0.12559
-0.10041 0.22501 -0.21459
-0.05947 0.35291 -0.25443
-0.01899 0.29888 -0.23711
-0.00077 0.17834 -0.13799
-0.01243 0.18350 -0.12255
-0.05031 -0.04350 0.01574
0.07697 0.00424 -0.00061
-0.09786 0.23700 -0.21704
0.00226 -0.04608 0.01021
0.00714 -0.01299 0.00809
-0.00798 0.15921 -0.14625
-0.10542 0.43210 -0.32253
-0.05703 0.20716 -0.12851
-0.00925 -0.06196 0.01288
-0.04906 0.22828 -0.11207
-0.05584 0.20155 -0.11649
-0.05591 0.36160 -0.29441
0.11523 -0.01208 -0.00365
0.11521 -0.01197 -0.00378
-0.06834 -0.01558 0.01678
0.05044 0.30908 -0.22553
-0.05633 -0.01746 0.01597
0.01543 0.27474 -0.21443
-0.07420 0.21472 -0.14769
-0.05059 0.37985 -0.29761
0.06787 0.23245 -0.23964
-0.09511 -0.01824 0.01930
-0.01274 0.28531 -0.20812
-0.00125 0.25407 -0.16795
-0.08919 0.32009 -0.20199
0.00685 0.00318 0.00582
0.00812 0.33484 -0.25422
0.10840 0.27420 -0.18079
-0.03287 0.31522 -0.24025
-0.06006 0.25246 -0.15444
0.01371 -0.04723 0.01211
0.01344 -0.04575 0.00954
0.01692 0.15638 -0.11705
0.00349 0.13632 -0.14218
-0.00009 0.13213 -0.14133
-0.06009 0.20723 -0.12711
0.09511 -0.04250 -0.00008
0.04712 -0.00927 0.00324
-0.05872 0.21069 -0.13495
-0.02239 0.32746 -0.22086
-0.05754 0.38251 -0.29100
-0.00087 0.13481 -0.14197
0.01968 -0.00679 -0.00228
-0.00558 0.17944 -0.08254
-0.01141 0.23145 -0.15270
-0.05051 -0.01438 0.01366
-0.03886 -0.00147 0.01378
0.02503 0.19777 -0.13253
0.01478 0.19634 -0.13459
-0.07530 0.25390 -0.17705
-0.06700 0.29918 -0.21561
0.00037 0.31128 -0.21960
-0.00107 0.26307 -0.15711
-0.05428 0.19979 -0.11448
-0.14298 0.42652 -0.31847
-0.07915 0.24263 -0.18564
0.00489 -0.05750 0.00890
-0.09236 0.22447 -0.20410
0.04649 -0.06226 0.00659
-0.01002 0.25297 -0.16570
0.06057 0.30796 -0.22485
0.08344 0.32035 -0.22805
-0.07143 0.28561 -0.16928
-0.02218 0.33739 -0.21395
-0.05188 0.22637 -0.12243
-0.02057 0.23991 -0.16139
0.03761 -0.04143 0.00602
-0.01720 0.23051 -0.16782
0.03180 0.34169 -0.22043
-0.02193 0.24526 -0.16258
0.01077 0.28057 -0.25686
-0.07940 0.23231 -0.17880
-0.00774 0.25561 -0.16493
-0.06585 0.21210 -0.13667
-0.12141 0.29389 -0.20631
0.03111 0.28377 -0.24221
-0.11547 0.24155 -0.20532
0.08850 -0.04042 0.00017
-0.05068 0.20894 -0.12233
0.01797 0.25931 -0.18569
-0.03219 0.31226 -0.22266
-0.03232 -0.06530 0.01482
0.04922 0.27621 -0.18068
0.03883 0.34172 -0.24133
-0.11985 0.23392 -0.20189
-0.00739 0.24743 -0.16199
0.05063 0.24921 -0.23804
0.08617 0.43576 -0.33990
-0.02853 0.27347 -0.22633
-0.07918 0.26590 -0.18233
0.01531 0.29164 -0.25002
-0.11460 0.30241 -0.21434
-0.07113 0.21972 -0.14210
0.08107 0.00161 -0.00085
0.11186 -0.00844 -0.00349
0.06476 0.00262 0.00047
-0.03180 0.34720 -0.24326
0.04075 -0.05694 0.00604
-0.05153 -0.03309 0.01601
0.00453 0.17051 -0.13494
0.06324 -0.02524 0.00237
-0.08414 0.29146 -0.16714
0.04588 -0.01176 0.00308
0.07260 0.00342 -0.00030
-0.24479 -0.18580 0.04536
0.02090 -0.06406 0.00866
-0.06030 -0.01587 0.01565
0.08868 -0.02419 -0.00062
0.06937 -0.02614 0.00160
0.08030 -0.01397 0.00088
-0.05796 -0.03250 0.01617
0.04904 -0.01003 0.00310
0.01486 0.16112 -0.12262
-0.09671 -0.01787 0.01752
0.03681 -0.02633 0.00490
0.01705 -0.04277 0.00783
-0.09132 0.44075 -1.00000
-0.06782 -0.01780 0.01676
0.01526 -0.03032 0.00796
-0.06417 -0.04591 0.01772
-0.05478 0.37407 -0.31003
-0.00370 -0.05906 0.01149
0.08723 -0.02950 0.00040
0.05841 -0.04645 0.00354
-0.00960 -0.01421 0.00980
-0.03376 0.00397 0.00460
0.04082 0.22975 -0.13544
-0.04006 -0.01491 0.01317
-0.00344 -0.01430 0.00903
0.03715 -0.04462 0.00565
-0.08735 -0.04463 0.02019
0.02209 0.18464 -0.14358
0.05114 0.00250 0.00234
0.04988 -0.05965 0.00434
-0.00542 0.19119 -0.12968
0.07865 -0.04552 0.00151
-0.16310 0.19964 -0.12834
-0.04513 0.23261 -0.10972
-0.01302 -0.04828 0.01273
0.00863 0.24693 -0.15744
0.06805 0.23207 -0.23880
0.00480 0.24357 -0.15549
0.00380 0.22861 -0.13954
-0.00899 0.38412 -0.23168
0.03602 0.30813 -0.25159
-0.12601 0.39081 -0.21254
0.01326 0.18170 -0.12899
0.09114 0.39359 -0.21893
-0.03740 0.27778 -0.24504
0.04745 0.24090 -0.24186
0.07263 -0.00009 0.00017
-0.12601 0.39796 -0.21964
0.01199 0.16184 -0.12880
-0.00274 0.39047 -0.26417
-0.11511 0.23323 -0.20303
0.02791 0.31573 -0.25216
-0.03858 0.24780 -0.10808
-0.06408 0.21011 -0.13413
-0.00775 0.18037 -0.11585
0.16621 0.20658 -0.10005
0.01373 -0.02857 0.00811
0.03130 0.31353 -0.25241
-0.10687 0.23936 -0.21290
-0.08304 0.33322 -0.18830
0.01881 0.35260 -0.23573
0.11183 0.36312 -0.17337
-0.07141 -0.03394 0.01766
0.02730 0.39952 -0.32610
0.04338 0.25831 -0.12267
-0.00306 -0.01064 0.00882
0.05945 0.24372 -0.23615
0.02444 -0.01545 0.00608
0.07768 -0.00901 -0.00000
0.06220 -0.01539 0.00181
0.01248 -0.01285 0.00844
0.08296 0.41525 -0.33349
-0.03024 0.30448 -0.24777
-0.08726 -0.05027 0.02069
0.03355 0.00586 0.00408
-0.03613 -0.00198 0.01230
-0.00239 0.00499 0.00813
-0.00239 0.00503 0.00811
0.05799 0.00641 0.00128
0.04125 -0.01082 0.00410
-0.06088 0.34116 -0.22739
0.00250 -0.00132 0.00796
-0.01904 0.33009 -0.21237
-0.03945 -0.02363 0.02545
-0.00849 -0.00019 0.00841
-0.01750 0.00369 0.01000
-0.11754 0.31708 -0.20971
0.11774 -0.02510 -0.00369
-0.03090 -0.01681 0.01226
-0.08226 -0.03181 0.01893
-0.07537 -0.02841 0.01803
-0.05102 -0.01298 0.01461
0.00102 0.16709 -0.14073
-0.00153 0.16697 -0.14056
0.05394 0.00630 0.00146
0.03269 0.34848 -0.25936
-0.00485 -0.02652 0.00994
-0.03553 0.22136 -0.34941
-0.01738 -0.00086 0.00993
0.06018 -0.01206 0.00142
0.04986 -0.01549 0.00314
0.00196 0.00547 0.00758
-0.01188 -0.01358 0.01005
0.10685 -0.00964 -0.00320
-0.04444 -0.02755 0.01434
-0.09824 0.24460 -0.21013
0.04511 0.22683 -0.12478
0.05806 -0.00022 0.00162
-0.02330 0.19349 -0.12847
0.01021 -0.04184 0.00889
0.03521 0.35287 -0.25432
0.03703 -0.05762 0.00640
0.01386 0.24666 -0.17501
-0.02616 0.33875 -0.21224
0.05796 0.30403 -0.22498
0.02293 -0.02450 0.03603
0.08366 0.22623 -0.20350
0.10255 -0.04514 -0.00088
0.10472 -0.04523 -0.00079
-0.05645 0.22845 -0.11687
0.10472 -0.04523 -0.00079
0.02976 0.39537 -0.31980
0.05145 0.33831 -0.23812
0.02457 0.02768 -0.04820
0.01662 -0.02857 0.00760
0.05587 -0.04704 0.00388
0.19105 0.08319 -0.02235
0.03938 0.00454 0.00291
-0.05632 0.00102 0.01433
0.10914 -0.02841 -0.00286
0.08119 -0.00900 -0.00065
-0.01421 0.15164 -0.13187
0.06768 -0.02474 0.00166
0.00273 0.38005 -0.25327
-0.08586 -0.01964 0.01927
-0.03909 -0.04319 0.01464
0.03537 -0.02738 0.02312
0.08596 0.23687 -0.22142
-0.00425 -0.04486 0.01070
0.07075 0.23738 -0.23014
0.04965 -0.01306 0.00323
-0.00046 0.14868 -0.14076
0.05617 -0.04425 0.00425
-0.00610 -0.06129 0.01124
0.00269 0.21479 -0.15058
-0.05508 0.33477 -0.48145
-0.04165 0.00297 0.01255
-0.04181 0.00304 0.01240
-0.02608 0.29910 -0.24790
-0.01026 0.00160 0.00922
0.02863 -0.02905 0.00613
-0.01368 -0.04231 0.01208
0.05088 -0.01390 0.00331
-0.00623 -0.06442 0.01148
0.10081 -0.04661 -0.00074
-0.04411 -0.04656 0.01491
-0.00702 -0.04492 0.01111
-0.03092 -0.01680 0.01228
0.00258 -0.00118 0.00795
0.01081 0.26529 -0.19255
-0.01735 0.14679 -0.12012
0.05831 -0.01211 0.00243
0.00060 0.18157 -0.13230
0.06728 -0.04604 0.00308
-0.00325 -0.03190 0.01003
0.06220 -0.01537 0.00184
0.08329 0.22452 -0.20488
-0.00329 -0.02789 0.00987
0.06940 -0.03022 0.00197
0.01539 0.29091 -0.25916
-0.02675 0.33595 -0.22518
-0.00581 0.32550 -0.21817
-0.02788 0.34168 -0.21330
0.06135 -0.01046 0.00158
0.00582 0.00003 0.00695
-0.02775 -0.06474 0.01408
0.08589 0.40053 -0.24092
-0.05893 -0.01779 0.01573
0.10687 0.28845 -0.18618
-0.01862 0.27802 -0.19042
0.08557 -0.04554 0.00098
0.06685 0.24048 -0.23966
-0.01181 -0.03241 0.01050
0.11411 -0.02633 -0.00328
-0.01144 0.25113 -0.16398
-0.12769 0.39532 -0.22075
-0.08390 -0.01797 0.01966
0.00957 0.13560 -0.13310
0.02869 0.34757 -0.26050
-0.00644 0.14346 -0.14351
-0.00657 0.14300 -0.14226
-0.05597 -0.03254 0.01554
-0.00132 -0.01608 0.00893
0.06296 0.24088 -0.24300
-0.01495 0.00483 0.00941
0.09143 0.31522 -0.20589
0.01768 0.24301 -0.16534
0.01786 0.24269 -0.16464
0.04838 0.34610 -0.19938
-0.08977 -0.03397 0.01984
-0.04712 -0.02884 0.01482
0.01165 -0.02731 0.00818
0.12139 -0.01284 -0.00215
-0.00502 0.00224 0.00836
-0.04713 -0.02887 0.01495
0.02871 -0.06215 0.00718
-0.01256 0.16275 -0.12140
-0.03311 -0.04436 0.01405
0.03744 -0.06174 0.00724
0.01043 0.25197 -0.17200
-0.02114 -0.04366 0.01261
0.11676 -0.02830 -0.00356
0.05853 -0.04175 0.00370
0.05022 -0.01085 0.00439
-0.00369 -0.06358 0.01114
-0.00557 0.23861 -0.15495
0.09633 -0.02602 -0.00135
-0.07548 0.33314 -0.19937
0.07851 0.22514 -0.20999
0.08533 0.43791 -0.33702
0.04656 0.34530 -0.24497
0.03171 0.30921 -0.24839
0.04132 -0.01547 0.00418
0.05362 -0.05729 0.00389
-0.00382 -0.05915 0.01166
0.04819 -0.04646 0.00512
0.04137 -0.01549 0.00420
0.01046 -0.06452 0.00907
-0.02193 -0.04523 0.01430
-0.07823 -0.04516 0.01843
0.06065 -0.03095 0.00291
-0.02106 -0.04831 0.01247
0.09558 0.30010 -0.17952
0.05267 0.23813 -0.24643
0.05011 -0.01376 0.00338
0.02357 0.00206 0.00485
0.04649 -0.05862 0.00582
-0.08982 -0.03014 0.01977
0.08027 0.22825 -0.20376
0.05022 0.23890 -0.24257
0.05020 0.23866 -0.23990
0.08202 -0.02668 -0.00020
-0.00958 -0.01420 0.00980
-0.02317 0.26835 -0.17929
-0.01100 0.38945 -0.26703
-0.00478 -0.05985 0.01217
0.09338 -0.04332 -0.00004
-0.02639 -0.01435 0.01180
-0.02157 0.34170 -0.20780
0.05936 -0.01446 0.00216
0.05489 -0.02876 0.00382
0.00902 0.18052 -0.12763
0.05647 0.33048 -0.23893
-0.08747 -0.04794 0.02036
-0.09388 -0.01637 0.01956
-0.09400 -0.01678 0.02030
0.00843 0.25102 -0.16663
-0.02161 0.22788 -0.16267
-0.07329 0.23489 -0.17155
0.03076 -0.04431 0.00627
0.19261 -0.11422 -0.00680
0.00543 0.35632 -0.25660
0.09458 0.23368 -0.19611
-0.03446 0.27659 -0.22831
-0.02581 0.29087 -0.24383
0.02890 -0.04457 0.00807
0.02410 -0.06137 0.00970
-0.02898 -0.00082 0.01143
-0.00637 0.17859 -0.12665
0.07425 -0.01212 -0.00001
0.11097 -0.04276 -0.00230
0.08399 0.23053 -0.21797
0.08425 0.23083 -0.21093
-0.04508 0.24017 -0.10754
0.09978 0.23866 -0.18535
0.00712 -0.04521 0.00976
0.06075 -0.00080 0.00144
0.09122 -0.04384 -0.00053
-0.02315 0.28590 -0.21933
-0.07906 -0.04806 0.02078
0.00378 0.13432 -0.13943
0.00567 -0.05974 0.00796
0.03312 -0.02827 0.00662
0.06766 0.23266 -0.23952
0.06397 0.25078 -0.22057
0.00856 -0.04667 0.00869
0.06381 0.23814 -0.22843
0.05526 0.23978 -0.19293
-0.00144 -0.06140 0.01139
0.05568 0.24027 -0.24547
0.04310 0.27314 -0.17271
0.07657 0.22909 -0.21076
0.09256 0.23721 -0.19587
0.05856 -0.04658 0.00376
-0.13459 0.40915 -0.24578
0.12348 -0.00925 -0.00479
-0.05010 -0.05007 0.01630
0.03910 -0.01312 0.00462
-0.02429 0.30804 -0.22873
0.02659 -0.00339 0.01756
-0.05886 -0.03121 0.01582
-0.00935 -0.03008 0.01027
-0.07321 0.23634 -0.17788
-0.02321 0.22678 -0.16918
0.10311 -0.02418 -0.00260
0.04956 0.33918 -0.23548
-0.01036 0.14492 -0.13854
0.10271 -0.01037 -0.00289
0.01513 -0.02956 0.00781
-0.08307 0.21697 -0.15949
0.04972 -0.01292 0.00313
0.03533 -0.00947 0.00440
-0.04340 0.00434 0.01276
-0.00852 0.00001 0.00775
0.01789 -0.02580 0.00725
-0.02728 -0.02790 0.01255
-0.02365 -0.02679 0.01174
-0.05074 -0.01708 0.01431
-0.05097 -0.01270 0.01427
-0.01063 0.25023 -0.15972
0.05786 -0.02504 0.00277
-0.01046 0.00493 0.00902
-0.00703 0.13609 -0.14321
0.00056 -0.04202 0.01001
0.04712 -0.00925 0.00322
0.11257 -0.02378 -0.00292
0.11253 -0.02370 -0.00306
-0.05456 -0.01175 0.01460
-0.04441 -0.04306 0.01499
-0.08590 -0.01968 0.01878
-0.00619 -0.06490 0.01183
0.11801 -0.00770 -0.00453
-0.08840 -0.01869 0.01903
-0.01238 0.38409 -0.20197
0.08398 0.22583 -0.20297
-0.01981 -0.00220 0.01061
-0.02002 0.00478 0.01002
0.03703 -0.05765 0.00630
-0.02830 -0.05839 0.01398
-0.02834 -0.05830 0.01391
0.02283 -0.01353 0.00618
-0.03269 -0.01825 0.01261
-0.00913 -0.02647 0.01038
-0.16310 0.19964 -0.12834
-0.02380 -0.04260 0.01272
-0.01250 -0.05787 0.01196
0.09836 -0.02406 -0.00161
-0.04328 -0.00246 0.01302
0.01253 -0.02574 0.00786
0.09858 -0.03119 -0.00117
-0.02438 -0.01429 0.01132
0.03887 -0.01646 0.00437
-0.00220 -0.00164 0.00860
-0.00228 -0.00162 0.00840
0.00194 0.00549 0.00759
0.09570 0.23800 -0.19454
-0.03892 -0.04954 0.01475
0.04063 0.00356 0.00684
-0.04083 0.00090 0.01268
-0.04425 -0.04987 0.01529
-0.04420 -0.04996 0.01530
-0.00098 -0.06501 0.01137
-0.03490 -0.04276 0.01387
0.01538 -0.04139 0.00837
0.01537 -0.04133 0.00832
0.07686 -0.04031 0.00165
0.07932 0.00021 -0.00120
-0.03668 0.00461 0.01203
-0.03669 0.00459 0.01204
-0.08174 -0.01271 0.01793
0.02274 -0.01680 0.00617
-0.07148 -0.02881 0.01751
-0.05895 -0.01347 0.01521
-0.05538 0.27495 -0.22232
0.00595 -0.01020 0.00789
0.10795 -0.04643 -0.00144
-0.02246 -0.06520 0.01355
-0.06042 -0.01893 0.01568
-0.05422 0.41596 -0.48701
0.02525 -0.03276 0.00688
-0.04698 -0.03343 0.01443
0.00476 0.24270 -0.15197
-0.04408 -0.03465 0.01511
-0.04419 -0.03437 0.01479
0.03348 -0.05666 0.00683
0.06337 -0.03175 0.00267
0.06333 -0.03167 0.00259
-0.05540 0.00433 0.01412
-0.05540 0.00432 0.01412
-0.03070 -0.02693 0.01280
-0.05854 -0.00266 0.01470
0.03469 0.29822 -0.24613
0.09446 -0.03122 -0.00082
0.09446 -0.03122 -0.00082
0.02411 -0.01162 0.00596
0.02788 0.33364 -0.25516
-0.07140 -0.03413 0.01764
0.04377 -0.00975 0.00362
0.04377 -0.00969 0.00362
0.08815 -0.01561 -0.00085
0.08821 -0.01567 -0.00075
-0.09147 -0.02862 0.01980
0.06898 -0.00347 0.01548
-0.08599 -0.01283 0.01837
0.04396 -0.01628 0.00397
0.07126 -0.01569 0.00091
0.01835 -0.04572 0.01051
0.01837 -0.04421 0.00775
0.08122 0.00286 -0.00063
0.01000 -0.03330 0.00859
0.07266 -0.00013 0.00013
-0.00822 -0.04197 0.01096
0.01090 -0.05915 0.00955
0.05568 -0.00915 0.00233
0.11848 0.38029 -0.15391
0.06583 -0.04741 0.00335
-0.07167 -0.01213 0.01657
0.08780 0.40609 -0.25539
-0.06067 -0.04442 0.01671
0.11815 -0.00794 -0.00412
-0.07021 -0.05061 0.01844
-0.07020 -0.05052 0.01836
0.08063 0.00508 -0.00104
0.08074 0.00491 -0.00071
0.11590 -0.02740 -0.00288
0.06794 -0.03173 0.00229
0.00811 0.25125 -0.16911
0.11304 0.35046 -0.17849
0.08177 0.00397 -0.00134
0.05301 0.22600 -0.20650
-0.09489 0.23009 -0.20758
-0.04172 -0.04424 0.01507
0.02719 -0.06401 0.00807
-0.09089 -0.01947 0.01918
-0.01379 -0.04929 0.01206
-0.06006 -0.05054 0.01732
-0.13077 0.29181 -0.17302
-0.06362 0.27310 -0.18073
0.00444 -0.04245 0.00976
0.00429 -0.04229 0.00933
-0.02549 -0.00099 0.01082
-0.08162 -0.01957 0.01853
0.05959 0.00521 0.00097
0.05954 0.00489 0.00141
0.10856 0.35288 -0.17966
0.04834 -0.01200 0.00343
0.16621 0.20658 -0.10005
0.05254 0.00306 0.00217
-0.05833 -0.02907 0.01593
0.03515 0.00080 0.00390
-0.05838 -0.02902 0.01578
-0.00279 -0.01757 0.00925
0.01322 -0.04905 0.00894
0.01322 -0.04905 0.00894
-0.02111 -0.04366 0.01255
-0.02554 0.00326 0.01070
-0.08003 -0.04995 0.01957
-0.00141 -0.06136 0.01089
-0.08155 -0.01637 0.01827
0.08322 0.00362 -0.00100
-0.04772 -0.01816 0.01425
-0.01110 -0.04158 0.01108
0.06133 -0.05572 0.00370
0.05514 -0.05601 0.00477
0.06100 -0.04435 0.00337
-0.08610 -0.01649 0.01881
-0.07378 -0.02986 0.01810
0.08535 -0.04528 0.00061
0.03489 0.29801 -0.24490
0.06225 0.23865 -0.23728
0.07400 0.00526 -0.00004
0.02865 -0.05863 0.00793
0.06846 -0.03989 0.00244
0.07331 -0.01074 0.00236
0.00911 -0.06359 0.01010
-0.00134 -0.01625 0.00917
0.03011 -0.03101 0.00619
0.05798 0.33176 -0.23160
-0.01966 0.28333 -0.21451
-0.04164 -0.00101 0.01281
-0.04179 -0.00102 0.01276
-0.00123 0.32247 -0.22038
0.01042 0.16740 -0.12992
-0.09000 -0.04414 0.02041
0.05230 -0.04786 0.00374
0.03911 -0.05805 0.00618
0.06035 -0.05786 0.00432
-0.01799 0.15268 -0.11835
-0.08720 -0.04853 0.02041
-0.08192 -0.04381 0.01948
-0.08192 -0.04381 0.01948
0.00075 -0.04543 0.01023
0.02873 -0.06247 0.00773
0.11605 -0.04074 -0.00253
-0.00366 -0.06359 0.01137
-0.01303 -0.03178 0.01094
0.00609 0.17915 -0.13085
0.09692 0.32797 -0.18801
0.11573 -0.04392 -0.00444
-0.09673 -0.01972 0.01984
-0.08041 0.15443 0.09712
0.00753 -0.04927 0.00961
-0.07098 0.33649 -0.20451
-0.07098 0.33649 -0.20451
0.05538 0.00336 0.00159
-0.05943 -0.01431 0.01524
0.09247 -0.03030 -0.00040
0.09303 -0.03074 0.00144
-0.06257 -0.01339 0.01540
0.07944 0.00350 -0.00069
-0.03197 -0.03246 0.01368
-0.09386 -0.02020 0.01963
0.05961 -0.02671 0.00296
0.06192 -0.02989 0.00262
0.04202 0.34827 -0.23143
-0.01970 0.30766 -0.24261
0.06388 -0.00026 0.00111
0.01521 -0.02997 0.00809
-0.03134 0.00353 0.01145
0.00151 0.16644 -0.13917
-0.03290 -0.01125 0.01199
0.00316 -0.05773 0.01035
0.00315 -0.05770 0.01032
-0.00621 -0.06476 0.01175
-0.07539 -0.02831 0.01794
0.05233 -0.06329 0.00527
-0.02360 -0.04922 0.01298
-0.03129 -0.01316 0.01243
0.06791 -0.02823 0.00202
0.02728 -0.06057 0.00812
0.01395 0.18693 -0.13174
0.06724 -0.04590 0.00284
0.11696 -0.02771 -0.00356
0.10877 0.35283 -0.17904
-0.00285 -0.05944 0.01120
0.10524 0.31121 -0.17582
0.10532 0.31118 -0.17553
-0.08157 -0.01929 0.01818
0.07503 -0.00041 -0.00024
0.07505 -0.00043 -0.00023
0.01476 -0.01018 0.00702
0.04971 -0.04098 0.00461
0.03615 0.00253 0.00396
-0.02391 -0.00258 0.01096
-0.02381 0.34448 -0.21661
0.08983 -0.04230 0.00033
-0.05867 0.00382 0.01462
0.07424 -0.00846 0.00036
0.09664 -0.00745 -0.00332
0.02678 -0.00976 0.00549
-0.00457 -0.03348 0.01048
-0.02775 -0.06529 0.01475
0.06911 -0.00019 0.00048
-0.00276 -0.01752 0.00918
0.07266 0.00330 0.00012
-0.02359 -0.04931 0.01300
-0.02411 -0.03322 0.01235
-0.12762 0.28449 -0.14976
0.11490 -0.00757 -0.00408
0.05686 -0.01272 0.00246
-0.00626 -0.01607 0.00961
-0.04056 -0.00296 0.01271
-0.04056 -0.00296 0.01271
0.07675 -0.04003 -0.00457
-0.02443 0.30797 -0.22820
0.07916 0.00682 -0.00094
0.11831 -0.03070 -0.00357
-0.02243 -0.02005 0.01508
-0.03900 -0.04301 0.01460
0.05457 -0.03260 0.00377
0.05451 -0.03248 0.00364
0.08592 0.30885 -0.22552
0.06129 -0.01211 0.00118
-0.03226 -0.04619 0.01380
-0.03225 -0.04621 0.01378
0.08277 -0.01526 -0.00029
-0.05291 -0.03474 0.01560
-0.07137 -0.02853 0.01734
0.02251 -0.02680 0.00680
-0.05202 -0.01449 0.01436
0.02654 -0.01566 0.00574
0.08091 -0.04686 0.00176
-0.09081 -0.01973 0.01941
0.06775 -0.03001 0.00220
0.03991 -0.04443 0.00556
0.09346 -0.02811 -0.00050
0.11061 -0.03875 -0.00247
0.10762 -0.03048 -0.00252
-0.03195 -0.05007 0.01397
0.03682 -0.03169 0.00564
0.10364 -0.02368 -0.00249
-0.11181 0.23941 -0.20987
0.03168 -0.01405 0.00525
0.05914 -0.02723 0.00294
0.05073 0.30225 -0.22541
-0.03509 -0.03356 0.01313
0.05996 -0.04518 0.00341
-0.08751 -0.04773 0.02007
-0.08158 -0.04967 0.01962
0.05573 -0.04058 0.00372
-0.04405 -0.04683 0.01547
-0.05878 -0.03501 0.01620
0.02434 -0.01400 0.00608
-0.00458 -0.04641 0.01075
-0.02890 -0.01709 0.01190
-0.06817 -0.01338 0.01648
-0.04276 0.05276 -0.08506
-0.06325 -0.04694 0.01672
-0.05922 -0.03066 0.01610
-0.02105 -0.04820 0.01229
0.03911 -0.04730 0.00600
-0.02620 -0.06331 0.01402
0.03894 -0.04327 0.00578
-0.06039 -0.03060 0.01597
-0.08028 -0.01800 0.01788
-0.09387 -0.02023 0.01967
-0.05706 -0.03518 0.01621
0.03978 -0.02704 0.00492
0.07215 -0.00932 -0.00008
-0.02187 -0.01443 0.01106
0.05075 -0.01066 0.00325
-0.07836 -0.05110 0.01915
0.03343 -0.01087 0.00486
0.02423 0.33653 -0.24655
-0.08658 -0.04838 0.01969
-0.04446 0.00387 0.01307
-0.05293 0.38613 -0.31296
0.01937 -0.00117 0.00607
0.01225 0.00211 0.00659
-0.08886 -0.04685 0.02050
-0.00502 0.00219 0.00830
0.00879 -0.00111 0.00729
-0.03388 -0.01183 0.01245
0.08130 -0.01483 -0.00034
0.11178 -0.00813 -0.00386
0.10876 -0.03992 -0.00240
-0.00589 0.00434 0.00790
-0.03682 -0.04553 0.01478
0.02524 -0.03278 0.00696
-0.04424 -0.04983 0.01528
0.03730 0.00312 0.00295
0.01802 0.00494 0.00584
-0.02280 -0.03349 0.01219
0.11668 -0.00833 -0.00445
0.03426 -0.01551 0.00494
0.05857 -0.04660 0.00377
0.10697 -0.01156 -0.00342
-0.04317 0.00084 0.01294
0.02000 -0.02971 0.00731
-0.01740 -0.04861 0.01213
-0.07161 -0.01231 0.01675
0.07430 -0.01230 0.00026
0.11435 -0.03941 -0.00251
0.05287 -0.04446 0.00458
0.05278 -0.04433 0.00435
0.02890 -0.04428 0.00646
-0.11060 0.22328 -0.20139
0.08041 -0.04128 0.00105
0.08032 -0.04110 0.00094
0.09101 -0.01025 -0.00080
-0.03153 -0.01490 0.01216
0.06197 -0.00935 0.00175
0.02705 -0.04349 0.00700
-0.08476 -0.04387 0.01954
0.06460 0.00458 0.00208
0.11875 -0.01421 -0.00434
0.00764 -0.04942 0.00976
-0.08008 -0.01406 0.01774
0.04011 -0.06279 0.00645
0.08107 0.00163 -0.00083
0.04988 0.00627 0.00221
0.11191 -0.01490 -0.00332
-0.02516 -0.01827 0.01202
0.10816 -0.01384 -0.00182
-0.00658 -0.00066 0.00857
0.07782 -0.01553 0.00014
-0.00484 -0.02606 0.00994
0.05805 -0.03177 0.00302
0.10102 -0.00624 -0.01013
-0.00858 -0.00031 0.00892
0.09860 -0.03129 -0.00101
-0.06548 -0.05020 0.01796
0.03750 -0.04107 0.00555
-0.04441 -0.04308 0.01500
-0.04731 -0.01164 0.01359
-0.09100 -0.01299 0.01905
-0.01476 -0.00181 0.00979
0.04627 0.00015 0.00421
0.10927 -0.02957 -0.00091
0.02255 -0.01007 0.00598
-0.01432 -0.03327 0.01081
0.10079 -0.04673 -0.00045
0.02058 -0.05711 0.00795
0.01482 0.18844 -0.12870
-0.02915 -0.01162 0.01104
-0.08533 -0.02916 0.01819
-0.08533 -0.02916 0.01819
-0.08581 -0.01949 0.01880
0.03410 -0.01193 0.00414
-0.07023 -0.05038 0.01845
-0.01379 -0.04937 0.01212
-0.00648 -0.05797 0.01166
0.01300 0.16402 -0.12468
0.00210 -0.04399 0.01035
-0.01837 -0.04915 0.01244
-0.01992 -0.00225 0.01108
-0.00470 -0.03392 0.01128
0.01367 0.00030 0.00616
0.01367 0.00032 0.00619
0.07406 0.00137 -0.00002
-0.03703 -0.01723 0.01282
-0.03703 -0.01723 0.01282
-0.01848 -0.04255 0.01224
-0.01852 -0.04237 0.01181
0.08538 -0.04147 0.00062
-0.05288 -0.03479 0.01566
0.01582 -0.04738 0.00866
0.09182 0.06699 -0.20204
-0.07024 -0.04390 0.01810
0.08382 -0.01105 -0.00114
0.08499 -0.03154 0.00054
0.08496 -0.03135 0.00040
0.05954 0.00528 0.00081
-0.01868 -0.04557 0.01164
-0.03225 -0.00366 0.01925
-0.01198 0.32897 -0.20457
-0.01286 0.32809 -0.19700
-0.00123 -0.05812 0.01128
0.01174 0.13838 -0.13290
0.04561 0.33661 -0.23884
0.06024 -0.05772 0.00403
0.01531 0.15359 -0.12856
0.03919 -0.04627 0.00561
0.06032 -0.05267 0.02268
-0.04177 0.00274 0.01278
0.03015 -0.02695 0.00588
-0.07513 -0.03191 0.01813
0.00846 0.17175 -0.12366
0.08550 -0.04579 0.00136
-0.00320 -0.03183 0.01000
-0.00323 -0.03175 0.00980
-0.00001 0.16541 -0.14362
0.06035 -0.06172 0.00427
-0.01229 -0.04378 0.01154
0.03915 -0.05778 0.00584
0.01494 0.16209 -0.14612
-0.00376 0.15590 -0.14110
0.06127 0.24060 -0.24387
0.08019 0.22715 -0.20540
0.08029 0.22714 -0.20523
0.10001 -0.02462 -0.00485
-0.02529 -0.02793 0.01238
0.07117 0.23544 -0.23890
-0.06279 -0.01748 0.01693
-0.06279 -0.01748 0.01693
0.04010 -0.06277 0.00642
0.03505 -0.05810 0.00670
-0.06255 -0.01343 0.01545
-0.08489 -0.04388 0.01933
-0.02692 -0.03237 0.01262
-0.01497 -0.06535 0.01265
0.01452 0.16380 -0.14947
0.05313 0.23772 -0.24428
0.03921 -0.04275 0.00582
0.01881 0.14407 -0.11645
0.01877 0.14639 -0.12531
-0.08930 -0.01820 0.01883
-0.07120 -0.03134 0.01801
-0.03035 -0.05993 0.01423
-0.01843 0.00310 0.01016
0.01123 0.16809 -0.12849
0.07834 0.22438 -0.20788
0.02975 -0.05672 0.00804
0.10563 -0.02750 -0.00198
-0.04157 -0.04910 0.01535
0.03781 -0.04789 0.00618
0.00669 0.13854 -0.13705
0.04477 -0.00045 0.00799
0.09342 -0.04337 0.00001
-0.02973 -0.03329 0.01307
0.01808 0.15279 -0.12247
0.06974 0.00443 0.00046
0.07389 0.23930 -0.22544
-0.00891 0.00329 0.00911
-0.03946 -0.03040 0.01434
0.05447 -0.04641 0.00373
-0.09128 -0.03528 0.01999
0.02864 -0.03241 0.00644
-0.00889 0.00316 0.00923
0.05666 -0.01523 0.00255
-0.05031 -0.04358 0.01585
-0.08861 -0.01394 0.01855
0.11194 -0.01489 -0.00331
0.02084 -0.00036 0.00621
-0.03074 -0.02688 0.01274
0.03886 -0.01637 0.00445
-0.02724 -0.02785 0.01244
0.10053 -0.03982 -0.00097
0.08877 -0.02441 -0.00040
0.03872 -0.00967 0.00418
-0.08600 -0.01282 0.01836
-0.01395 -0.04217 0.01140
0.05011 -0.00047 0.00265
-0.05474 -0.00074 0.01405
-0.04936 -0.03132 0.01518
-0.01236 -0.06483 0.01236
-0.06009 -0.05032 0.01714
0.03128 -0.01246 0.00531
0.03793 -0.04443 0.00576
0.06151 -0.05593 0.00420
0.04523 -0.06350 0.00611
0.10686 0.28847 -0.18609
-0.02382 -0.04263 0.01264
0.02844 -0.02574 0.00612
-0.01390 -0.04226 0.01186
0.02712 -0.04318 0.00681
0.09124 -0.02750 -0.00193
0.01759 0.23927 -0.16995
0.02871 -0.05859 0.00798
-0.09181 0.30074 -0.20829
-0.02968 0.33765 -0.21351
-0.04162 -0.04962 0.01725
0.06077 -0.04399 0.00305
0.05456 0.33238 -0.23803
-0.09066 0.23411 -0.20615
0.08220 0.22907 -0.20847
0.08655 0.23654 -0.22271
-0.05073 -0.01707 0.01428
-0.09267 0.21806 -0.19800
-0.05854 -0.00278 0.01478
0.10367 0.38506 -0.18446
0.08737 0.41153 -0.26786
0.00622 0.17884 -0.12954
-0.01048 0.30790 -0.22793
0.06003 0.24131 -0.22593
0.06940 -0.03025 0.00201
0.04064 0.40572 -0.25782
0.08641 0.39686 -0.23807
0.08738 0.39945 -0.24443
-0.01396 0.29660 -0.22773
-0.01396 0.29660 -0.22773
0.11277 0.35685 -0.17381
-0.09812 0.23704 -0.21537
0.07047 0.23813 -0.23350
0.08675 0.39663 -0.23935
0.00195 0.16725 -0.14231
0.09449 0.34382 -0.17244
-0.03137 0.30139 -0.24456
0.01526 -0.03210 0.00795
0.01238 0.16158 -0.11567
0.05175 0.00130 0.00167
0.05172 0.00102 0.00214
-0.01100 0.17962 -0.12551
0.06291 -0.00915 0.00133
-0.03974 0.39656 -0.31507
-0.01324 0.32944 -0.20612
0.06119 -0.00993 0.00080
-0.01558 0.20902 -0.14825
0.03332 0.30236 -0.24827
-0.02641 0.33415 -0.21175
-0.07805 0.21920 -0.16269
0.09550 0.23510 -0.18281
0.03963 0.26601 -0.15887
0.09657 0.34381 -0.17302
-0.08679 0.22622 -0.20649
-0.00112 0.48539 -0.61459
0.04622 0.00136 0.00236
0.01457 0.15327 -0.13159
0.05231 -0.00946 0.00269
-0.05297 -0.00030 0.01671
0.00326 0.16639 -0.13862
0.00304 0.16585 -0.13691
-0.03623 0.30078 -0.24821
0.07388 0.23096 -0.21522
0.07278 0.23871 -0.22651
0.00249 -0.04726 0.00993
-0.03310 -0.04408 0.01362
0.01351 0.15876 -0.12355
-0.03090 0.29550 -0.25510
0.09637 0.29606 -0.19554
0.05168 -0.03154 0.00352
-0.08984 0.30375 -0.20773
-0.03471 -0.04261 0.01377
-0.03474 -0.04283 0.01384
-0.01772 0.14893 -0.12638
0.10064 -0.03991 -0.00092
-0.02559 0.33233 -0.22858
-0.02559 0.33233 -0.22858
0.06300 -0.02866 0.00239
0.01890 -0.01144 0.00650
-0.04164 -0.00105 0.01284
-0.00553 -0.04828 0.01101
-0.04977 0.37986 -0.29880
0.10007 0.25830 -0.23246
-0.07918 -0.03390 0.01853
-0.07902 -0.03356 0.01830
-0.08479 0.31136 -0.19673
0.08268 0.37401 -0.23421
0.01170 0.16177 -0.12493
0.05565 0.23629 -0.24293
0.10460 -0.04523 -0.00156
-0.09142 0.23555 -0.20583
0.11113 0.35376 -0.17731
0.07397 0.00508 0.00055
-0.01449 0.25385 -0.17146
-0.01240 -0.04395 0.01172
0.07427 0.22695 -0.20921
-0.01341 0.21157 -0.14652
0.03214 0.28907 -0.23330
0.03214 0.28907 -0.23330
-0.00322 -0.02771 0.00965
0.11691 0.36064 -0.17099
-0.01469 0.20659 -0.14579
-0.01121 0.19193 -0.13389
0.06598 -0.04407 0.00325
-0.00904 -0.03329 0.01071
-0.00904 -0.03329 0.01071
-0.00320 -0.03162 0.00952
0.00699 0.16034 -0.13589
0.01373 0.00024 0.00626
-0.09166 0.22705 -0.20680
0.06564 0.24779 -0.22594
-0.00468 -0.03312 0.00982
-0.11158 0.23930 -0.20931
-0.02113 0.33869 -0.22111
0.02087 0.00425 0.00565
0.03012 -0.02704 0.00610
0.02014 0.22420 -0.15321
0.03996 0.40288 -0.26774
0.02861 -0.05859 0.00770
-0.07813 0.22309 -0.16564
-0.02812 0.27697 -0.21437
-0.04413 -0.04681 0.01533
-0.04420 -0.03423 0.01474
0.09377 -0.03122 0.00452
0.01430 0.24017 -0.17402
0.01910 0.22468 -0.15785
-0.10051 0.24042 -0.20940
0.02120 0.19663 -0.12964
-0.13485 0.40169 -0.24001
0.10277 0.28764 -0.19186
-0.09452 0.30242 -0.21059
0.11021 -0.01352 -0.00279
0.00431 0.01471 -0.08736
-0.03570 0.29282 -0.25735
-0.08390 -0.01797 0.01966
0.10496 0.31209 -0.17826
0.03946 -0.04637 0.00552
0.00834 0.27297 -0.19052
0.08039 0.39119 -0.23858
-0.03475 -0.01292 0.01281
-0.02185 0.00357 0.00948
0.05701 0.31173 -0.22053
-0.04547 -0.01348 0.01321
0.03493 0.29269 -0.24075
-0.06007 -0.05019 0.01726
-0.02543 0.28127 -0.21497
0.10722 0.36360 -0.17323
-0.02820 -0.05813 0.01328
0.05967 -0.03053 0.00361
-0.09817 0.24498 -0.21001
-0.00822 0.18321 -0.12509
0.06547 0.23150 -0.23826
-0.06482 0.21632 -0.13086
0.06051 -0.02607 0.00272
-0.01629 0.14555 -0.12669
0.04244 0.27579 -0.16180
-0.02521 -0.06212 0.01403
0.01176 -0.04789 0.00928
0.04209 0.27424 -0.16380
0.02660 -0.03067 0.00695
-0.04171 -0.04416 0.01496
-0.02233 0.00031 0.01109
-0.01512 0.13536 -0.12119
-0.05119 0.21021 -0.12866
-0.05041 0.20471 -0.12176
0.00454 0.17780 -0.13389
0.10595 -0.04307 -0.00130
-0.04149 -0.05046 0.01713
0.06269 0.00216 0.00116
0.00731 0.16930 -0.13367
0.02249 0.29811 -0.23981
0.07523 0.25309 -0.22925
-0.00621 0.18099 -0.12253
-0.05201 -0.04969 0.01772
0.19274 -0.11551 -0.00471
-0.04908 0.20961 -0.12755
0.00102 0.19666 -0.13332
-0.08851 -0.02973 0.02009
-0.10971 0.23984 -0.20963
-0.00645 -0.05775 0.01154
-0.08227 -0.03184 0.01899
-0.05129 0.19956 -0.11513
0.07667 0.00217 0.00081
0.05969 0.00114 0.00144
0.01217 -0.00129 0.00683
0.03272 -0.01039 0.00531
0.05961 -0.01447 0.00263
0.12248 -0.01335 -0.00419
-0.03609 -0.00199 0.01233
-0.09683 -0.01304 0.01965
-0.01374 -0.04594 0.01184
-0.09683 -0.01306 0.01967
-0.03129 -0.01314 0.01242
0.10785 -0.03973 -0.00168
-0.07522 -0.03503 0.01823
0.00001 0.00004 0.00836
0.01363 0.00439 0.00593
-0.03026 0.27347 -0.19893
0.03456 -0.06283 0.00707
0.02073 -0.01189 0.00642
0.05121 0.22998 -0.18891
-0.10595 0.22980 -0.21612
0.02523 0.33972 -0.24480
-0.04005 -0.01492 0.01321
-0.05553 0.39086 -0.32657
0.05927 0.23376 -0.24205
-0.10261 0.24286 -0.21284
0.11247 0.35718 -0.17504
-0.09877 0.22941 -0.21703
-0.02496 0.27574 -0.22006
0.04132 -0.01090 0.00418
0.11169 0.34303 -0.18620
-0.11555 0.22920 -0.20905
-0.06542 0.28444 -0.26014
0.04485 -0.00473 -0.01034
0.05147 0.22710 -0.21164
0.05600 -0.04779 0.00468
-0.02578 0.32960 -0.21674
0.00852 0.23902 -0.15524
0.04439 0.30067 -0.21375
-0.02144 0.29505 -0.23700
0.06668 0.24057 -0.24002
0.01028 0.38400 -0.23149
0.02765 0.28815 -0.34876
0.03611 0.29932 -0.24854
-0.07077 0.27350 -0.17514
0.04539 0.27265 -0.17797
0.07553 0.40463 -0.27823
-0.03049 0.31158 -0.22307
0.05462 0.39524 -0.23207
0.11641 0.36104 -0.17409
0.09600 0.24033 -0.19305
0.05373 0.33740 -0.23605
0.10214 0.23443 -0.18095
-0.06465 0.33040 -0.19837
-0.07418 0.27619 -0.20305
0.08107 -0.02633 0.00085
-0.11116 0.23795 -0.21144
-0.05904 0.38688 -0.29339
-0.00097 0.17978 -0.13601
-0.00669 0.19162 -0.12926
-0.07689 0.27712 -0.17883
0.10497 0.35553 -0.17655
-0.06711 0.32721 -0.21061
0.01972 0.24532 -0.16043
0.05474 0.22339 -0.20631
-0.02873 0.32910 -0.22439
0.07906 0.42360 -0.31813
0.05585 0.23863 -0.19008
-0.07117 0.32518 -0.16289
-0.00426 0.15864 -0.13920
-0.05913 0.37799 -0.30358
0.06787 0.24162 -0.24277
-0.00082 0.32871 -0.22955
0.06113 0.25972 -0.22445
-0.04479 0.27944 -0.25848
-0.03133 0.33244 -0.22386
-0.11553 0.24130 -0.20457
-0.03261 0.32881 -0.22672
-0.12056 0.38378 -0.21203
-0.00199 0.16338 -0.14103
0.01383 0.34292 -0.25736
-0.01083 0.31878 -0.37114
0.01422 0.28117 -0.26334
-0.05666 0.28088 -0.25120
-0.00173 0.28178 -0.19102
-0.10651 0.23517 -0.21279
0.00783 0.22527 -0.14901
-0.12115 0.28812 -0.19764
-0.12001 0.36130 -0.20721
-0.09531 0.37071 -0.21735
-0.03313 -0.04831 0.01415
-0.01306 0.30744 -0.24733
0.02274 0.20427 -0.13997
-0.05977 0.38034 -0.29058
0.04925 0.21902 -0.16833
-0.00602 0.32341 -0.20912
0.05491 0.31447 -0.22660
-0.00595 0.32676 -0.20610
-0.00391 0.26569 -0.16985
0.05109 0.24042 -0.19314
-0.12015 0.39254 -0.21662
-0.00736 0.31147 -0.28516
-0.01804 0.21752 -0.15507
-0.06461 0.32103 -0.20841
0.02077 0.33181 -0.25518
-0.03250 -0.05861 0.01421
0.11791 0.26397 -0.16075
-0.00624 0.36228 -0.23465
0.00413 0.28953 -0.25955
0.00904 0.24203 -0.17173
-0.00893 0.38271 -0.23602
0.02913 0.31339 -0.25843
0.00092 0.22998 -0.14378
0.00999 0.35114 -0.34079
0.02116 0.21597 -0.14998
-0.01980 0.00144 0.01014
-0.00737 0.24740 -0.16202
0.00616 0.23863 -0.15272
-0.01177 0.17284 -0.12470
-0.11460 0.30241 -0.21434
0.08158 0.31468 -0.23376
0.12742 0.25837 -0.09281
-0.03562 0.21903 -0.13110
-0.02084 0.22394 -0.16149
-0.11236 0.25068 -0.20747
0.05696 0.32029 -0.23640
0.04350 0.22787 -0.14531
-0.13248 0.26293 -0.14727
0.06311 0.30490 -0.22936
0.00136 0.30874 -0.25443
0.01085 0.14560 -0.13744
-0.01109 0.22537 -0.14890
-0.06003 0.28019 -0.24912
-0.07051 0.22766 -0.15480
-0.03281 0.19383 -0.11587
-0.00981 0.23165 -0.14273
0.04873 0.23568 -0.23407
-0.06953 0.28119 -0.13538
-0.08446 0.23795 -0.21209
0.01617 0.35958 -0.22944
-0.01165 0.26151 -0.16642
-0.03822 0.21501 -0.12302
0.01711 0.21043 -0.14844
0.05895 -0.00952 -0.00019
0.01531 0.19998 -0.13937
0.06274 0.24235 -0.21197
0.06549 0.24019 -0.20130
-0.04865 0.20743 -0.12522
0.02497 -0.00068 0.00719
-0.08189 0.30299 -0.19021
0.00178 0.24057 -0.15371
-0.04073 0.23602 -0.14928
0.00907 0.23048 -0.14833
-0.01995 0.32624 -0.21961
0.04099 0.35376 -0.26243
-0.02265 0.25825 -0.16978
-0.03036 0.20879 -0.13357
-0.03289 -0.01131 0.01184
-0.04338 0.00414 0.01286
-0.12772 0.39523 -0.22207
0.00803 0.17553 -0.13215
-0.03230 0.34596 -0.21621
-0.08500 0.23350 -0.19365
-0.09783 0.23930 -0.21908
-0.05405 0.37267 -0.30269
-0.10311 0.24146 -0.21438
0.05317 0.22149 -0.21512
-0.00826 0.39132 -0.24755
-0.02611 0.20174 -0.13629
-0.02299 -0.01509 0.01132
0.06336 -0.03152 0.00251
0.09197 0.39222 -0.21398
0.08761 0.39889 -0.23738
0.00547 0.15720 -0.13861
0.08506 0.39592 -0.24228
0.08819 0.40499 -0.26762
0.08552 0.40594 -0.28317
0.08633 0.39987 -0.24152
-0.01254 -0.05787 0.01130
-0.00939 -0.03020 0.01069
-0.12472 0.29305 -0.15019
-0.06023 -0.03278 0.01597
0.05902 -0.05984 0.00464
0.01034 -0.04839 0.00906
-0.04401 -0.04690 0.01557
0.11658 -0.02966 -0.00258
-0.14480 0.42762 -0.31256
0.06106 -0.02754 0.00618
0.01151 0.38234 -0.22538
-0.01168 -0.03270 0.01114
-0.08848 -0.01758 0.01612
0.10448 -0.01153 -0.00299
0.11323 -0.03016 -0.00273
0.08041 -0.01418 0.00125
0.07417 0.22979 -0.22349
-0.16850 -0.01703 0.02189
-0.03828 0.38201 -0.15701
-0.01329 0.15819 -0.12178
-0.00185 0.26744 -0.17074
-0.00369 -0.06358 0.01114
0.11261 -0.02391 -0.00302
-0.12402 0.40668 -0.31377
0.03779 -0.04553 0.00772
0.04474 0.30565 -0.22271
0.10940 0.34034 -0.19834
0.12097 -0.01271 -0.00375
0.04980 -0.04726 0.00406
-0.01372 0.32106 -0.22147
-0.04281 0.27537 -0.25775
0.07752 -0.04419 0.00141
0.08701 0.43037 -0.33531
-0.01280 0.30021 -0.23064
-0.16626 -0.06948 0.02216
-0.00417 -0.02725 0.00942
-0.09541 0.23507 -0.21370
-0.01144 0.23192 -0.15032
0.08893 -0.02529 0.00021
-0.17000 0.07078 0.00515
0.10990 0.29997 -0.18103
-0.14783 0.42872 -0.31224
-0.16338 -0.16274 0.02567
-0.14988 0.43207 -0.31248
-0.07422 0.21426 -0.14622
0.08251 0.43224 -0.33521
0.02754 0.39959 -0.32511
-0.01717 0.25848 -0.15530
-0.01749 0.28657 -0.22284
-0.07515 0.26457 -0.18944
0.01873 0.14654 -0.12540
-0.08994 0.22316 -0.20095
0.05365 0.22990 -0.24136
-0.01079 0.24499 -0.15743
-0.08151 0.18935 -0.01945
0.01102 0.24877 -0.17772
-0.01545 0.29392 -0.22826
0.03575 0.34830 -0.25331
-0.02179 0.19168 -0.12968
-0.14778 0.43517 -0.31505
0.19082 -0.16366 -0.01740
0.19092 0.07245 -0.02438
0.04719 0.29905 -0.20226
0.08290 0.44140 -0.33582
-0.00892 0.25006 -0.16344
-0.07376 0.20713 -0.13060
-0.11667 0.23357 -0.21274
-0.03407 0.30732 -0.23597
-0.06501 0.20664 -0.13073
-0.11165 0.23325 -0.20988
-0.07216 0.30196 -0.20132
0.05623 -0.00507 0.00289
0.05878 0.22964 -0.24387
0.00366 0.15746 -0.13802
-0.11048 0.23123 -0.21269
-0.11016 0.23377 -0.21980
-0.00285 0.18044 -0.13011
0.04986 0.24178 -0.24459
0.03664 -0.05361 0.00868
0.01060 0.39101 -0.22709
-0.01532 0.18872 -0.20470
0.11910 0.34669 -0.17434
-0.00555 -0.02189 0.01067
0.18551 -0.17203 -0.01573
0.00903 -0.00650 0.00967
0.11064 -0.03334 -0.00498
-0.06484 0.24120 -0.15996
-0.08159 0.29373 -0.16229
-0.00553 -0.00773 0.01276
-0.00553 -0.00773 0.01276
-0.05799 0.39049 -0.32299
-0.08730 -0.02350 0.01712
-0.05531 0.23054 -0.12514
-0.02490 0.29429 -0.24531
0.09097 0.33363 -0.23421
0.01065 0.36510 -0.24406
0.10731 0.30947 -0.17579
0.10398 -0.03723 0.00067
-0.11265 0.23171 -0.21136
0.05803 0.33270 -0.22971
0.06584 -0.04384 0.00275
-0.08675 0.21843 -0.19223
-0.02049 0.28650 -0.22129
-0.05977 0.39418 -0.30400
-0.00535 -0.04294 0.01134
-0.14955 0.43227 -0.31527
-0.01711 0.14457 -0.12402
-0.02018 0.28660 -0.21956
0.04465 0.31016 -0.23501
-0.11784 0.23346 -0.20144
-0.01419 -0.03022 0.01114
0.03636 0.29932 -0.24808
0.00813 0.25609 -0.18633
0.02889 0.19957 -0.13021
0.09573 0.39952 -0.24691
0.11175 0.36342 -0.17434
0.10814 0.39784 -0.20945
-0.04094 0.38999 -0.29640
0.05065 0.34287 -0.23031
0.03378 0.41178 -0.32776
0.03355 0.41168 -0.32652
0.03033 0.40948 -0.32260
-0.05415 0.39505 -0.32161
-0.00139 0.16730 -0.14124
0.03831 0.40353 -0.31282
0.07120 -0.00910 0.00072
0.06388 -0.00024 0.00109
0.03574 0.41467 -0.32994
-0.01116 0.18027 -0.12086
0.04130 -0.03027 0.00466
0.02849 -0.02565 0.00628
0.04881 -0.01060 0.00350
0.03848 0.41359 -0.31967
0.01918 0.00558 0.00565
-0.01303 -0.01033 0.00616
0.05952 0.22857 -0.24126
-0.00888 0.17667 -0.12566
0.03389 0.00259 0.00415
-0.03091 -0.01678 0.01227
0.08359 0.41627 -0.33018
-0.03401 0.30173 -0.24800
0.05385 -0.01312 0.00314
0.03937 0.43198 -0.32659
-0.00860 0.24059 -0.15024
0.04103 0.41542 -0.32859
-0.02693 -0.00075 0.01134
0.06304 -0.02840 0.00251
0.11189 -0.00818 -0.00368
-0.00659 -0.05789 0.01119
-0.00315 -0.04180 0.01007
-0.02916 -0.01163 0.01120
-0.00105 -0.06500 0.01185
0.00194 0.00526 0.00758
-0.12105 0.30457 -0.20242
-0.01379 -0.04917 0.01202
0.01948 -0.02798 0.00728
-0.00257 -0.01422 0.00899
0.03463 0.39397 -0.27373
0.03655 -0.01182 0.00399
-0.00133 -0.05747 0.01025
-0.02587 0.27834 -0.20244
-0.00262 -0.01748 0.00913
-0.03454 -0.04962 0.01408
0.01034 -0.04736 0.00717
-0.01654 0.33412 -0.21224
-0.01654 0.33412 -0.21224
0.08857 -0.02405 -0.00136
0.06650 0.00065 0.00138
0.08947 -0.01044 -0.00192
-0.05834 0.23932 -0.13426
0.02037 0.21473 -0.14528
0.08494 -0.03135 0.00056
-0.11326 0.23269 -0.18481
0.06947 0.22477 -0.21712
-0.08024 0.00008 -0.02378
0.00081 0.16069 -0.14775
-0.06608 -0.04362 0.01733
0.03554 0.43227 -0.32907
-0.04014 0.34972 -0.26235
0.11600 0.29346 -0.17769
0.02711 0.25656 -0.12601
0.02644 -0.01011 0.00528
-0.02297 -0.05930 0.01335
-0.01456 0.32617 -0.21190
0.06316 -0.02499 0.00214
0.06253 0.32852 -0.23083
0.01388 0.15299 -0.13222
-0.02347 -0.04611 0.01282
-0.03458 -0.04637 0.01413
0.01972 0.24538 -0.16088
0.08378 0.30785 -0.22685
0.06380 0.23029 -0.24121
-0.08144 -0.01640 0.01829
0.10356 0.39481 -0.21262
0.08201 -0.00863 -0.00135
-0.03567 0.30624 -0.26183
-0.00666 -0.00096 0.00881
-0.01475 -0.00184 0.00978
-0.02892 -0.01714 0.01176
-0.00901 -0.03344 0.01086
0.00859 -0.01420 0.00798
-0.02426 0.00151 0.01138
-0.02157 0.34171 -0.20781
-0.03234 -0.06522 0.01464
-0.01446 -0.02688 0.01103
-0.01450 -0.02680 0.01100
-0.01847 -0.04257 0.01225
-0.03373 -0.03172 0.01304
0.03545 -0.02601 0.00556
-0.02743 0.00475 0.01108
-0.02742 0.00487 0.01095
-0.08592 -0.01962 0.01877
0.05173 0.00129 0.00180
-0.08468 -0.04383 0.01939
0.01480 -0.01715 0.00745
-0.03080 -0.00241 0.01153
0.03008 -0.00979 0.00528
-0.08158 -0.01266 0.01778
0.05568 -0.00917 0.00229
-0.08729 -0.05030 0.02058
0.00644 -0.02566 0.00843
0.00642 -0.02578 0.00858
-0.02377 -0.04268 0.01267
-0.02379 -0.04278 0.01275
-0.01842 -0.04242 0.01198
0.05250 0.00288 0.00262
0.06057 0.00315 0.00120
-0.00857 -0.00022 0.00882
0.03399 -0.04745 0.00781
0.03399 -0.04745 0.00781
-0.03893 -0.04938 0.01467
0.05171 -0.03142 0.00353
0.06913 -0.00018 0.00047
-0.07878 -0.04695 0.01997
-0.07878 -0.04695 0.01997
0.00730 -0.05730 0.00990
0.00244 -0.04746 0.01015
-0.07031 -0.04381 0.01791
0.03636 -0.00129 0.00411
0.03635 -0.00132 0.00414
0.06643 0.00366 0.00042
-0.00336 -0.02775 0.00976
-0.05803 -0.01933 0.01534
0.05960 0.00107 0.00152
0.01905 -0.04869 0.00816
-0.00218 -0.03366 0.00985
-0.02951 -0.03035 0.01299
0.00895 -0.01504 0.00774
0.01904 -0.04858 0.00797
-0.08878 -0.03554 0.01945
-0.08881 -0.03568 0.01956
-0.07925 -0.01991 0.01797
-0.07925 -0.01988 0.01793
0.03525 0.00067 0.00413
-0.05012 -0.04962 0.01582
0.03096 -0.02908 0.00605
-0.05593 -0.03015 0.01551
-0.05836 -0.01580 0.01551
-0.00670 0.00187 0.00897
-0.05818 -0.03034 0.01610
-0.01249 -0.04767 0.01163
-0.05289 -0.01309 0.01438
-0.08712 -0.04891 0.02069
-0.08709 -0.04877 0.02061
-0.04728 -0.05069 0.01593
0.03010 -0.03100 0.00628
-0.02911 -0.02822 0.01241
0.05403 0.00309 0.00234
-0.01241 -0.04381 0.01161
-0.01149 -0.04599 0.01172
-0.07884 -0.01212 0.01759
0.02657 -0.01309 0.00581
0.10557 -0.02753 -0.00202
-0.05265 0.37792 -0.29824
-0.02248 -0.04754 0.01277
-0.02596 -0.02987 0.01226
0.01506 0.00592 0.00618
0.00760 -0.01483 0.00794
0.04974 -0.01006 0.00372
-0.00170 -0.04439 0.00966
-0.04832 -0.03291 0.01518
-0.08914 -0.03216 0.01983
0.01763 -0.04787 0.00900
0.01104 0.18015 -0.12770
-0.08942 -0.01793 0.01861
0.01889 -0.01443 0.00726
0.05005 -0.03180 0.00305
-0.01371 -0.06410 0.01269
-0.04683 -0.03128 0.01492
-0.04683 -0.03128 0.01492
-0.03555 -0.02690 0.01326
-0.03797 -0.01514 0.01295
-0.07340 -0.03373 0.01797
-0.05101 -0.01272 0.01420
-0.09101 -0.01291 0.01895
-0.06608 -0.04358 0.01747
-0.02245 -0.06524 0.01357
0.00847 -0.02715 0.00804
-0.07378 -0.02988 0.01811
-0.07027 -0.04388 0.01778
-0.04977 -0.02765 0.01496
-0.01628 -0.00030 0.00998
0.01900 -0.04285 0.00756
0.05019 -0.01371 0.00319
0.01612 -0.02698 0.00805
-0.03735 -0.01472 0.01227
-0.01915 0.24021 -0.32360
0.10226 -0.01040 -0.00274
-0.00548 0.13331 -0.14333
0.03749 -0.04107 0.00566
0.04960 -0.04100 0.00419
0.09841 -0.02423 -0.00157
0.05370 0.00064 0.00179
0.06294 -0.02857 0.00254
-0.07032 -0.04362 0.01786
0.10052 -0.03983 -0.00097
0.03519 -0.00962 0.00429
0.00449 -0.04225 0.00972
0.03406 -0.01220 0.00463
-0.04921 -0.01243 0.01335
-0.04921 -0.01243 0.01335
0.01664 0.19221 -0.13182
-0.05142 0.19942 -0.11473
0.09380 -0.00771 -0.00295
0.09454 -0.03113 -0.00075
0.06728 -0.04161 0.00218
0.11489 -0.04636 -0.00194
0.08811 -0.01539 -0.00104
-0.01989 0.23328 -0.15868
-0.04562 -0.01667 0.01380
0.10264 -0.04118 -0.00108
0.09990 -0.00830 -0.00220
0.07870 -0.04155 0.00131
0.07973 -0.03132 0.00082
-0.05646 -0.01719 0.01533
0.09169 -0.00938 -0.00268
0.05382 0.24269 -0.21465
0.04503 -0.05671 0.00573
-0.12367 0.28983 -0.18119
-0.01096 0.17978 -0.12620
0.02441 0.27187 -0.22643
0.06115 0.23194 -0.23459
0.08276 -0.01498 -0.00045
-0.03999 0.39225 -0.28823
0.05174 0.00091 0.00245
-0.05679 0.39000 -0.29053
0.07126 -0.01567 0.00090
0.05166 -0.02526 0.00349
0.08797 0.40629 -0.25548
-0.02736 -0.02785 0.01195
0.02265 -0.00994 0.00566
0.05164 0.22714 -0.21101
0.05046 0.23979 -0.21265
-0.09992 0.21733 -0.20122
0.09365 -0.00776 -0.00303
-0.00457 -0.02652 0.00958
0.10688 -0.01559 -0.00181
0.02057 -0.01489 0.00677
0.10040 -0.03965 -0.00166
-0.01140 0.18055 -0.12179
0.01954 -0.00151 0.00659
0.05568 0.24027 -0.24547
0.05211 -0.05606 0.00388
-0.00652 0.00449 0.00878
-0.00208 -0.00194 0.01003
-0.00208 -0.00194 0.01003
0.05818 -0.02837 0.00294
0.07431 0.00509 0.00056
0.00855 0.27718 -0.20264
-0.00984 -0.00316 0.01230
-0.00984 -0.00316 0.01230
-0.05878 0.28115 -0.24948
0.09724 -0.01564 -0.00176
0.03876 0.00393 0.00133
0.07512 0.00735 -0.00068
0.07686 -0.04037 0.00169
-0.00107 -0.06474 0.01144
0.03803 -0.04833 0.00687
0.08418 -0.04712 0.00130
0.00191 0.00526 0.00757
0.00775 -0.00104 0.00689
0.07424 0.00121 0.00051
-0.01478 -0.00188 0.01000
-0.00181 0.17271 -0.13970
0.00085 -0.04899 0.01091
0.05936 -0.01190 0.00192
-0.14902 0.42684 -0.30854
-0.01481 0.13873 -0.12850
0.06340 -0.03200 0.00310
-0.01966 -0.00267 0.01211
-0.03458 -0.04588 0.01327
0.06495 0.21211 -0.18193
-0.00518 0.13827 -0.14476
0.05221 -0.05649 0.00412
-0.04377 -0.04686 0.01627
0.12426 -0.01499 -0.00442
-0.02390 -0.02691 0.01157
0.03383 -0.00066 0.00430
0.07974 -0.03135 0.00092
-0.01509 0.00152 0.00966
0.04988 0.00635 0.00201
0.01367 0.00420 0.00619
-0.00627 -0.01621 0.00972
-0.06066 -0.04470 0.01699
0.07781 -0.01551 0.00013
-0.07505 0.30767 -0.25543
-0.06079 -0.04455 0.01635
0.05265 0.22316 -0.21470
-0.02305 -0.01502 0.01121
-0.01457 -0.02644 0.01072
-0.01459 -0.02629 0.01052
-0.01494 0.00459 0.00982
-0.00569 -0.04584 0.01080
-0.00585 -0.04536 0.01034
-0.02304 -0.01127 0.01117
-0.01034 -0.00183 0.00920
0.04401 -0.01648 0.00401
-0.00480 0.30581 -0.23450
0.07105 -0.02457 0.00171
-0.00894 -0.03365 0.01118
-0.02516 -0.01821 0.01173
0.02142 -0.02945 0.00734
-0.06525 -0.01804 0.01616
0.04431 0.34263 -0.24104
-0.05488 0.39098 -0.32531
-0.00789 0.00175 0.00902
-0.02457 -0.01626 0.01079
0.03615 0.00253 0.00396
0.01616 -0.03061 0.00798
0.05799 0.00460 0.00163
-0.00476 -0.02989 0.00999
0.07939 0.00175 -0.00059
-0.02825 -0.02901 0.01206
-0.04961 -0.03438 0.01520
0.06794 -0.03184 0.00231
-0.00252 -0.02967 0.00959
-0.00248 -0.02982 0.00976
-0.00271 -0.01422 0.00901
-0.05387 -0.00183 0.01413
-0.01158 -0.02614 0.02290
-0.02928 -0.01300 0.01306
-0.04443 -0.04227 0.01396
-0.02377 0.00364 0.00984
-0.07135 -0.03378 0.01711
-0.05512 -0.00160 0.01428
-0.03297 -0.00164 0.01498
-0.03354 0.00042 0.01250
-0.11283 0.23013 -0.20833
-0.05457 -0.01175 0.01462
-0.10701 0.21876 -0.19936
0.06780 -0.02515 0.00213
0.07384 -0.00011 0.00104
0.04906 -0.03280 0.00452
0.04906 -0.03280 0.00452
-0.01236 -0.06443 0.01222
-0.00484 -0.02606 0.00994
-0.03024 -0.01534 0.01326
0.08324 0.00353 -0.00097
-0.00205 -0.02598 0.00976
-0.01695 0.27074 -0.17938
0.06924 -0.03015 0.00196
0.02716 -0.06019 0.00751
0.07355 0.00495 -0.00035
-0.02590 -0.03010 0.01242
0.08056 0.00565 -0.00136
0.08433 -0.01408 -0.00025
0.06796 -0.02801 0.00203
-0.15288 0.42121 -0.18952
0.08355 -0.01363 0.00033
-0.06051 -0.01218 0.01554
0.03981 -0.01188 0.00409
-0.04829 -0.01560 0.01444
-0.05081 -0.01472 0.01424
0.01085 -0.06470 0.00974
-0.07884 -0.01191 0.01726
0.03996 -0.01445 0.00433
0.00990 -0.05917 0.01021
-0.05811 -0.01967 0.01579
-0.01884 0.00025 0.00991
0.01771 -0.13559 0.26137
-0.02614 0.34368 -0.21784
0.05029 -0.03087 0.00400
0.01002 0.25211 -0.17883
0.06935 -0.02631 0.00177
0.01642 0.19547 -0.13526
-0.06608 -0.04327 0.01704
-0.07948 -0.01632 0.01796
0.01148 -0.04765 0.00893
-0.00050 -0.01785 0.00879
-0.09505 0.22437 -0.21004
0.04450 0.23292 -0.14840
-0.04850 -0.02998 0.01512
-0.01232 -0.01341 0.00973
0.03987 -0.01607 0.00438
0.05148 0.00450 0.00242
-0.01380 -0.00148 0.00972
-0.06911 -0.01520 0.01647
-0.06913 -0.01500 0.01627
0.05701 0.00569 0.00189
-0.01390 0.00454 0.00929
0.00448 -0.04509 0.00974
-0.01364 0.15510 -0.13054
-0.01247 -0.05795 0.01209
-0.05707 -0.03052 0.01583
-0.09075 -0.01652 0.01921
-0.04079 0.00095 0.01253
-0.01456 -0.02657 0.01092
-0.02438 0.00150 0.01118
-0.04078 0.00071 0.01287
0.08126 -0.00632 -0.00958
-0.09016 -0.03078 0.01982
0.00949 -0.01466 0.00730
0.00198 -0.04389 0.00996
0.01852 -0.00201 0.00805
0.08018 0.00714 -0.00182
