# .PCD v.7 - Point Cloud Data file format
VERSION .7
FIELDS x y z
SIZE 4 4 4
TYPE F F F
COUNT 1 1 1
WIDTH 1351
HEIGHT 1
VIEWPOINT 0 0 0 1 0 0 0
POINTS 1351
DATA ascii
0.06569 0.04600 0.13717
-0.02237 -0.04863 -0.08603
0.10591 0.02822 0.12695
0.11497 0.00951 0.07338
0.12592 -0.01640 0.04910
-0.04189 -0.02368 0.00720
-0.08362 -0.04323 -0.17885
0.12556 -0.00098 0.07319
-0.03467 -0.01984 -0.15321
-0.01390 -0.02126 -0.17394
0.05121 0.06195 0.15506
-0.03696 0.00590 0.07011
0.77681 0.15818 -0.99999
0.03932 0.03709 0.20070
-0.04134 -0.04088 -0.18273
0.14220 0.00069 0.08169
0.77681 0.15817 -0.99998
0.00717 -0.03468 -0.18605
0.05506 0.06947 0.16198
-0.10818 0.01676 0.06170
-0.02216 -0.05084 -0.19513
0.11296 -0.01026 0.04535
0.16583 -0.03221 0.04064
-0.04708 -0.05592 -0.03714
0.12499 -0.00774 0.06525
-0.02741 -0.02853 -0.17201
0.33388 -0.00132 -0.02245
0.12029 0.01115 0.09235
0.10114 0.00024 0.04319
0.09034 0.00467 0.04705
0.33016 0.01754 -0.00712
-0.06585 -0.07321 -0.03164
0.12662 -0.00447 0.07716
0.77672 0.15816 -0.99988
-0.05112 -0.01986 -0.03960
-0.06178 -0.02410 -0.00138
0.73173 0.14117 -0.85045
0.74762 0.14658 -0.90370
-0.02835 -0.07676 -0.05275
0.12575 0.02003 0.11942
0.77338 0.15732 -0.99642
0.77122 0.15701 -0.99057
-0.02493 -0.06201 -0.01238
0.11571 0.01895 0.10438
0.11111 0.03046 0.13899
-0.07736 -0.01040 0.01725
-0.01891 -0.07326 0.00051
-0.10878 0.01567 -0.04962
-0.12371 0.02192 0.05270
-0.01872 -0.03890 0.00418
-0.03817 0.03518 0.10692
-0.06813 -0.00759 -0.08033
0.07470 0.03606 0.10061
-0.04779 -0.00938 0.03903
-0.08032 0.01194 0.07379
0.77255 0.15718 -0.99449
0.10469 -0.02770 -0.10890
-0.04838 0.00967 -0.01103
0.13916 -0.00761 0.06092
-0.11844 0.01999 0.00704
-0.10772 0.01991 0.08639
-0.03604 -0.04586 -0.07915
-0.11501 0.01660 0.02959
0.67886 0.12392 -0.82621
0.77260 0.15721 -0.99541
0.13174 0.03825 0.13190
0.77675 0.15816 -0.99992
-0.11152 0.02797 -0.05085
0.09893 -0.00573 0.05867
-0.05516 -0.03092 0.01966
-0.02056 -0.06794 -0.01857
0.12148 0.00667 0.07888
-0.04706 0.04503 0.13907
0.71901 0.13787 -0.86055
-0.02618 -0.04774 -0.19148
-0.11502 0.01514 0.01059
0.10695 0.00351 0.06677
0.09336 -0.00035 0.03519
-0.10434 0.00485 -0.01040
-0.08486 -0.01068 -0.16745
-0.09211 -0.04606 -0.19328
-0.01622 -0.01785 0.00302
0.33265 0.01856 -0.00013
-0.05141 0.00823 0.07465
-0.07585 -0.03179 -0.17354
0.09802 0.00254 0.06043
-0.12934 0.03991 0.09152
-0.09399 -0.01379 -0.01534
-0.01216 0.04019 0.09232
-0.07534 -0.01641 -0.01629
-0.04360 0.00020 0.04618
-0.04661 -0.04457 -0.00680
0.11506 -0.00953 0.07005
0.09675 0.03443 0.13256
0.77672 0.15817 -0.99986
0.16305 0.01375 -0.28544
-0.03616 -0.00147 0.03806
-0.11552 0.03107 0.10354
-0.04874 -0.05076 -0.00512
-0.16057 0.09480 0.15216
-0.02101 -0.06318 -0.01857
0.10764 0.01572 0.08051
0.76664 0.15770 -0.98350
0.77655 0.15812 -0.99974
0.77040 0.15613 -0.98922
0.11993 0.03106 0.13335
-0.07774 0.01607 -0.01875
0.00000 -0.00760 0.01857
0.13882 0.00046 -0.06938
0.09140 -0.02463 0.06788
0.12442 0.00506 0.07837
-0.09186 0.09093 0.07145
-0.06419 -0.00640 0.04908
-0.10512 0.01642 0.00530
0.14522 0.02687 0.13206
-0.03340 -0.03536 0.00790
-0.04239 -0.04917 -0.05272
-0.09060 -0.02171 -0.02843
-0.02683 0.02822 0.08792
0.77665 0.15817 -0.99979
-0.03194 -0.01927 0.00619
-0.06765 -0.02303 -0.05036
0.77681 0.15818 -1.00000
-0.03123 -0.04535 -0.08812
0.12212 0.01343 0.09593
0.07024 0.05576 0.15300
-0.02707 -0.01351 -0.14392
0.60784 0.10999 -0.72581
0.77436 0.15756 -0.99627
0.75414 0.15091 -0.95432
-0.03655 -0.05591 -0.02266
-0.06278 -0.04478 0.00261
0.77679 0.15817 -0.99994
-0.13549 0.03525 0.04884
-0.05463 0.00238 -0.17441
-0.12725 0.02468 0.03813
0.09939 0.04158 0.12000
0.10930 0.03441 0.13542
0.32199 0.01117 -0.01909
-0.05254 -0.02372 -0.17009
-0.09519 -0.03578 -0.17806
-0.05414 0.05081 0.10733
-0.05590 -0.01846 0.00000
0.08341 -0.00966 0.05207
0.14287 -0.03485 0.07058
0.35104 0.03762 -0.05397
-0.09752 0.00034 0.02924
0.77663 0.15815 -0.99976
0.14699 -0.00217 0.07365
0.72285 0.14003 -0.87531
-0.11778 0.02324 0.00058
-0.07152 -0.01587 0.01628
0.15292 0.01356 -0.07969
-0.03797 -0.03311 0.00986
0.10250 0.01672 0.09952
0.24979 -0.04778 0.10609
-0.07874 -0.05105 -0.20672
0.07725 0.03552 0.11259
-0.00443 -0.06048 -0.02608
0.08225 0.06131 0.16781
-0.07347 -0.02992 -0.20334
-0.05218 -0.04178 -0.01350
-0.03191 -0.02640 0.00501
0.09911 -0.00747 0.04092
0.23643 -0.03152 0.09790
-0.10206 0.00722 0.04709
-0.05125 -0.03247 -0.17448
-0.06766 -0.00251 0.06025
0.14158 -0.01230 0.06335
-0.04124 -0.09394 -0.01861
-0.18307 0.09624 0.14145
-0.01378 -0.02778 -0.17138
0.77486 0.15759 -0.99659
0.13146 0.05020 0.16846
-0.11857 0.03166 0.09095
0.10993 0.07343 0.19816
0.73817 0.14520 -0.90686
0.11422 -0.00042 0.07293
-0.09214 0.01375 0.06839
0.05529 0.01408 -0.01825
0.12160 0.00211 0.07338
0.11642 0.01331 -0.05987
-0.02666 -0.05760 -0.07388
-0.06877 -0.01607 -0.01498
0.29592 0.02350 -0.16499
0.65726 0.12417 -0.80389
0.11294 0.01427 0.08788
-0.04659 0.02865 0.09920
0.13598 -0.00561 0.10130
0.06152 -0.03446 -0.04196
-0.05109 -0.02372 -0.10310
-0.04635 -0.05380 -0.05167
-0.10824 0.01586 0.02795
0.12668 -0.01401 0.05573
-0.02739 -0.02361 0.04079
-0.12838 0.02390 -0.00605
-0.07060 -0.02362 -0.03702
0.02800 -0.01090 0.06944
-0.00066 0.02637 0.02011
-0.06816 -0.05203 -0.21102
0.06453 0.05219 0.14432
-0.03478 -0.08865 -0.03185
0.18409 -0.00865 -0.06908
-0.14245 0.05265 0.11216
-0.03836 -0.04053 -0.17761
-0.05057 0.05110 0.10686
0.12268 0.01814 0.09786
-0.06922 -0.00616 0.01249
0.09706 0.03017 0.09434
-0.11043 0.01977 -0.01831
-0.05795 -0.07455 -0.02235
0.76852 0.15285 -0.92861
0.13371 0.01698 0.13400
0.75825 0.15014 -0.93157
0.00148 0.00150 0.02708
0.03450 -0.01059 -0.18003
0.13950 0.00827 0.09771
-0.04091 -0.05353 -0.00171
-0.04524 -0.04522 0.00341
-0.04273 -0.06070 0.00363
-0.07643 -0.01919 0.01415
-0.07845 -0.00943 0.00360
0.10073 -0.02263 0.04299
-0.08411 -0.00731 0.02112
-0.11390 -0.05879 -0.00378
-0.05981 -0.01115 0.01272
-0.03109 -0.07021 -0.01189
-0.02068 -0.05155 -0.00230
0.75331 0.14885 -0.91892
0.77244 0.15713 -0.99256
-0.08726 0.00140 -0.01642
-0.06161 -0.02292 -0.06115
-0.07475 0.00488 0.07641
0.09904 0.03917 0.14344
-0.10491 0.00827 0.03741
-0.05725 -0.06780 -0.00499
-0.05774 -0.01777 0.01114
0.20169 -0.03884 0.06538
-0.10268 0.01418 0.06866
0.02097 0.04393 0.07742
-0.10365 0.00671 -0.01366
-0.06867 -0.05964 -0.22154
-0.04988 -0.06203 -0.01862
0.10850 0.05109 0.15878
-0.09596 0.00373 0.07814
-0.03680 -0.07581 -0.01960
-0.04655 -0.05238 0.00176
-0.03814 -0.05546 -0.03555
-0.11992 0.02285 0.07231
-0.09301 0.00293 0.00018
0.77545 0.15801 -0.99756
-0.06048 -0.02463 -0.24984
-0.06373 -0.01444 -0.04690
-0.14618 0.04408 0.09438
-0.02914 -0.05359 -0.00495
-0.05761 -0.02817 -0.01554
-0.08829 0.00575 0.05640
0.11317 0.02810 0.06754
0.01757 -0.01793 -0.01069
-0.15197 0.04406 0.07621
0.77524 0.15771 -0.99723
0.05469 -0.02881 -0.05626
-0.04934 -0.04058 -0.05183
-0.14830 0.03898 0.05525
-0.03804 -0.06438 -0.00369
0.03987 -0.03651 0.02181
-0.02707 -0.07508 -0.02775
0.77563 0.15771 -0.99519
0.05159 -0.03288 0.02716
-0.14526 0.04969 0.11875
-0.07746 -0.00548 0.05137
-0.09617 0.02938 0.09102
0.04801 -0.02507 0.03111
0.05699 -0.00648 0.02616
-0.04864 -0.01853 0.00832
-0.02975 -0.04360 0.00625
-0.04326 -0.01517 -0.16927
-0.05760 0.00127 0.05844
-0.09716 0.00828 -0.00822
-0.09196 -0.09570 -0.06926
0.77680 0.15817 -0.99996
-0.10628 0.01154 0.07705
0.19471 -0.03802 0.09082
-0.02440 -0.06141 -0.07014
0.30968 -0.04274 0.10707
0.16165 -0.03116 0.02180
0.13066 -0.01608 0.05743
0.77680 0.15817 -0.99997
-0.07676 -0.00304 -0.06879
0.10184 0.04455 0.10483
-0.16157 0.06148 0.09406
0.09599 0.03063 -0.04768
0.12910 -0.01712 0.05267
-0.05048 -0.02345 -0.18800
0.28647 0.06809 0.03626
0.77121 0.15691 -0.99484
-0.02817 -0.07049 -0.02074
-0.03004 -0.07564 -0.02933
0.08572 -0.01230 0.06532
0.09020 0.02211 0.11399
-0.05563 -0.01105 0.03055
0.17368 0.00727 -0.08680
-0.11003 0.03663 0.11454
-0.08704 -0.00049 -0.01310
-0.16857 0.05316 0.08812
-0.11535 0.01901 -0.00637
-0.10973 0.02179 0.02006
-0.05545 0.00962 0.07422
-0.03629 -0.04027 0.01290
-0.02097 -0.04863 -0.00054
0.77174 0.15651 -0.98875
-0.09628 0.02481 0.11274
0.14569 -0.02504 0.02720
0.03165 0.00205 0.01003
-0.12266 0.04964 0.11654
-0.14244 0.05684 0.11651
-0.12507 0.04650 0.10339
-0.05084 -0.04580 0.00301
0.14375 -0.02312 0.04834
0.68545 0.12542 -0.80269
-0.05927 -0.04439 -0.18262
0.64425 0.11086 -0.71904
0.10627 -0.00181 -0.07578
0.16611 -0.03482 0.02934
-0.01637 -0.04958 -0.19577
0.66688 0.11944 -0.75880
0.07174 0.04208 0.10206
0.02406 0.06611 0.23039
0.63153 0.11057 -0.57563
0.65227 0.11250 -0.72838
-0.02635 -0.05470 -0.22363
0.04836 0.04629 0.22832
0.50384 0.07048 -0.50049
0.76765 0.15520 -0.97906
0.11372 0.01160 0.08406
0.11949 0.00114 0.07178
0.11023 0.02252 0.07948
-0.06288 0.05108 0.13550
0.76840 0.15573 -0.98636
-0.11368 0.03645 0.21944
0.73409 0.14295 -0.90135
-0.15406 0.04140 0.07330
-0.02839 -0.04812 -0.00485
0.77678 0.15817 -0.99996
-0.01579 -0.05948 -0.07561
-0.01005 -0.04841 -0.19418
0.13739 -0.01489 0.05376
0.70158 0.13873 -0.88467
0.73862 0.14015 -0.82999
0.77102 0.15665 -0.99441
0.77142 0.15695 -0.99306
-0.00974 -0.02503 0.06696
0.13065 -0.00770 0.06330
0.77675 0.15816 -0.99989
0.77195 0.15670 -0.99048
0.64253 0.12550 -0.76781
0.41410 0.13160 -0.48331
-0.15302 0.04359 0.08612
0.10702 -0.01509 0.04941
0.12807 -0.01044 0.05538
0.77681 0.15817 -0.99997
-0.00912 -0.07037 -0.04035
0.73491 0.14352 -0.90452
0.76460 0.15495 -0.98719
0.71348 0.13932 -0.87756
0.71611 0.13125 -0.80936
0.77384 0.15742 -0.99713
0.07702 -0.00604 -0.34290
-0.05383 -0.05051 -0.21572
0.10049 0.06056 0.17553
0.77398 0.15747 -0.99679
0.76426 0.15505 -0.97508
0.77679 0.15817 -0.99994
-0.04310 -0.06069 -0.01953
0.11140 -0.00071 0.04958
0.58398 0.09430 -0.47131
0.77286 0.15730 -0.99596
-0.03825 -0.06398 -0.01301
-0.03830 -0.05225 0.00149
0.39781 0.05964 -0.53114
0.64244 0.11063 -0.71789
0.71752 0.13421 -0.83880
-0.04018 -0.04687 -0.01380
0.77681 0.15817 -0.99998
0.10860 -0.01367 0.03874
0.13506 -0.03082 0.07114
0.03376 -0.02271 -0.05961
0.75835 0.15393 -0.97922
0.63274 0.10629 -0.69456
0.07239 -0.00773 0.07758
0.14691 0.01380 -0.06077
0.66770 0.12527 -0.84937
0.27111 0.04070 -0.26055
0.76704 0.15550 -0.98317
0.01567 -0.00684 -0.01054
0.15721 0.01692 -0.09187
-0.04958 -0.03891 -0.18071
0.09040 -0.01253 0.02401
-0.01752 0.03349 0.07770
0.76307 0.15493 -0.98134
-0.04082 -0.06783 -0.00950
0.73263 0.14316 -0.87662
0.06414 -0.01270 0.04884
0.76527 0.15396 -0.97639
-0.05772 -0.05678 -0.21897
-0.00974 -0.07527 -0.05067
0.01462 0.00219 -0.00778
-0.04201 -0.05440 -0.03570
0.12349 0.04244 0.14786
0.77680 0.15817 -0.99997
-0.02400 -0.05324 -0.00652
0.67186 0.12217 -0.71232
-0.03985 -0.04790 0.00305
-0.00580 -0.07308 -0.04849
-0.05273 -0.04621 -0.02118
0.10996 -0.01617 0.00513
-0.14011 0.03763 0.08462
-0.04879 -0.04940 -0.03098
-0.05108 -0.05265 -0.03239
0.77680 0.15817 -0.99996
-0.08347 -0.00347 -0.02858
0.01463 -0.01798 -0.02325
0.10898 -0.01177 0.00554
-0.04393 -0.05104 -0.05535
-0.04729 -0.06979 -0.01003
-0.04126 -0.06841 -0.01393
-0.04934 -0.06208 -0.01621
-0.15531 0.04578 0.04140
-0.01797 0.01236 0.06940
0.05549 -0.00365 0.04857
-0.04545 -0.05306 -0.04005
0.69845 0.13557 -0.83128
0.76043 0.15469 -0.97408
0.08797 0.02363 0.07411
-0.04085 -0.05462 -0.04517
-0.03754 0.04222 0.11353
0.02448 -0.03460 -0.03532
-0.07569 0.00108 0.06993
-0.05058 -0.06162 -0.04025
-0.03510 -0.05467 -0.06347
-0.06655 0.00691 0.08809
-0.02260 -0.03545 -0.03559
-0.04417 -0.06036 -0.04487
0.10917 -0.01747 0.01647
0.77679 0.15817 -0.99997
-0.06013 -0.00797 0.03077
-0.05712 -0.06952 0.00351
-0.02879 -0.00747 0.02947
0.02066 -0.01101 -0.00419
-0.04287 -0.05541 -0.03877
0.12817 -0.03257 0.06585
0.10827 -0.01434 0.00999
-0.07598 -0.00538 -0.02684
-0.05169 -0.04584 -0.02627
-0.02840 -0.05545 -0.01377
-0.03911 -0.05045 -0.06337
0.13954 -0.01137 0.05871
0.77309 0.15735 -0.99624
-0.04949 -0.06398 -0.03620
-0.05898 0.00948 0.07109
-0.00084 -0.06905 -0.04540
0.11457 -0.01934 0.01014
-0.05476 0.00404 0.04208
0.03544 -0.01304 -0.03807
-0.11798 0.02206 0.07771
0.08439 0.03993 0.07548
0.77681 0.15818 -0.99999
-0.06813 -0.04352 -0.00331
0.10281 -0.02586 0.06473
-0.13783 0.03803 0.02661
-0.05164 -0.05331 -0.04021
-0.02925 -0.07199 -0.04926
-0.05640 -0.07120 -0.02503
-0.06511 -0.04006 0.00121
-0.04806 -0.06826 -0.02712
-0.08405 -0.03508 -0.18247
-0.03569 -0.06769 -0.05320
-0.03814 -0.07154 -0.04363
-0.03035 -0.07619 -0.05010
0.13788 -0.02083 0.04367
-0.05279 -0.04097 -0.03726
-0.06033 -0.04435 -0.00056
0.12236 -0.01877 0.02418
-0.02519 0.00364 0.05275
-0.05415 -0.05289 -0.02067
-0.04595 -0.04841 -0.05294
0.14695 -0.03187 0.03770
0.13104 -0.01179 0.05963
-0.09403 0.01007 0.08007
0.11513 -0.01579 0.04518
-0.06169 -0.04377 -0.00457
0.11092 -0.01293 -0.00153
0.77681 0.15817 -0.99997
0.02446 -0.02078 -0.02601
0.12027 -0.01766 0.02238
0.14928 -0.03624 0.07491
-0.02965 -0.03885 0.00151
-0.06473 -0.03052 -0.00242
-0.08630 0.00478 -0.07817
-0.12080 0.01505 0.05671
0.11606 0.01482 0.08907
0.76733 0.15570 -0.98264
0.40516 0.07490 -0.45162
-0.05934 0.00509 0.07670
-0.05100 -0.04702 -0.03022
-0.11369 0.02534 0.09049
-0.07612 -0.01013 -0.01892
-0.07301 -0.00411 0.05094
0.01581 -0.02327 0.00642
0.13383 -0.01930 0.04587
-0.00100 -0.00867 0.01633
-0.02244 -0.01451 0.00844
-0.06414 -0.03963 -0.00896
-0.01182 -0.01729 0.02955
0.03606 0.00069 0.06342
-0.04333 -0.05714 -0.05196
-0.04197 0.00146 0.05913
-0.03439 -0.06561 -0.01190
-0.01849 -0.06808 -0.02344
-0.01545 -0.05196 -0.00406
-0.10013 0.00416 -0.02172
0.11714 -0.01357 0.04595
-0.07635 -0.01726 -0.16125
-0.05543 -0.05776 -0.01740
-0.07826 -0.06278 -0.02650
0.11972 -0.01598 0.02562
0.65777 0.13023 -0.74251
-0.06932 -0.00757 -0.03465
-0.01308 -0.06050 -0.01853
-0.06310 -0.00973 -0.04183
0.10933 -0.01393 0.02260
-0.05293 -0.01387 0.02249
-0.07379 -0.00150 0.05663
-0.11754 0.04659 0.11211
-0.06110 -0.01530 0.01452
-0.02331 -0.06423 -0.07046
-0.03923 -0.01321 0.03058
0.10328 0.03098 0.07627
-0.05479 -0.04299 -0.00148
0.12625 -0.02121 0.04443
0.11102 -0.02099 0.02318
-0.08085 0.03764 0.08345
-0.04690 -0.05203 -0.04273
-0.00719 -0.05170 -0.00914
-0.09160 0.01001 0.08758
-0.05389 -0.04906 -0.02037
0.11938 -0.02210 0.02488
0.38313 0.12050 -0.44466
-0.06387 -0.02018 -0.01109
-0.08102 -0.00515 -0.01894
0.08459 -0.00174 0.00140
-0.03529 -0.00095 0.04457
0.73016 0.14068 -0.88424
0.08370 0.03807 0.08931
-0.05499 -0.03264 -0.03425
-0.08940 0.00273 -0.02562
-0.03751 -0.05667 -0.00866
-0.05807 -0.03801 -0.02084
-0.07908 -0.00144 0.06110
0.12942 -0.02382 0.01402
-0.03417 -0.01097 -0.21649
-0.10017 0.00720 0.01774
-0.09209 -0.02503 0.02215
-0.06077 -0.01225 0.02425
0.10953 -0.01345 0.02748
0.01237 -0.01344 0.02050
-0.07201 -0.05297 -0.04324
-0.09232 0.00877 0.06643
0.00270 0.00000 0.00140
0.07606 0.04439 0.13774
0.64347 0.10779 -0.69249
0.76913 0.15562 -0.98412
-0.04582 -0.05295 -0.03420
-0.08639 0.00814 0.08734
0.09397 0.00705 0.05779
-0.05538 -0.04188 -0.02676
-0.06713 0.00591 0.08405
-0.05285 -0.03423 0.00694
-0.04408 -0.05940 -0.01776
-0.08938 0.00127 0.06284
-0.01518 0.00582 0.05887
-0.07144 -0.01283 0.01287
0.12490 -0.04264 0.08895
0.07841 0.03292 0.11344
0.77664 0.15812 -0.99969
-0.05323 -0.00687 0.04371
-0.05537 -0.07522 0.00011
-0.05132 -0.01070 0.03084
-0.04193 -0.07336 -0.03677
-0.05799 -0.03884 0.00316
0.01323 -0.02097 0.07805
-0.04909 -0.04691 -0.18145
0.08682 0.03051 0.11330
0.76912 0.15535 -0.98060
-0.07672 -0.00471 -0.05856
0.02503 -0.00854 0.00088
0.77324 0.15710 -0.99412
-0.00031 -0.00084 0.01783
-0.03367 -0.06083 -0.06111
0.76998 0.15621 -0.98860
-0.05274 -0.03389 -0.23867
-0.02965 -0.07754 -0.03349
-0.08083 -0.03324 -0.14417
0.77365 0.15736 -0.99455
0.09481 0.00028 0.05845
-0.13797 0.05528 -0.02238
-0.10217 0.01250 0.06155
0.13288 -0.02397 0.07358
-0.12371 0.02841 0.02115
-0.08388 0.00255 0.06621
0.32283 0.04179 -0.47462
-0.10783 0.01423 -0.01866
-0.04124 -0.05748 -0.04131
-0.11149 0.00421 0.03837
-0.09472 0.00664 0.06651
0.12199 -0.02230 0.04458
-0.08211 -0.00092 0.05766
-0.08993 0.00401 -0.00632
-0.07768 -0.01377 0.01142
-0.06161 -0.01960 -0.02536
-0.09532 0.01452 0.08509
0.01011 -0.00321 0.01729
-0.07594 0.00070 -0.07217
-0.05373 -0.04879 -0.01093
-0.09892 -0.01328 -0.02557
-0.13017 0.03687 0.07947
0.10863 -0.01707 0.03174
-0.06040 -0.02465 0.00519
0.75899 0.15337 -0.96340
-0.07775 -0.00723 -0.01187
0.00673 0.00044 0.02295
-0.00134 -0.01157 0.01805
-0.06115 -0.05253 -0.01188
-0.11778 0.03722 0.10576
-0.04625 -0.00480 0.03973
-0.09460 0.00598 -0.04103
0.08106 0.03517 0.08537
0.11000 -0.01248 0.03199
0.10892 -0.01397 0.04193
0.76863 0.15622 -0.98925
-0.10707 0.01750 0.06552
0.18519 0.02808 -0.27839
0.09677 0.02573 0.08351
0.10609 -0.01698 0.04050
-0.04723 -0.03776 -0.05531
0.10251 -0.01190 0.03806
-0.10673 0.01563 -0.00712
0.07304 -0.00121 -0.05998
-0.06211 -0.03772 -0.00430
0.76195 0.15286 -0.95752
-0.13793 0.03133 0.06097
0.71636 0.13919 -0.88895
0.10155 -0.00955 0.03982
0.12191 -0.01601 0.04035
-0.10753 0.01658 0.09029
0.06762 0.04378 0.06521
-0.06712 -0.01848 0.00839
0.76746 0.15555 -0.98354
-0.07260 0.02106 0.08746
-0.04398 -0.04200 -0.05979
-0.05058 -0.04004 0.00495
0.77081 0.15758 -0.99492
-0.10775 0.01406 0.04452
-0.07340 -0.01479 -0.00964
-0.03442 -0.04656 -0.07247
0.77194 0.15698 -0.99372
-0.05295 -0.05579 -0.00838
-0.09464 0.00379 -0.01198
0.14497 -0.04205 0.07770
-0.12928 0.02385 0.01827
0.02195 0.00137 -0.00045
-0.02154 -0.07295 -0.04428
0.74487 0.14436 -0.89819
0.06519 0.04346 0.13287
-0.05612 -0.05102 -0.01370
0.77680 0.15817 -0.99995
-0.09282 0.00453 0.06626
-0.10252 0.01111 -0.01012
0.04373 -0.02405 -0.21620
-0.04358 -0.06588 -0.04337
0.11119 0.02581 0.12225
-0.03022 -0.06311 -0.02474
0.76887 0.15759 -0.99328
-0.03367 -0.00638 0.03869
-0.11156 0.01665 0.08651
0.76880 0.15760 -0.99327
-0.10431 0.00936 0.05182
0.67015 0.12442 -0.80862
-0.04256 -0.06114 -0.03991
-0.13798 0.02893 0.04062
-0.06189 -0.03610 0.00485
0.72393 0.13707 -0.83358
-0.06684 -0.01073 0.02867
-0.01467 -0.05291 -0.01420
0.77679 0.15817 -0.99994
0.10759 -0.01637 0.02004
-0.03929 0.04938 0.09992
0.74977 0.14585 -0.90634
-0.09208 0.03964 0.10786
-0.08915 0.02665 0.08942
-0.04121 -0.00713 0.04491
-0.05338 -0.05500 -0.02076
0.12761 -0.04920 0.08348
0.71612 0.13635 -0.86296
0.77632 0.15798 -0.99855
-0.05085 -0.04276 -0.03568
0.11240 -0.00704 0.05178
0.10070 -0.00710 0.01680
-0.05015 -0.02412 0.00818
-0.08653 -0.00073 -0.02987
0.75141 0.14754 -0.92012
-0.10755 0.01310 0.04944
-0.03619 -0.02313 0.00713
0.11157 -0.01448 0.01615
-0.03627 -0.01602 0.01749
0.09898 0.01207 0.06296
0.74975 0.14853 -0.91775
-0.05717 -0.00997 0.03987
0.77682 0.15818 -1.00000
-0.13530 0.03546 0.03613
-0.11937 0.01970 -0.01331
-0.07479 -0.00485 -0.00526
0.07706 0.03302 0.07539
0.76388 0.15465 -0.97713
-0.08162 0.00686 0.06686
-0.08123 -0.00891 0.00023
0.11194 -0.00143 0.06237
-0.02765 -0.05041 -0.00141
-0.13720 0.02934 0.00181
-0.16825 0.09263 0.14849
0.12262 0.00126 0.07982
0.51841 0.08716 -0.39903
0.11341 0.03391 0.08804
0.12313 0.04781 0.15962
-0.04568 -0.04441 -0.02236
-0.06753 -0.04692 -0.00420
0.09790 0.04234 0.08132
-0.07918 -0.00517 -0.01008
0.09476 0.00838 0.06492
-0.05890 0.00170 0.06822
-0.09876 0.04612 0.10758
0.11671 0.00543 0.07021
-0.07730 -0.00909 -0.00788
0.11080 -0.01551 0.02483
0.12379 -0.03090 0.06838
0.76857 0.15763 -0.99302
0.10848 0.01977 0.07656
0.77178 0.15699 -0.99325
0.01739 -0.00349 0.03543
0.10563 -0.00781 0.01247
-0.10602 0.01235 0.02305
0.71987 0.13453 -0.83981
-0.14964 0.05841 0.08697
0.08965 0.03381 0.10998
-0.02412 -0.05794 -0.01400
-0.09143 0.00597 0.07081
0.42199 0.03587 -0.34078
-0.05887 -0.00987 -0.02605
0.77680 0.15817 -0.99995
0.65106 0.11916 -0.78913
0.77445 0.15756 -0.99741
-0.04566 -0.03851 0.00779
0.08671 0.01029 0.06902
-0.06102 -0.04124 0.00415
-0.03634 0.05243 0.13474
0.77522 0.15706 -0.99398
0.08606 0.04271 0.08644
-0.07977 -0.00301 0.05141
0.07177 0.03583 0.12825
-0.07928 -0.00196 -0.01991
-0.03592 0.04941 0.09896
0.12018 0.00814 0.08531
-0.02503 -0.05149 -0.00356
-0.06125 -0.02236 0.00434
-0.08651 0.01252 0.03588
0.07914 0.04405 0.07253
0.77151 0.15620 -0.98833
0.07057 0.03840 0.08561
0.76835 0.15617 -0.98362
0.77678 0.15817 -0.99995
-0.05812 -0.01994 -0.00826
0.77333 0.15733 -0.99414
-0.03606 -0.05654 -0.01928
0.76938 0.15684 -0.98976
0.10994 -0.01373 0.01475
0.46612 0.09411 -0.62081
0.11830 -0.01434 0.02680
-0.05004 -0.04864 -0.03394
0.12158 -0.02271 0.00819
-0.05747 -0.02458 -0.03587
0.76833 0.15560 -0.97977
-0.03679 -0.05273 -0.06234
0.15778 -0.04564 0.06611
-0.06542 -0.04427 -0.19031
-0.07211 -0.01765 -0.01864
-0.03919 -0.03452 0.00750
-0.02553 0.01983 0.07561
-0.05757 -0.02185 -0.02116
0.76597 0.15463 -0.97562
-0.13238 0.03790 -0.02995
-0.03014 -0.04093 0.00023
0.03172 -0.02261 -0.01664
-0.02872 -0.04775 0.00702
0.08891 0.02973 0.08548
-0.05504 -0.02855 -0.04336
0.09598 0.01031 0.03841
-0.11436 0.01878 0.03745
0.12202 -0.01621 0.04793
0.07633 0.05014 0.06103
0.07131 0.05683 0.07898
0.77543 0.15684 -0.99398
-0.04232 -0.03433 0.00613
-0.05887 -0.01571 -0.04424
0.11540 -0.00194 0.06284
-0.05907 0.05678 0.15301
-0.02887 0.04800 0.10208
-0.06273 -0.03358 -0.01564
-0.07715 0.04961 0.12026
-0.06755 -0.01774 -0.01174
-0.09218 0.03727 -0.05902
0.03071 0.00861 -0.00210
-0.04147 -0.01203 0.02246
0.75883 0.14977 -0.92426
0.77426 0.15752 -0.99724
0.15831 -0.02101 0.06672
-0.04273 0.00975 0.08150
-0.13880 0.06116 0.09823
-0.07100 -0.00524 0.03311
0.75449 0.14858 -0.92624
-0.15084 0.05629 0.09924
-0.10686 0.01353 0.05785
0.09284 0.01557 0.05947
0.10475 -0.00886 0.05885
-0.04118 -0.03960 0.00452
-0.01276 0.00561 0.05228
0.11207 -0.01172 0.03803
0.77660 0.15813 -0.99970
-0.06511 -0.02094 -0.01429
0.77678 0.15817 -0.99993
-0.06561 -0.02111 -0.00436
-0.13339 0.04575 -0.02064
0.77338 0.15747 -0.99647
0.08020 0.03176 0.09665
-0.13451 0.04116 0.09024
-0.10646 0.01120 0.01618
0.10767 -0.02233 0.06419
0.07599 0.05045 0.08540
-0.09356 0.01013 -0.05816
0.10069 -0.00802 0.01453
-0.12857 0.03104 -0.01694
0.08260 0.03242 0.11252
-0.04799 -0.03789 -0.06260
-0.11029 0.02669 0.09867
0.77459 0.15759 -0.99715
-0.04077 -0.05419 -0.01072
0.77166 0.15669 -0.98917
0.10702 -0.00989 0.03791
0.12186 -0.02087 0.01743
-0.11058 0.01584 0.00629
-0.08004 -0.00182 -0.02846
0.77384 0.15739 -0.99630
0.64125 0.10170 -0.63159
-0.13058 0.02596 0.03695
0.76725 0.15594 -0.98679
0.10761 -0.00964 0.02024
0.07596 0.04104 0.08204
0.76797 0.15669 -0.98695
-0.05575 -0.02980 -0.00812
0.05909 0.04116 0.13812
-0.06191 -0.05859 0.00444
0.10505 -0.02658 0.02000
-0.03166 -0.02561 0.00809
0.07901 0.03471 0.10302
-0.06144 -0.02004 0.00244
-0.06117 -0.02584 -0.01527
-0.06322 -0.03966 -0.02192
-0.04551 -0.06620 -0.04513
0.10480 0.00091 0.05976
-0.05717 -0.01405 0.00619
-0.03047 -0.08291 -0.03754
-0.05922 -0.03812 0.00777
-0.07693 -0.00531 0.02778
0.14892 -0.02378 0.05152
0.07838 0.03844 0.09601
-0.01502 -0.06442 -0.02296
0.77656 0.15814 -0.99970
0.08693 -0.02735 0.03913
-0.04181 -0.04651 0.00019
-0.07140 -0.01385 0.00807
0.11585 -0.01085 0.05397
-0.07628 0.00006 -0.06212
-0.05167 -0.01983 0.02678
-0.05528 -0.02933 -0.05090
-0.10042 0.00903 0.04308
0.09301 0.01830 0.08106
0.11317 -0.01147 0.05356
0.77680 0.15817 -0.99996
0.09725 -0.02259 0.02630
-0.10570 -0.06880 -0.00117
0.10842 -0.01849 0.02915
0.06972 0.04872 0.11117
0.01009 -0.01355 -0.02323
-0.04635 -0.02883 0.00582
0.10223 -0.00363 0.04489
0.12106 -0.02496 0.01645
0.01362 0.01174 -0.00027
-0.09131 0.00490 0.03222
0.77405 0.15729 -0.99586
0.09124 -0.02211 0.04892
-0.05852 0.02539 0.07614
0.77682 0.15818 -1.00000
0.64737 0.11707 -0.77561
0.11154 -0.01721 -0.00045
-0.03709 -0.05766 -0.06121
0.77326 0.15707 -0.99326
-0.02558 -0.05728 -0.00672
0.67170 0.12218 -0.78419
0.11519 -0.02792 0.03989
-0.03882 -0.05265 -0.00748
0.08646 0.01041 -0.01854
0.75608 0.15023 -0.92710
0.63289 0.11359 -0.76138
0.77412 0.15758 -0.99679
0.77519 0.15771 -0.99713
-0.06870 0.00869 0.07712
0.22872 0.00036 -0.33934
0.77681 0.15818 -0.99999
0.01574 -0.01881 0.00693
0.04405 -0.02081 -0.20497
0.76859 0.15590 -0.98284
-0.09648 -0.03173 -0.15544
0.77060 0.15643 -0.98599
0.39191 0.06079 -0.37787
0.09183 0.02481 0.08558
-0.02436 -0.03281 0.00349
-0.08882 -0.00151 0.02719
0.39432 0.01960 -0.15390
-0.08068 -0.00138 0.00164
-0.09667 0.00582 -0.00410
0.11848 -0.04185 0.07232
-0.05830 -0.03060 -0.17480
0.66657 0.12148 -0.70539
-0.07459 0.02108 0.10258
0.66663 0.12290 -0.74818
0.62149 0.10240 -0.67829
0.76169 0.15286 -0.96999
-0.05294 0.00240 0.06494
-0.02123 -0.07608 -0.03925
-0.08717 0.00369 0.06319
-0.12599 -0.01859 0.04012
-0.06805 0.00753 0.01292
-0.03187 -0.05282 -0.00863
0.13622 0.00183 -0.10185
-0.05114 0.00366 0.06717
-0.01493 -0.05699 -0.01520
-0.04773 -0.05324 -0.21397
-0.02703 -0.04559 -0.18485
0.08604 0.03167 0.09266
0.77678 0.15817 -0.99995
-0.11027 0.01242 0.03098
-0.03265 -0.07570 -0.04451
0.04550 -0.02002 0.03153
-0.02289 -0.07752 -0.03603
-0.04789 -0.05306 -0.18905
0.13145 -0.02277 0.04369
0.15689 -0.02293 0.04726
0.77679 0.15817 -0.99997
0.77130 0.15684 -0.99183
-0.02078 -0.07072 -0.01809
-0.05551 -0.06205 -0.02734
0.06135 -0.02138 0.03323
-0.10484 0.03914 0.09842
0.77037 0.15586 -0.98469
0.11708 -0.02328 0.02974
-0.05954 -0.01747 -0.03217
0.07705 0.04300 0.08673
0.10426 -0.00842 0.05304
0.38217 0.10757 -0.52543
-0.05980 -0.05739 -0.22157
-0.13314 -0.08462 -0.07328
0.06610 -0.02032 -0.00100
-0.02001 -0.05229 0.04772
-0.08541 0.00066 0.04316
0.02335 -0.03117 -0.18372
0.05314 0.07609 0.18161
-0.08068 0.02915 0.10631
0.00171 -0.04835 -0.20758
-0.04244 -0.04894 -0.00172
-0.03201 -0.04291 -0.17932
0.60983 0.11990 -0.71260
0.04808 -0.03349 0.02213
-0.09059 -0.08272 -0.04339
-0.01438 0.04938 0.10970
-0.05112 -0.04681 -0.18457
0.14069 -0.01841 0.04601
-0.02138 -0.04530 -0.18247
-0.04152 -0.06090 -0.00943
0.10910 -0.00461 0.03828
0.01358 -0.05003 -0.20448
0.77436 0.15757 -0.99677
0.10989 -0.00501 0.06167
-0.00960 -0.05159 -0.00033
-0.13574 0.02884 0.00711
-0.02376 0.02609 0.07439
-0.09053 -0.01583 0.01768
-0.02170 -0.05331 -0.00839
-0.04062 -0.05115 -0.18337
0.13105 0.06904 -0.18452
0.00166 -0.06550 -0.08676
0.06890 -0.01438 0.02417
-0.04365 -0.07103 -0.02569
-0.04962 -0.06644 -0.02318
0.77680 0.15817 -0.99998
-0.08573 0.00219 -0.03995
-0.00410 -0.01890 -0.17520
0.11976 -0.03660 0.07456
0.11045 -0.00074 0.06054
0.77453 0.15771 -0.99782
0.08613 0.03279 0.08148
-0.03313 -0.05395 -0.23161
0.03063 -0.04331 0.02717
-0.02347 -0.00886 0.02034
-0.04696 -0.05654 -0.22613
0.06099 -0.02904 0.03453
0.09005 0.01248 0.06866
0.76448 0.15505 -0.98332
-0.08369 -0.07473 -0.03730
-0.07084 -0.00822 0.02847
-0.03128 -0.07843 -0.04586
-0.03739 -0.06337 -0.02335
0.07191 -0.01410 -0.01803
0.77339 0.15714 -0.99442
-0.10669 0.00437 0.04205
0.77681 0.15818 -0.99999
-0.02877 -0.03709 -0.17958
0.00308 -0.04693 -0.00090
0.68379 0.12949 -0.81840
0.74553 0.16094 -0.92992
-0.06487 0.03760 0.11087
-0.04718 -0.05550 -0.04473
-0.04677 -0.04435 -0.05328
-0.04154 -0.01878 0.00519
0.12184 0.02644 0.12251
-0.04565 -0.07243 -0.00317
0.06592 -0.03843 -0.26411
-0.07542 0.04359 0.10462
-0.04232 -0.04453 -0.17982
-0.00552 -0.07135 -0.03841
0.69828 0.13460 -0.79399
0.77295 0.15699 -0.99159
0.13733 -0.03449 0.05812
0.15572 -0.00903 -0.33518
0.06977 0.05189 0.11034
-0.02025 -0.07456 -0.01105
0.03944 -0.02993 -0.02957
0.64033 0.10964 -0.71331
0.08122 -0.01945 0.05722
-0.10298 0.00466 -0.00478
-0.08132 0.00068 0.04995
0.16624 -0.03371 0.01986
-0.00637 -0.07347 -0.05178
-0.03201 -0.05501 -0.22761
0.12700 0.03101 0.13880
0.05839 -0.02537 0.05016
0.77247 0.15693 -0.98952
0.07022 -0.02327 0.04609
-0.03430 -0.07252 -0.01976
-0.05815 -0.03820 -0.18042
0.04730 -0.03338 -0.05956
0.62161 0.11301 -0.69674
-0.05709 0.01609 0.07858
-0.01838 -0.04960 -0.00230
0.08832 0.01937 0.07457
0.06377 -0.02912 0.04863
0.11712 -0.00008 0.06313
-0.04181 0.00714 0.07167
0.77374 0.15737 -0.99465
0.76943 0.15542 -0.98285
-0.05498 -0.07215 -0.02310
-0.06338 -0.03593 -0.18060
-0.04853 -0.04642 -0.04159
0.17299 -0.02979 0.00848
0.02315 -0.04792 0.02913
-0.07703 0.00110 0.04129
0.11343 -0.00911 0.03469
0.12603 0.01355 0.09966
-0.04215 -0.05280 -0.01137
-0.01440 -0.04274 0.00200
-0.08526 0.00402 0.00001
0.07492 0.05389 0.15964
0.77318 0.15737 -0.99640
0.77327 0.15736 -0.99238
-0.09870 0.00235 0.03505
0.13970 -0.03177 0.07185
-0.11603 0.03686 0.09878
0.04618 0.05043 0.21702
-0.04227 -0.05725 -0.00712
-0.03760 -0.05037 -0.23017
0.12707 0.02771 0.13533
0.18078 -0.04412 0.07903
-0.08024 0.06188 0.11878
0.12508 0.03403 0.14203
-0.06826 -0.02240 -0.04820
0.00203 -0.06146 -0.03482
0.77352 0.15728 -0.99417
-0.05497 -0.03541 -0.17648
-0.03465 0.02597 0.07179
0.67093 0.13812 -0.78697
0.01661 -0.00280 -0.01080
-0.03369 -0.02051 -0.17291
-0.04503 0.05098 0.11958
-0.12410 0.04281 0.11040
-0.09341 0.00280 -0.04929
0.03253 0.04861 0.18848
0.77680 0.15818 -0.99998
-0.11501 0.05447 0.11273
-0.00939 0.00301 0.02570
0.77681 0.15818 -1.00000
0.09372 0.03075 0.12903
0.13860 0.00500 0.08465
0.76534 0.15442 -0.97879
0.08492 0.03153 0.07475
-0.05114 -0.06153 -0.22641
-0.12147 0.00382 -0.00531
0.07557 -0.01557 0.05896
0.12065 0.02802 0.13464
-0.11536 0.05097 0.12258
-0.06168 -0.05053 -0.19528
0.11489 0.02803 0.13004
0.07139 -0.01566 0.03352
0.01457 -0.04703 -0.21948
0.12256 -0.00260 0.06562
0.08788 0.02629 0.08922
-0.02752 -0.07857 -0.04966
-0.04870 -0.03763 -0.17185
-0.05492 -0.05045 -0.00287
0.16648 -0.01044 0.02921
0.12704 -0.01706 0.04252
-0.07204 -0.04545 -0.19778
0.77238 0.15712 -0.99473
0.11860 0.01542 0.09652
-0.01975 -0.05263 -0.00529
-0.00455 -0.05469 -0.01379
0.75450 0.15312 -0.97524
-0.02346 -0.07674 -0.04270
0.15537 0.00236 -0.12709
0.09108 0.05334 0.15491
0.74533 0.14731 -0.92093
0.76988 0.15546 -0.98033
0.60910 0.09881 -0.64831
0.13559 0.01137 0.10331
0.17331 -0.03994 0.06199
0.10652 -0.02432 0.08105
0.29223 -0.04643 0.10952
0.13577 0.01926 0.11614
0.70241 0.13372 -0.85545
-0.02215 0.02602 0.07893
-0.10179 0.01507 0.07335
0.62292 0.10365 -0.65514
0.08063 -0.03406 0.09225
0.77681 0.15818 -0.99999
-0.12196 0.00614 0.00168
0.76392 0.15570 -0.98044
-0.00749 0.00908 0.05582
0.77681 0.15817 -0.99999
-0.07730 -0.00335 -0.01892
0.14306 -0.00926 0.07443
-0.03698 -0.00702 0.03374
-0.10351 0.03884 -0.04869
0.75858 0.15564 -0.98417
0.09057 0.02195 0.05869
0.77678 0.15817 -0.99991
0.77180 0.15678 -0.98992
0.10570 0.02226 0.05723
0.12005 -0.00278 0.06525
0.76356 0.15784 -0.97778
0.75629 0.15220 -0.91083
0.12121 -0.00780 0.06369
0.77415 0.15760 -0.99721
0.76287 0.15872 -0.97050
-0.03510 -0.05419 -0.19731
0.73302 0.14296 -0.89580
-0.05915 -0.05400 -0.19466
0.10984 -0.00912 -0.08043
-0.02388 -0.03705 0.00637
-0.03407 -0.05010 -0.03792
0.13881 -0.00980 0.05308
-0.06400 -0.04848 -0.05766
-0.07241 -0.00813 -0.02075
0.23275 -0.02827 0.10847
0.18137 -0.03856 0.02695
0.77424 0.15736 -0.99570
-0.00264 -0.01492 0.00024
0.10421 0.01058 0.07254
-0.04306 -0.05169 0.08638
0.00885 -0.02716 0.04364
0.11409 0.00333 0.06770
0.00158 -0.02437 0.01270
0.10445 -0.03112 0.03771
0.13536 0.00348 0.08043
-0.00226 -0.02556 0.04576
0.01039 -0.05485 -0.04156
-0.08079 -0.00315 0.04375
0.10220 0.00482 0.05698
0.10506 -0.01583 0.03663
0.16863 -0.02958 0.03031
0.77557 0.15792 -0.99767
0.06180 -0.03067 0.04309
0.77118 0.15649 -0.98934
-0.08354 -0.00091 -0.00810
-0.03656 -0.04588 -0.17937
-0.03015 -0.07169 -0.03228
-0.05337 -0.04098 0.00985
-0.01650 -0.04341 -0.07379
-0.11392 0.02718 0.09581
0.18491 -0.04059 0.08206
0.77139 0.15657 -0.98841
-0.06614 -0.02042 0.01108
0.03304 -0.01160 -0.04098
-0.07113 0.02808 0.09859
0.06633 0.03548 0.17715
0.14038 -0.00694 0.06903
-0.03552 -0.05429 -0.24366
0.77674 0.15816 -0.99989
-0.06027 0.02927 0.10698
-0.13001 0.04067 0.09670
-0.11708 0.05589 0.07024
-0.05294 0.02940 0.08602
-0.10698 0.00769 0.02919
0.76706 0.15519 -0.97887
-0.10118 0.00650 0.01094
0.09569 0.03918 0.14193
0.03334 -0.01082 0.04325
0.16424 -0.03958 0.11257
-0.04208 -0.04406 0.00533
0.08943 0.01243 0.05624
-0.06001 -0.01652 0.02188
0.77677 0.15816 -0.99994
0.13153 0.01040 0.08911
-0.09838 0.00917 0.06746
-0.02957 -0.04538 -0.00013
-0.06479 0.01638 0.07966
0.02063 -0.04808 0.01523
-0.01657 -0.06315 -0.01977
0.65384 0.14391 -0.82517
-0.08624 -0.01000 0.02122
-0.04985 -0.04220 -0.18369
0.71697 0.13856 -0.86575
-0.14196 0.05420 0.10333
-0.14277 0.04865 0.00753
0.08879 0.00450 0.05702
0.06787 0.06989 0.17168
-0.06163 0.04464 0.10031
0.16410 -0.03534 0.02164
0.03482 -0.03646 -0.23065
-0.09676 0.02569 0.08806
-0.06095 -0.02968 0.01336
0.69758 0.12768 -0.78908
0.74711 0.14453 -0.90346
-0.05958 -0.07105 -0.00107
0.69662 0.12575 -0.77683
0.66444 0.12124 -0.74478
-0.02985 0.03638 0.07808
-0.13548 0.03245 0.04471
0.73715 0.14544 -0.90214
0.28112 0.05423 -0.27778
-0.02823 -0.03764 -0.16335
-0.03700 -0.04807 -0.19145
0.03094 -0.02753 -0.22816
0.67665 0.12387 -0.76340
0.51668 0.10694 -0.66364
0.15699 -0.00755 0.04756
0.02777 0.03127 -0.00375
0.36763 0.10445 -0.50648
0.02194 -0.02810 0.00089
0.19349 0.00310 -0.37387
-0.09130 -0.00213 0.03795
0.73691 0.14546 -0.89978
-0.02212 -0.02145 -0.00104
0.63680 0.13781 -0.74641
0.19292 0.00308 0.08102
0.29008 0.09967 -0.42003
0.72105 0.13664 -0.80826
0.73854 0.14531 -0.90227
0.00587 -0.02862 -0.18976
0.14040 0.01679 -0.07387
-0.02451 -0.06206 -0.07179
0.42617 0.11055 -0.51942
0.74226 0.14757 -0.90939
0.45003 0.12041 -0.42450
-0.15952 0.06489 0.07467
0.06410 0.07470 0.17857
0.74017 0.14723 -0.90775
0.67503 0.13117 -0.80765
0.33235 0.10736 -0.39895
0.12557 0.01530 0.11103
-0.03721 0.04677 0.08988
0.11788 -0.00773 0.05792
0.14853 -0.01256 0.07161
0.12222 0.00640 0.06834
0.15939 -0.02293 0.04953
0.14075 -0.02142 0.03682
0.64809 0.11149 -0.62023
-0.10990 0.00993 0.00906
0.10441 0.03592 0.08888
-0.03703 -0.07309 -0.02910
0.10945 0.04283 0.14571
-0.07623 -0.00467 0.00163
-0.05561 -0.04306 0.00053
-0.04328 -0.08133 -0.02711
-0.11556 0.02481 0.08666
-0.09529 0.00321 0.02407
-0.06853 -0.04601 -0.19587
-0.00402 0.00502 0.02911
-0.08073 -0.02909 0.03141
0.77122 0.15687 -0.99316
0.76883 0.15591 -0.98654
-0.04577 -0.06300 -0.01376
0.13293 0.00033 -0.05440
0.13109 0.00991 0.09738
-0.08291 0.05024 0.05147
0.13837 0.01203 0.11026
0.07154 0.02345 0.08782
0.18817 -0.03610 0.08290
0.02178 -0.01694 -0.04048
-0.00829 0.00714 0.04955
-0.12199 0.04366 0.11480
-0.05731 0.05093 0.10648
-0.05829 -0.04757 -0.18630
0.15775 -0.02796 0.05317
0.16098 -0.00801 0.11898
-0.08325 -0.00402 0.01524
0.10751 0.02937 0.11046
0.08267 0.02688 0.00286
-0.04804 0.01754 0.08398
0.77680 0.15817 -0.99997
0.77072 0.15696 -0.99118
0.11241 0.03559 0.14222
-0.05322 -0.02598 0.01641
0.26837 -0.05547 0.11855
-0.03002 -0.05322 -0.03748
-0.07832 0.00628 -0.10622
-0.07999 -0.04764 -0.20300
0.12709 0.00815 0.08092
0.12073 0.01261 0.08006
0.15271 -0.01524 0.06367
-0.07935 -0.04298 -0.19117
0.14205 -0.00190 0.07392
0.66470 0.12160 -0.74640
-0.03975 0.01552 0.07178
-0.09066 0.00252 0.00774
