# .PCD v.7 - Point Cloud Data file format
VERSION .7
FIELDS x y z
SIZE 4 4 4
TYPE F F F
COUNT 1 1 1
WIDTH 1876
HEIGHT 1
VIEWPOINT 0 0 0 1 0 0 0
POINTS 1876
DATA ascii
-0.03869 0.01842 0.00441
-0.03336 0.01248 -0.08560
0.01697 -0.07538 0.24315
0.09184 0.01850 0.00487
0.09184 0.01850 0.00487
0.17646 -0.00274 0.12628
-0.01702 0.02743 -0.00636
-0.11362 -0.03109 0.00242
0.02172 0.02813 -0.01319
-0.06275 -0.01895 0.01504
0.10932 0.01951 -0.00046
0.12829 -0.02927 0.01716
-0.08442 0.00617 0.00713
-0.00905 -0.04936 0.05582
0.02053 0.00746 -0.00807
0.02966 0.01193 -0.21773
-0.11073 0.00630 0.00343
-0.05520 0.01339 -0.00046
-0.11791 -0.03046 0.00322
0.08988 0.01757 0.00550
0.09600 0.01887 0.00855
0.09241 -0.02683 0.01264
0.01611 -0.05891 0.06181
-0.05335 -0.01866 -0.11716
-0.10707 -0.01614 0.00365
-0.10545 -0.06187 0.01886
-0.11113 -0.03952 0.02497
-0.09073 -0.04599 0.08609
-0.15843 0.02760 0.05855
-0.01714 0.00640 -0.31946
-0.02379 0.01206 -0.23178
-0.02294 -0.05571 0.08134
-0.01083 0.01024 -0.28304
-0.12732 -0.02468 -0.00385
-0.08905 -0.03131 0.02470
-0.12348 -0.03558 0.00632
-0.01542 0.00855 -0.28765
-0.02205 0.00906 -0.27314
-0.00640 0.00915 -0.25496
-0.09157 -0.04592 0.02979
-0.00466 -0.07256 0.22173
-0.01632 0.01044 -0.25725
0.08201 0.01990 -0.12077
0.06529 0.01662 -0.15680
-0.00676 0.01261 -0.25481
-0.00965 0.01004 -0.27083
-0.11612 -0.01696 -0.00343
-0.10659 -0.06772 0.02800
-0.00858 0.00184 -0.31830
-0.09291 -0.04816 0.03867
-0.12301 -0.05050 0.00626
0.02109 -0.05699 0.07576
0.00054 -0.05693 0.04821
-0.12206 -0.03741 0.00551
-0.00885 -0.05445 0.05313
-0.02051 0.00777 -0.29914
0.01562 0.01119 -0.26000
0.13426 -0.02393 0.01471
0.00873 0.00122 -0.31093
-0.05043 0.01189 -0.19253
-0.01734 0.00942 -0.27091
-0.04023 0.01454 -0.12784
-0.00343 0.00926 -0.27764
-0.00039 -0.03027 -0.10713
0.00105 0.00796 -0.29988
-0.00650 0.01277 -0.25453
-0.08506 -0.03100 0.01298
0.01141 0.00172 -0.10017
0.00477 -0.04631 0.03139
0.13838 0.00573 0.02005
-0.01475 0.00748 -0.31029
0.00117 -0.02817 -0.10349
0.02530 0.01204 0.43061
-0.00383 -0.06892 0.13665
-0.00722 0.00734 -0.31199
-0.00289 0.00754 -0.30390
0.02517 0.01147 0.33650
0.00839 -0.06183 0.06902
0.01558 0.01499 -0.25205
0.01850 0.01102 -0.23655
-0.04016 -0.00924 0.00852
-0.00315 0.00791 -0.30390
0.00115 0.01339 -0.21545
0.00005 0.00779 -0.29863
0.02950 -0.05441 0.07703
-0.04729 0.01481 -0.12484
-0.04627 0.01799 -0.06410
-0.00834 0.00622 -0.31433
-0.05130 -0.02464 -0.00715
-0.02129 0.01039 -0.24997
-0.03326 0.01024 -0.08368
-0.03690 -0.00075 -0.17885
0.00612 0.00402 -0.23702
-0.00105 0.00454 -0.34235
-0.05494 -0.01395 0.00734
-0.07244 0.01635 0.00179
-0.04215 -0.02581 0.00782
0.08728 0.02363 0.00191
-0.09457 -0.05384 0.01303
-0.09101 -0.04417 0.03185
-0.00018 0.00492 -0.34958
0.06097 -0.03049 0.00889
0.02722 -0.04413 0.00559
0.05510 -0.04598 -0.01518
0.05241 -0.02908 0.01066
0.07522 -0.02878 0.01002
0.00812 0.01502 -0.09800
0.09023 -0.03819 0.03759
0.07831 -0.03279 -0.00318
0.05285 -0.02929 0.01562
0.00956 0.01215 -0.13310
-0.02120 0.01677 -0.05870
0.07341 -0.02562 0.01246
-0.00006 0.00486 -0.34892
0.08133 -0.04122 0.14299
0.05313 0.02003 -0.00456
0.06099 -0.02563 0.01094
0.03925 -0.03030 0.01102
0.07884 0.02141 0.00725
-0.11201 0.03019 0.23190
-0.05971 -0.02755 0.01777
0.06022 -0.03202 0.00299
0.05754 -0.03023 -0.01041
0.08584 -0.03772 0.00415
-0.07374 -0.03100 0.01432
0.02803 -0.05267 0.06899
-0.00937 -0.00106 -0.31639
-0.10588 -0.01416 0.00115
0.07242 -0.02849 0.01358
-0.02930 -0.05670 0.01140
0.03165 -0.03956 0.00672
0.01978 -0.06258 0.06696
0.02026 -0.04321 -0.00710
0.02556 -0.05375 0.06181
0.01585 -0.00453 0.29070
-0.10458 -0.01225 0.00185
0.00226 0.01487 0.05553
-0.00415 -0.04601 -0.00597
-0.00137 -0.05977 0.07813
0.02699 -0.04917 0.04198
0.01661 0.00671 0.01165
0.01309 -0.02369 -0.00995
0.00006 0.00493 -0.34955
0.02277 -0.01967 -0.04409
0.00916 0.01534 -0.09197
0.09919 -0.02975 0.00801
-0.00004 0.00457 -0.34683
0.05597 -0.01738 0.00262
0.00430 -0.05353 0.02856
0.01583 -0.02383 -0.00920
-0.00018 0.00492 -0.34958
0.01313 -0.03191 -0.01396
-0.00156 0.00446 -0.34221
0.03162 0.01956 -0.01023
-0.02983 -0.03123 -0.00412
-0.10660 -0.00891 -0.01349
-0.10982 -0.00884 0.00115
0.00982 -0.02438 -0.00644
0.03226 -0.03670 0.43308
0.04940 0.00986 0.00495
0.01075 -0.01437 0.01085
0.03092 -0.02347 -0.00998
-0.01342 0.01486 -0.01838
0.00531 -0.05649 0.05658
0.00978 0.01492 -0.11823
-0.03374 0.02272 -0.07221
0.00710 0.00391 -0.30878
0.02907 0.01912 -0.02090
0.05423 -0.01881 0.00906
0.00871 -0.01730 -0.01252
0.09994 0.01588 0.09790
-0.08215 0.00926 0.00400
0.05671 0.02415 -0.04845
0.03816 0.02166 -0.07341
-0.12074 -0.05068 0.00319
0.01422 -0.01860 -0.00898
0.13766 0.03589 0.26387
0.00835 0.00605 -0.28041
0.00005 0.00493 -0.34951
-0.00506 -0.03484 -0.00749
-0.00494 -0.00353 -0.22200
0.01145 -0.04412 0.00052
-0.05156 0.00639 -0.04802
-0.04723 -0.03334 0.00856
-0.04215 0.01112 -0.04938
0.02832 -0.02809 -0.01114
0.05171 0.01879 -0.03775
-0.00002 0.00489 -0.34887
-0.02997 0.01412 -0.01747
-0.01298 -0.01873 -0.00996
-0.01341 0.00425 -0.27569
-0.01160 -0.02110 -0.00888
0.00007 0.00493 -0.34954
-0.06694 -0.01837 0.00611
-0.03448 0.01117 -0.13627
0.05926 -0.02206 0.01007
0.01607 -0.03440 -0.04621
-0.02384 0.01435 0.24976
-0.06876 -0.01840 0.00530
0.00150 -0.04790 0.01195
0.05667 0.01633 0.00055
0.01747 -0.01416 -0.00907
-0.10876 -0.01616 -0.03009
0.09283 -0.01286 0.00826
0.00004 0.00492 -0.34944
-0.04619 0.01157 -0.06391
-0.16367 0.00774 0.12137
0.11299 -0.04382 0.01447
0.05407 -0.00789 0.00774
-0.09091 0.00923 -0.04250
-0.05181 -0.02286 0.00534
0.13599 -0.02122 0.01030
0.05552 -0.00573 0.01046
-0.00069 -0.05760 0.05560
0.10591 -0.03474 0.00531
0.06505 -0.02482 0.00797
0.07518 0.01306 -0.01147
-0.06644 -0.00689 0.00678
-0.05665 0.01594 -0.12367
0.00049 -0.03203 -0.00581
0.10679 -0.04573 -0.00038
0.05829 0.01669 0.00327
-0.05896 0.01593 -0.05177
0.10999 -0.07269 0.02171
0.10942 -0.07237 0.02005
-0.00150 -0.05306 0.05183
0.01212 0.01968 -0.00811
0.00201 -0.01770 -0.18974
-0.06624 -0.01405 0.00671
-0.05695 -0.01028 -0.07470
-0.00051 -0.07360 0.20219
0.03077 -0.01435 -0.00189
-0.10911 -0.05010 0.03671
-0.05461 0.01335 -0.07030
0.08825 -0.03841 -0.00518
-0.10485 -0.00083 0.00287
-0.02398 -0.04612 0.03394
0.00234 -0.03022 -0.01952
-0.02520 0.00711 0.00470
0.04767 -0.02209 0.00232
-0.04642 0.01602 -0.07041
0.00008 0.00473 -0.34166
0.08028 -0.00785 0.01029
0.00850 0.00690 -0.31608
-0.07206 -0.00737 0.14654
-0.11272 0.01893 0.06892
-0.04656 0.01519 -0.07012
0.01601 0.01267 -0.00328
-0.04661 0.01602 -0.07012
-0.02818 0.02063 -0.07217
-0.04630 -0.02311 0.00696
0.10843 -0.03516 0.00772
0.12247 -0.03434 0.00946
-0.00527 -0.02787 -0.00684
0.10390 -0.02238 0.00642
-0.05940 0.01545 -0.05188
0.05007 -0.03099 0.01073
-0.08098 -0.03254 0.00909
0.08211 -0.02880 0.00935
0.09812 -0.04521 0.03100
-0.05292 -0.00158 0.00661
0.06698 0.02110 0.00679
0.10073 -0.05223 0.01087
-0.03411 -0.03865 0.00537
-0.08879 -0.04992 0.01335
0.04307 0.01706 0.00418
0.05858 -0.02167 0.00685
0.03875 -0.03221 0.00933
0.02323 -0.02822 -0.00903
-0.02893 0.02272 -0.04499
0.02615 0.01686 -0.01491
-0.11256 -0.04033 0.00507
0.00076 0.01032 -0.15310
0.00111 0.02083 0.09430
-0.05975 -0.00798 -0.01477
0.12244 -0.01918 0.00240
0.05463 -0.01182 0.01193
-0.08700 -0.04158 -0.03258
0.01157 0.01212 -0.01567
0.00605 0.00237 -0.30254
0.03786 -0.01541 -0.09233
-0.04374 -0.01396 0.00973
0.02617 0.02165 -0.05025
-0.00053 0.00662 -0.19674
-0.10542 -0.06142 0.01744
-0.00133 0.01311 -0.14863
-0.02057 0.00473 -0.34821
0.05132 0.01350 -0.22228
-0.01565 0.00706 -0.31044
0.01446 0.01648 0.00757
-0.12242 -0.02963 -0.00456
-0.00314 0.00906 -0.30106
-0.01017 -0.00028 -0.29644
-0.05093 0.01884 -0.03576
0.02677 0.01729 -0.05375
-0.04876 0.01623 -0.05914
-0.00005 0.00487 -0.34902
-0.01700 0.00727 -0.30540
-0.01246 -0.04164 0.01662
-0.01888 0.00599 -0.32646
-0.02051 0.00756 -0.30966
-0.00897 0.01493 0.08305
-0.10487 -0.04714 0.16187
0.11809 0.02470 -0.02355
0.00344 0.00803 -0.29510
0.03807 0.01428 -0.20630
0.27306 0.09329 0.48418
-0.00972 0.00780 -0.30312
-0.01690 0.01172 -0.24515
-0.00194 0.01634 -0.19893
0.00004 0.01593 -0.18825
0.21316 0.04720 0.30021
0.02014 0.01406 -0.23921
0.06976 -0.02299 -0.02515
0.01664 0.01152 -0.22589
-0.00752 0.00790 -0.27271
0.00132 -0.01805 0.02324
-0.06950 -0.03205 -0.12706
0.00080 0.00519 -0.34519
0.39468 0.08262 0.81994
-0.00926 0.01225 -0.22100
-0.10058 -0.05384 0.00545
0.02246 -0.05706 0.06902
-0.00018 0.00493 -0.34957
-0.02067 0.00472 -0.34838
0.01152 0.02654 -0.06277
-0.02864 -0.05325 0.01026
-0.01891 -0.05870 0.07440
-0.01814 -0.05419 0.04257
-0.01428 0.01141 -0.24580
-0.07493 0.02182 0.00573
-0.18669 0.01023 0.14614
-0.20331 0.01782 0.16539
-0.00006 0.00497 -0.34848
-0.08838 -0.03818 0.10730
-0.00273 0.00795 -0.30156
-0.02040 0.00850 -0.28490
0.01185 -0.06680 0.13296
-0.04023 0.01454 -0.12784
-0.09440 0.01271 -0.12670
-0.00914 0.00640 -0.32217
0.15561 -0.05640 0.29472
0.08513 0.02259 -0.02025
0.01963 -0.05918 0.08760
0.01299 0.01310 -0.21727
0.01056 0.01032 -0.27134
0.01233 0.02664 -0.06489
-0.00934 0.00064 -0.30643
-0.01083 0.01126 -0.19394
-0.06523 0.02397 -0.06060
0.00361 -0.06020 0.06843
0.00167 -0.02330 -0.13645
-0.00952 0.01087 -0.25601
-0.08957 -0.03247 0.02849
-0.01320 0.01160 -0.23116
0.01705 0.01032 -0.26337
-0.12920 0.02480 -0.02811
-0.00560 0.00880 -0.28080
-0.00812 0.01016 -0.25977
0.04857 0.01661 -0.15539
0.02516 0.01448 -0.21082
-0.00001 0.00399 -0.34366
0.01330 -0.06331 0.08139
-0.00822 0.00677 -0.30762
0.01470 0.01344 -0.25524
-0.01545 0.00872 -0.26511
-0.14395 -0.03285 0.06104
0.00137 -0.00256 -0.27385
-0.00966 0.00763 -0.28291
-0.00660 0.00781 -0.27950
-0.00483 -0.01360 -0.00684
0.00809 0.01680 -0.14141
-0.12331 -0.04045 -0.00009
0.04302 0.06217 0.40654
-0.00731 0.01686 -0.18919
-0.02381 0.01039 -0.29186
-0.01003 0.01129 -0.25439
-0.00319 0.01290 -0.23785
-0.01263 0.00851 -0.29736
-0.03186 0.00396 -0.25044
-0.00790 0.00750 -0.28691
0.01025 -0.03602 -0.04419
0.00436 -0.06171 0.06720
0.08384 0.03769 0.06691
0.08384 0.03769 0.06691
-0.01139 0.00909 -0.28136
-0.01222 0.01296 -0.23072
0.02437 -0.05351 0.07380
-0.01120 -0.10516 0.42773
-0.02053 0.00477 -0.34809
0.01369 0.01378 -0.21032
-0.02528 0.00528 -0.33586
-0.15913 0.01802 0.41297
-0.01857 0.01177 -0.24044
0.02453 -0.06217 0.13751
-0.00389 0.00947 -0.28373
0.02150 -0.05017 0.04330
0.00007 0.00493 -0.34958
-0.00151 -0.05775 0.06136
-0.00955 -0.00046 -0.29924
0.02135 -0.05356 0.04804
0.00908 -0.06422 0.07014
-0.01712 0.01249 -0.24564
-0.01275 0.01705 -0.13786
0.01932 -0.04100 0.01587
-0.05217 -0.01735 0.00765
0.05318 0.01635 -0.15843
0.02315 -0.00286 0.07296
0.12755 -0.04903 0.01313
-0.00005 0.00495 -0.34892
-0.01653 0.00832 -0.27191
0.11633 0.02667 -0.04293
-0.00396 0.02833 -0.00657
0.00510 -0.05630 0.06481
0.00966 -0.05149 0.05260
0.10547 0.02531 -0.06849
0.00020 0.00532 -0.34399
-0.01159 -0.02269 0.13603
-0.03854 0.02876 0.00832
-0.07322 0.03289 0.06850
0.00880 -0.08072 0.27424
0.06012 0.01696 -0.17079
-0.12583 -0.05444 0.08053
0.03137 -0.01796 -0.11802
-0.01730 -0.05585 0.03405
-0.00864 0.01821 -0.16317
-0.01826 0.01008 -0.27412
0.01201 0.01277 -0.01460
0.06768 -0.02887 0.01871
0.00292 -0.06385 0.08620
-0.01097 0.01395 -0.00804
-0.06041 0.01338 -0.13251
-0.01673 -0.04907 0.04055
0.01762 0.01433 -0.02041
0.01692 0.01483 -0.19173
-0.08649 -0.03538 0.05734
-0.17735 0.01459 0.10839
-0.00098 -0.05687 0.06602
-0.01169 0.00800 -0.29455
0.08573 0.04595 0.28641
0.05405 0.02526 -0.07785
-0.05595 0.01393 -0.15704
-0.09801 0.02182 -0.00042
-0.00006 0.00496 -0.34882
0.01278 0.01905 -0.11697
-0.00924 -0.05251 0.04596
-0.00040 -0.07401 0.13933
-0.01018 -0.04923 0.05484
-0.02032 -0.05897 0.07396
-0.01908 0.00687 -0.31694
0.00026 0.00500 -0.34847
-0.08778 0.01972 0.05146
-0.04999 -0.01728 0.00762
-0.02374 0.01050 -0.29150
-0.00009 0.00496 -0.34582
0.02830 -0.06768 0.16095
0.05761 -0.01680 -0.00829
-0.02052 0.00476 -0.34807
0.00485 -0.05564 0.07298
0.05460 -0.01551 -0.01323
-0.04176 0.01138 -0.08803
0.01792 -0.00409 -0.01254
-0.12353 -0.04984 0.00557
-0.00781 0.00788 -0.27072
-0.00004 0.00586 -0.29157
-0.00947 0.00643 -0.31983
0.00007 0.00493 -0.34957
0.02635 0.00680 -0.23816
0.09509 -0.04152 0.02520
-0.10547 -0.04292 -0.00417
-0.00745 0.00799 -0.26582
-0.13623 0.02185 -0.00798
0.02594 0.02012 -0.05105
-0.04131 -0.01650 0.00763
0.05070 0.01700 0.01892
0.16060 0.03596 0.57865
0.03760 0.00845 -0.19567
-0.10194 -0.00601 0.12729
-0.00917 0.00655 -0.29691
0.02569 -0.05860 0.07538
-0.07282 0.01080 -0.12664
0.00002 0.00502 -0.34825
0.02803 0.01149 -0.21716
0.12165 0.00019 0.01696
-0.08399 0.01123 0.04607
0.01323 0.02471 0.28721
0.14964 0.02711 0.26166
-0.06060 0.01772 0.03910
0.02596 0.02750 -0.02509
-0.03697 0.01101 -0.22174
0.05816 -0.00178 0.01120
-0.00895 0.00618 -0.31015
0.00007 0.00493 -0.34957
-0.05390 -0.02591 0.00740
0.02723 -0.03371 -0.00443
-0.07060 0.01502 -0.00134
-0.08767 0.01883 -0.00357
0.07683 -0.01565 -0.00841
-0.01557 -0.06114 0.08472
-0.00438 0.00560 -0.31281
-0.07416 -0.02606 0.00711
-0.08968 -0.02074 -0.06027
0.13017 0.00946 -0.00009
-0.01202 0.00639 -0.30102
0.04142 0.01396 -0.19213
-0.12804 -0.02577 0.00557
-0.01586 0.01106 -0.24382
0.01359 -0.06790 0.07629
-0.10314 -0.03564 0.02788
-0.01293 -0.07080 0.11579
0.03171 0.02453 0.17050
0.05002 -0.03098 0.01066
0.03588 -0.05052 0.00924
0.03212 -0.05251 0.01080
-0.12847 -0.02833 0.00828
0.08826 -0.01117 0.00973
0.00607 -0.05726 0.05159
0.00666 -0.05565 0.05575
0.11920 0.01285 0.00807
0.09210 -0.03057 0.02509
-0.03361 0.01607 -0.00389
-0.06414 -0.01658 0.00701
-0.02069 0.00479 -0.34744
-0.02083 0.00472 -0.34858
-0.02081 0.00469 -0.34882
-0.02082 0.00470 -0.34862
-0.02081 0.00469 -0.34876
-0.02086 0.00469 -0.34875
-0.11742 -0.03718 0.00004
0.13354 -0.01537 0.01166
-0.00110 -0.06295 0.08811
0.09403 -0.03255 0.02667
-0.00784 0.01578 -0.08475
0.03573 0.01368 -0.19565
-0.01495 0.01094 -0.31034
-0.02080 0.00469 -0.34882
-0.10956 -0.05469 0.00843
0.04097 0.01400 -0.19895
-0.19433 0.00809 0.15144
-0.01052 -0.06986 0.13658
-0.19289 0.00852 0.15235
0.01526 -0.06105 0.08185
-0.02043 0.00907 -0.28228
0.01040 -0.05144 0.03817
0.01740 -0.05059 0.04604
-0.02082 0.00744 -0.30787
-0.01648 0.00666 -0.30833
0.16723 0.00023 0.07651
-0.07823 0.01828 0.00550
0.01637 0.00289 0.00923
-0.01101 0.01431 -0.01048
0.00127 -0.07762 0.20748
-0.14190 0.00281 0.03464
0.03596 0.01809 -0.11358
0.01505 0.01375 -0.25298
-0.00851 0.00653 -0.31891
-0.00280 -0.06609 0.06814
0.09922 -0.05159 0.01228
-0.00845 0.01213 -0.19787
-0.00239 0.00738 -0.25840
-0.02050 -0.04102 -0.02084
0.01466 -0.06248 0.10414
-0.00043 -0.04738 0.00701
-0.01748 0.01990 -0.10181
-0.03578 -0.03210 0.00784
0.06460 0.01437 -0.18337
-0.00031 -0.04953 0.00856
-0.00007 0.00436 -0.34583
-0.04035 0.02859 0.01646
0.00390 -0.09519 0.21376
0.03086 -0.05008 0.01316
0.03136 -0.04877 0.01368
0.00116 -0.05250 0.05004
0.00957 -0.05597 0.06620
0.01190 -0.06219 0.08164
0.00868 -0.02084 -0.00861
-0.03573 -0.03382 0.00900
0.00472 -0.05706 0.05018
0.02691 -0.04046 0.01495
0.01016 -0.04690 0.01902
0.02342 -0.04007 0.01567
0.00566 -0.04840 -0.00084
-0.00176 0.00768 -0.25170
0.03074 -0.05264 0.00976
-0.00187 0.00815 -0.24241
-0.02788 -0.04904 0.00804
0.00576 -0.04719 0.01864
0.00562 -0.04655 -0.00170
0.01340 -0.05377 0.06612
0.00946 -0.01339 -0.01412
-0.00940 -0.03856 -0.00449
0.03303 -0.05609 0.01259
0.01115 -0.04882 0.02708
-0.00587 -0.06708 0.07305
-0.03362 0.01117 -0.23564
0.01977 -0.05592 0.07296
-0.02614 -0.03536 0.00454
-0.00021 0.00450 -0.34155
0.01331 -0.02050 -0.00822
0.01173 -0.04503 0.02230
0.00965 -0.01995 -0.00804
-0.00001 0.00452 -0.34417
0.00015 0.00907 -0.19188
-0.00010 0.00457 -0.34281
-0.01167 -0.02041 -0.00855
-0.02215 -0.03991 0.01339
0.00807 -0.02100 -0.00683
0.00136 -0.02007 -0.00799
-0.03921 0.00361 0.00870
-0.00275 -0.02006 -0.00835
0.00216 -0.02073 -0.00775
0.02539 -0.03931 0.01296
0.02539 -0.03931 0.01296
0.01121 -0.01850 -0.00928
-0.00049 -0.02385 -0.00999
-0.00433 -0.02386 -0.01001
-0.00431 -0.02386 -0.00999
0.01484 -0.02360 -0.00964
-0.01612 -0.04904 0.02396
0.02043 0.00194 0.00985
-0.01006 -0.02388 -0.01007
-0.00473 0.01712 -0.04501
-0.01046 -0.02015 -0.00869
-0.01046 -0.02015 -0.00869
0.00678 0.01762 0.00290
-0.02737 -0.02299 -0.02049
-0.00417 -0.02012 -0.00849
-0.03635 -0.02395 0.00888
0.00332 -0.02376 -0.00992
0.00815 -0.04468 0.01770
0.00823 -0.01582 -0.00889
-0.00329 -0.01445 -0.00501
-0.00623 -0.02385 -0.01016
-0.01858 0.00137 -0.00493
0.02581 -0.02392 -0.00681
0.00007 0.00493 -0.34955
0.03115 -0.02482 -0.00972
0.03204 -0.02343 -0.00945
-0.01465 -0.02468 -0.01073
0.02535 -0.02411 -0.01082
0.03241 -0.03248 0.00306
0.02301 -0.02886 -0.00955
-0.01871 0.01520 -0.01167
-0.00627 -0.02836 -0.00835
-0.01809 -0.01238 -0.00671
-0.02729 0.00235 -0.00560
0.02967 -0.02384 -0.00638
-0.01704 -0.01734 -0.00899
0.03233 -0.03486 0.00533
0.00716 -0.02382 -0.00971
0.01370 -0.02406 -0.00898
0.01640 -0.01799 -0.00020
-0.01499 -0.03162 -0.00904
-0.02478 -0.02797 -0.00714
0.03145 -0.02851 0.02377
-0.03733 -0.01600 0.00532
-0.03811 -0.00830 -0.00039
0.00268 -0.02416 -0.00929
-0.01864 -0.02924 -0.00946
-0.00822 -0.02393 -0.00987
-0.01966 -0.02409 -0.00985
-0.02815 -0.03584 0.00897
-0.01643 -0.02433 -0.00972
-0.00694 -0.02426 -0.00938
-0.02343 -0.02404 -0.01020
-0.01423 -0.03249 -0.00809
0.01676 -0.01981 -0.01122
-0.01130 -0.04746 0.02541
-0.00465 -0.02469 -0.00997
0.00013 -0.02463 -0.01010
0.00526 -0.02381 -0.00927
0.00639 -0.02994 -0.00883
-0.01459 -0.03103 -0.00940
-0.03254 -0.05148 0.00986
-0.01601 -0.04107 0.01228
-0.02645 -0.03971 0.00619
-0.01112 -0.02402 -0.00967
0.00121 -0.02969 -0.00724
-0.00127 -0.02016 -0.00729
0.03430 -0.03472 0.00558
-0.01308 -0.02411 -0.00943
-0.02582 -0.04799 0.05994
0.01507 -0.02084 -0.00784
-0.03290 -0.04401 0.00755
0.01240 -0.02041 -0.00852
-0.01615 -0.04783 0.02716
-0.00031 0.00793 -0.24397
0.01676 -0.05156 0.05764
-0.02925 0.02289 0.12858
0.00601 0.01121 0.01959
-0.05822 -0.03204 0.00853
-0.01345 0.00641 -0.31852
-0.06907 -0.03169 0.00327
-0.00004 0.00464 -0.34734
0.07842 0.02130 0.00613
0.04681 -0.01794 -0.11786
-0.00288 0.00799 -0.29750
0.03228 -0.07450 0.17008
-0.08023 0.01860 -0.01033
0.00518 -0.04868 0.04306
0.13930 0.02995 0.03007
-0.01686 0.00715 -0.30747
0.17452 -0.08194 0.20381
0.01793 0.01954 -0.13085
0.11623 -0.05699 0.04080
-0.01196 0.00961 -0.26221
-0.00709 0.00875 -0.28533
0.00433 0.00839 -0.29989
-0.00019 0.00498 -0.34873
-0.03937 0.01241 -0.21092
-0.01717 0.01321 -0.22725
0.00020 0.00495 -0.34926
0.00285 0.00762 -0.30781
0.09988 -0.03230 -0.03047
-0.01702 -0.00241 -0.27494
-0.00524 0.00909 -0.27823
-0.01863 0.00562 -0.32193
-0.06201 -0.04982 0.01755
0.00611 -0.04121 0.00282
-0.00225 -0.03818 -0.04129
-0.00489 0.00654 -0.30782
-0.07829 0.02239 0.02696
-0.15460 0.05038 0.69624
0.11356 -0.04087 0.04245
0.00462 0.00576 -0.33691
0.00528 0.00595 -0.33460
-0.11714 0.01892 -0.06121
0.01817 0.01588 -0.17242
-0.02098 0.00608 -0.32803
0.04664 0.00558 0.03127
-0.03504 -0.02974 0.00239
0.00765 -0.04056 -0.01675
-0.02436 -0.09790 0.40274
0.01989 -0.07287 0.23011
-0.01167 0.00903 -0.24870
-0.10848 -0.07448 0.02695
-0.01318 0.02405 -0.02320
-0.02448 0.01752 -0.15292
0.01508 0.01316 -0.26310
-0.01894 0.00603 -0.32627
-0.03654 0.01022 -0.25152
0.00068 0.00504 -0.34780
-0.01629 0.01194 -0.23180
-0.03060 0.01051 -0.26211
0.04218 0.02926 0.00312
-0.00435 0.02110 0.15809
-0.02150 0.00799 -0.29624
-0.00006 0.00486 -0.34918
0.01623 0.01143 -0.25908
-0.00017 0.00494 -0.34901
-0.01945 0.00603 -0.32681
-0.00133 0.01796 -0.13382
-0.00648 0.00928 -0.28359
0.00091 0.00507 -0.34718
-0.00007 0.00497 -0.34885
0.00043 0.00500 -0.34844
-0.00773 0.01942 -0.11049
0.00302 0.01267 -0.11801
-0.00047 0.00848 -0.29437
0.00451 0.00585 -0.33401
0.04922 0.02440 0.11314
0.01565 0.00768 -0.31056
-0.12504 -0.01134 -0.00144
-0.11356 0.01811 -0.00008
0.00911 0.00634 -0.32676
0.00028 0.00514 -0.34389
-0.04470 0.01280 -0.07253
-0.01287 0.01495 -0.19485
0.00007 0.00493 -0.34957
-0.08050 0.00609 0.00413
0.00046 0.00501 -0.34843
-0.03449 0.01252 -0.13593
0.07320 0.01995 -0.14325
0.00713 0.01523 -0.21125
0.04117 0.01297 -0.21236
0.05400 -0.00462 0.01964
-0.00112 0.01214 -0.22308
0.01340 -0.08033 0.24790
0.06144 -0.01181 0.00916
0.06755 0.01559 -0.14677
-0.04861 0.00815 0.01216
-0.02066 0.00470 -0.34847
-0.01623 0.01093 -0.26410
0.14137 0.04695 0.30411
-0.01339 0.00614 -0.27566
0.10849 -0.07013 0.01898
0.01212 0.00846 -0.29869
0.10583 -0.00646 0.08963
-0.11940 -0.02771 0.01207
0.02739 -0.07100 0.13260
-0.01982 0.00725 -0.30508
-0.03754 0.01494 0.01178
0.02565 0.01769 -0.22449
-0.11698 0.02840 0.22448
-0.06799 -0.00561 0.00730
-0.12563 0.02013 0.04626
-0.04321 0.01060 -0.09733
0.00189 0.00535 -0.34326
0.03188 0.01522 -0.19650
0.04853 -0.00295 -0.07610
-0.05883 -0.01013 0.00927
-0.05920 -0.00216 0.00477
-0.05044 0.01276 -0.04917
0.05578 0.02131 -0.11482
0.01728 0.02174 -0.10488
0.00846 0.00629 -0.30893
-0.12931 -0.01737 0.00335
0.00691 0.00606 -0.31578
-0.00386 0.00299 -0.13261
-0.00018 0.00493 -0.34957
0.09035 0.00336 0.00914
0.00791 0.01205 -0.10919
-0.02295 0.02090 0.00472
0.00303 0.00551 -0.34139
-0.02127 0.00871 -0.28323
-0.01730 0.00858 -0.28791
-0.11824 0.00692 0.02453
0.08226 -0.01444 0.00648
0.02261 0.02033 -0.15014
-0.01940 0.01808 -0.09159
-0.01234 0.00840 -0.26443
0.00100 0.00741 -0.29190
-0.03310 0.01201 -0.08882
0.00122 0.00511 -0.34589
-0.00018 0.00493 -0.34956
0.03073 -0.01025 -0.01077
0.00082 0.00511 -0.34707
-0.09656 0.01447 -0.01601
-0.09563 -0.00426 0.00881
-0.00039 0.00484 -0.34770
0.01038 0.00988 -0.27455
0.01711 0.00161 -0.00084
-0.08735 -0.01495 0.00584
0.07308 -0.00636 0.00524
-0.05456 0.01434 -0.07130
0.02381 -0.00447 -0.16946
0.11724 -0.02684 -0.00430
0.11724 -0.02684 -0.00430
-0.03167 0.02411 0.03201
0.00004 0.00492 -0.34944
0.09825 0.00640 -0.08515
0.02118 -0.00857 -0.00745
-0.11493 -0.03265 -0.00334
0.02224 0.00919 -0.17166
0.00571 0.00559 -0.32698
0.06235 0.02026 -0.11388
-0.00176 0.01297 -0.22623
-0.00176 0.01297 -0.22623
-0.00862 0.01009 -0.26639
-0.08457 -0.00319 0.00013
-0.01973 0.00770 -0.30093
0.11028 0.00661 -0.02193
-0.10921 0.00424 0.02338
0.02699 -0.04825 0.05342
0.03035 -0.04333 0.01046
0.13584 -0.01706 0.01930
0.02848 0.01880 -0.01845
0.06517 -0.01130 0.00978
0.02739 0.01372 -0.01159
0.02651 -0.04931 0.06705
-0.00731 0.01150 -0.10021
-0.15437 -0.08439 0.18794
0.00651 -0.03271 -0.06926
0.00734 -0.03250 -0.07680
0.00002 0.00441 -0.34589
0.01674 0.01454 -0.25687
-0.03211 0.02110 0.05133
-0.01780 0.01750 -0.03105
0.01049 0.00980 -0.27554
-0.01439 0.00711 -0.31157
-0.01208 0.00629 -0.32324
0.07948 0.00346 0.01080
0.07948 0.00346 0.01080
0.10954 -0.03447 0.00957
0.01163 0.00374 -0.08187
0.03733 -0.04171 0.00903
-0.11612 -0.05621 0.01100
0.07761 -0.01575 0.00884
0.07675 -0.00772 0.00919
0.08760 -0.01654 0.00756
-0.08949 -0.01817 0.00586
0.04035 0.01329 -0.08558
0.03480 -0.05357 0.01116
0.25676 0.04458 0.26206
0.04284 0.04211 0.05811
-0.01560 0.02633 0.02262
-0.08889 0.01251 -0.21170
-0.00272 0.00822 -0.29665
-0.02360 0.01058 -0.28811
0.05087 0.01744 -0.15710
0.00303 0.00807 -0.29755
0.01704 0.01657 -0.17687
-0.08981 0.01330 -0.21274
0.00203 0.00533 -0.34065
-0.00719 0.00883 -0.30990
-0.00740 0.00908 -0.30832
-0.10660 -0.03702 0.00772
0.11283 -0.03449 0.01962
0.02570 -0.04809 0.02233
0.03330 -0.05433 0.01115
-0.00207 0.00762 -0.30355
-0.00885 0.00033 -0.30392
-0.02035 0.00926 -0.28991
0.00888 0.02014 -0.11287
0.01341 0.01657 -0.14812
0.07991 0.02209 0.01817
0.02276 0.01472 -0.21218
0.06109 0.02510 -0.07458
-0.00781 0.00842 -0.29694
-0.02908 0.02130 -0.18063
0.19758 0.00310 0.13392
0.07508 -0.02899 0.01038
-0.01861 0.00886 -0.28869
0.10175 -0.05020 0.00925
0.04290 0.02002 0.00222
0.29683 0.00626 0.26707
0.04769 0.02965 0.01231
-0.02267 0.01840 -0.11234
-0.10611 -0.07209 0.02104
-0.10627 -0.06975 0.01902
-0.04182 0.01237 -0.18428
0.13604 0.00743 -0.00442
0.18095 0.00713 0.07009
-0.02987 0.01232 -0.22385
-0.18310 0.00813 0.13180
-0.19544 0.00713 0.17037
-0.09022 -0.04930 0.01185
0.00901 0.00810 -0.30690
-0.04115 0.01431 -0.12158
0.10648 0.02399 -0.07166
0.01104 0.02284 0.37826
0.12818 0.02734 0.01992
0.01688 0.01297 -0.25191
-0.08744 0.01146 -0.21226
-0.01446 0.00839 -0.29350
-0.00088 0.01061 -0.26171
0.05503 0.02462 -0.04730
-0.02028 0.01500 -0.23271
-0.08998 0.01465 -0.21196
-0.00018 0.00493 -0.34957
-0.01477 0.00552 -0.33564
0.06214 0.02101 -0.00976
-0.02046 0.00474 -0.34788
-0.01094 0.03143 0.02905
-0.01770 0.00913 -0.28765
-0.00880 0.01172 -0.24521
-0.05135 0.01755 -0.03211
0.00982 0.02064 -0.11976
-0.02039 0.01142 -0.23786
0.04511 0.01256 -0.23361
0.00170 0.00702 -0.31981
0.01712 0.00960 -0.28547
-0.02200 0.02088 -0.04519
0.07415 0.02321 -0.00644
0.13337 0.03003 0.09632
0.00817 0.03142 0.08476
0.05900 -0.04575 -0.01087
0.06542 -0.04798 0.01369
-0.09520 -0.04797 0.02926
-0.01885 0.01972 -0.02284
-0.07470 0.01859 0.00217
-0.06051 0.01467 -0.09002
0.07758 -0.02752 -0.00205
0.00654 0.01112 -0.26096
0.00456 0.00682 -0.31971
-0.02287 0.01177 -0.22441
0.08772 0.02049 0.00373
-0.02354 0.01293 -0.20861
0.05179 0.04522 0.11000
-0.02216 -0.05360 0.07420
-0.09358 0.01551 -0.20456
0.06236 0.00171 -0.07766
-0.05812 0.01439 -0.03986
-0.00476 0.00736 -0.30802
0.00387 0.00651 -0.32488
-0.02077 0.00470 -0.34860
0.00121 0.01327 -0.05102
-0.09428 -0.05274 0.01865
0.04921 -0.02693 0.00807
0.01169 -0.04552 0.58495
0.03245 0.02151 -0.10432
-0.04570 -0.01431 -0.15040
-0.01399 -0.03887 -0.01142
0.21301 0.02587 0.01573
0.05975 0.04384 0.22979
-0.00727 0.00684 -0.31923
0.04813 0.01334 -0.21867
-0.04212 -0.00750 -0.22810
0.11440 0.02479 -0.00093
0.09072 -0.03060 0.01814
0.01057 0.02051 0.01019
-0.02382 0.01932 -0.01674
0.12184 0.03097 0.20554
-0.03274 -0.05013 0.00880
-0.00893 -0.01384 -0.00044
0.19328 0.00353 0.10723
0.15772 0.02812 -0.00033
-0.11392 0.01818 -0.10156
-0.00056 0.00474 -0.34777
0.09412 0.02268 -0.10090
-0.08858 0.01516 -0.21222
0.24914 0.03591 0.16844
0.20373 0.03036 0.07852
0.01646 0.02064 -0.00266
0.01047 0.02389 -0.08023
0.01859 0.00783 -0.00849
-0.33384 0.02502 0.43265
0.08463 0.02242 -0.11096
-0.03228 0.01083 -0.10436
0.02328 -0.05131 0.06528
0.01309 -0.05486 0.06099
-0.00798 0.01576 -0.21697
0.00725 0.00517 -0.17561
0.09006 -0.04451 0.01538
0.01718 -0.04411 0.00584
0.00252 0.00736 -0.31503
0.04741 -0.01835 -0.10010
-0.00759 0.00895 -0.30844
0.01371 -0.05290 0.06728
-0.08678 0.01424 -0.21677
0.08432 0.03507 0.02524
-0.11806 -0.04429 -0.01034
0.00094 -0.06638 0.10344
-0.00039 0.00505 -0.34754
-0.00006 0.00511 -0.34688
0.10092 0.01981 -0.09148
0.10727 -0.05692 0.15844
0.03528 0.02416 0.68147
-0.02133 0.00999 -0.23399
0.01494 0.01930 -0.05568
0.01287 0.02040 -0.05341
-0.08653 0.01447 -0.21496
0.01854 -0.05787 0.06826
-0.11646 0.00864 0.00888
-0.08430 -0.03415 0.01488
0.21170 0.00786 0.12300
0.00999 -0.05993 0.08440
-0.00623 0.01813 0.02059
0.00691 -0.05842 0.05913
0.05271 0.01255 -0.20906
0.04297 0.02246 -0.07484
0.04297 0.02246 -0.07484
-0.01490 0.00692 -0.31742
0.04786 0.00914 -0.21344
0.21035 0.00509 0.17247
0.05881 -0.02857 0.00892
-0.02102 -0.06037 0.08248
0.08421 0.00867 0.00800
0.01298 0.01091 -0.26780
0.09306 0.01293 -0.01770
0.00784 0.01007 0.03004
0.06009 0.01544 -0.17118
0.01701 0.02130 -0.08377
0.04847 -0.01320 -0.00891
0.22940 0.00656 0.03248
0.06121 -0.01892 0.01056
0.00430 -0.05190 0.05473
-0.01297 0.00675 -0.31604
0.11187 0.02345 -0.03651
-0.01523 0.00734 -0.30591
0.07963 -0.02607 0.00188
-0.11154 -0.02872 0.00638
0.04343 0.00028 0.00983
0.10736 -0.05644 0.15936
0.00042 0.00499 -0.34871
0.12810 -0.04198 0.04394
0.18962 0.03250 0.09089
-0.10357 0.01561 -0.13131
-0.03440 0.01600 -0.07370
0.22529 0.01027 0.16086
-0.03630 0.01156 -0.08895
0.03782 0.02112 -0.04313
0.11160 0.01361 -0.06095
0.06095 -0.00276 0.04266
0.09166 0.00188 0.01241
-0.01335 0.00229 -0.16106
-0.03850 0.00205 -0.06979
0.13272 0.01396 0.01218
0.00101 0.00635 -0.32552
0.07482 -0.00393 0.00785
0.09021 -0.01542 0.00660
-0.09301 0.01185 0.00199
0.02048 0.01953 -0.03801
-0.12035 0.00898 -0.02222
0.07771 -0.01713 0.01484
-0.13682 0.02631 0.02197
-0.09065 0.01763 0.02628
-0.08815 0.01073 -0.21307
0.06004 0.01393 0.00555
0.08682 0.02339 0.01483
0.08444 0.02172 0.00627
-0.01285 0.00872 -0.29508
0.04011 -0.03531 0.01031
0.19585 0.03195 0.00391
0.05841 0.01413 0.05215
-0.00748 -0.05318 0.00742
-0.07115 0.01532 -0.03638
-0.06296 0.01531 -0.03131
0.18054 0.02396 0.03607
0.13466 0.01226 0.01583
-0.08011 -0.01004 0.00258
-0.08146 -0.01049 0.00822
0.08339 0.01370 0.01069
0.04022 0.01179 -0.20863
0.04572 0.02387 -0.06900
-0.11735 -0.02103 -0.00488
-0.05203 -0.00600 0.01033
-0.09507 0.01557 0.03137
-0.01358 0.01877 -0.02110
0.10220 -0.01119 -0.00245
0.05763 -0.00174 0.00945
-0.00950 -0.05032 0.00882
0.01408 0.01173 0.01322
-0.12359 0.02332 -0.00353
-0.00916 -0.05235 0.05268
0.00821 0.00696 -0.30636
-0.00064 0.00999 -0.12957
0.01122 0.01375 -0.21424
-0.08839 0.01494 -0.21176
0.03205 0.00894 -0.27811
-0.09305 -0.03212 0.00318
0.06038 0.03025 0.03525
-0.08948 0.00960 0.00373
0.02188 0.00154 -0.00262
-0.04646 0.01157 0.01117
0.08703 0.02249 0.00351
-0.05003 -0.01808 0.00584
-0.11784 0.03172 0.17067
-0.09410 -0.04136 0.01007
0.14580 0.00639 0.03850
-0.11344 -0.01385 0.00687
0.06781 -0.00449 0.00862
0.00556 0.00993 -0.07376
0.05769 -0.01668 0.00488
0.04154 0.00112 -0.08535
-0.05914 0.01053 -0.05148
0.11347 0.01794 -0.01400
-0.04754 0.00597 -0.07282
-0.04624 0.00631 -0.08643
0.05235 0.01172 -0.20787
-0.03560 -0.00594 -0.23410
-0.01040 -0.03373 -0.00796
-0.04624 0.00871 -0.08662
-0.04443 0.01656 -0.09261
-0.01926 0.00750 -0.29988
-0.08568 0.01007 -0.22021
-0.02863 -0.03004 0.00713
0.01043 0.01393 -0.04878
-0.01058 -0.00687 0.05778
0.10641 0.02187 -0.13282
-0.00277 0.00668 -0.31565
0.00795 0.00862 -0.28483
0.11077 0.02432 -0.00329
-0.06724 -0.02334 0.00631
0.01186 0.02163 -0.03440
0.01350 0.00763 -0.31077
0.08101 0.01431 0.01290
0.11476 -0.01319 0.01132
-0.11100 0.02003 0.00378
-0.11100 0.02003 0.00378
0.04108 -0.02166 -0.00050
0.06652 0.01033 -0.16047
0.07882 -0.00448 0.00697
-0.03692 0.00518 -0.22004
-0.00282 -0.01304 -0.00749
-0.01631 0.00204 -0.01094
-0.10635 0.01829 -0.01046
-0.00853 0.00760 -0.24456
-0.10831 0.01625 -0.13652
0.03604 0.02111 0.00372
0.11037 0.02396 0.00413
-0.00034 0.00486 -0.34821
0.08424 -0.00093 0.00606
0.06990 0.00072 -0.03725
-0.02237 0.00671 -0.31171
0.09867 -0.02956 0.00673
-0.05738 -0.00126 -0.07050
-0.09442 0.01366 -0.01607
-0.08908 0.00623 0.00738
0.09494 0.01473 0.00183
0.09563 0.01502 0.00290
-0.02455 -0.01173 0.00781
-0.01929 -0.00524 -0.00113
0.12619 -0.00089 0.00804
-0.09371 0.01795 0.00515
0.12202 0.00028 0.00494
0.27132 0.03310 0.19478
0.27132 0.03310 0.19478
-0.09204 -0.02432 0.00226
-0.11705 0.01487 0.01295
0.04814 -0.01305 0.00843
-0.07801 0.01806 0.02852
0.10338 -0.00791 0.00193
0.01887 0.00780 -0.30131
0.21525 0.00744 0.12336
-0.16169 -0.00072 0.38939
-0.06101 -0.01353 -0.02502
0.11998 0.01157 0.00522
-0.01941 0.00605 -0.18719
-0.10707 -0.01314 0.00160
-0.12441 -0.01648 0.07457
-0.00544 -0.03814 -0.00316
-0.11228 -0.00098 -0.00017
-0.11228 -0.00098 -0.00017
0.01527 0.00793 -0.30701
-0.12148 0.02055 0.06181
-0.05011 -0.02509 0.00684
-0.01361 -0.05313 0.08924
-0.12843 0.00871 0.02004
0.01980 -0.02853 -0.04715
-0.05946 -0.02662 0.01291
-0.02674 0.01478 -0.19474
0.04768 -0.01457 0.01069
-0.04368 -0.02086 -0.01544
-0.00624 -0.03895 0.00217
0.02386 -0.03469 0.01122
0.09422 -0.02228 0.00508
0.06680 0.01954 -0.04631
-0.08622 -0.00373 0.00643
0.21551 0.03384 0.12793
-0.03812 0.02608 0.11153
-0.02924 -0.02748 -0.01030
-0.10930 -0.04843 0.00458
0.09417 0.01311 0.00812
-0.01311 -0.01790 -0.00942
-0.11775 -0.01459 -0.00440
-0.01531 -0.04295 0.04708
-0.01418 -0.03759 0.00493
0.13332 0.02927 0.01499
0.05596 -0.00725 -0.12712
-0.00241 0.00742 -0.11132
0.00376 0.01687 -0.06045
-0.11144 0.01335 -0.00078
-0.09612 -0.04631 0.00782
-0.09772 0.01779 -0.00760
-0.06378 0.01503 -0.10774
-0.10349 -0.02979 0.07511
0.01245 -0.05723 0.06268
0.03166 -0.03982 0.00778
-0.09873 -0.01974 -0.00073
0.10001 0.02548 0.02518
0.07579 0.00492 0.01034
0.09627 0.02245 -0.01544
-0.07305 -0.01811 0.00829
0.12883 -0.03266 0.01402
0.00985 -0.04194 0.00821
-0.10466 -0.05775 0.01394
-0.06552 -0.01286 0.00749
-0.11849 -0.05484 0.00855
-0.12240 -0.03391 0.00147
-0.08648 -0.00209 0.00481
0.10843 -0.05239 0.01245
-0.07845 -0.01767 0.00617
0.06637 -0.00007 0.00738
-0.02262 -0.03911 -0.00053
0.03843 0.01818 -0.09577
-0.08956 -0.02924 0.01157
-0.04565 0.00134 -0.08945
-0.02283 0.01020 -0.28916
-0.02029 0.01126 -0.28871
-0.00917 0.00028 -0.30430
-0.05062 0.01451 -0.10225
-0.01464 0.00827 -0.30120
0.09004 -0.03033 0.03432
0.01463 0.02018 -0.05147
0.26305 0.00655 0.25412
-0.01941 0.00490 -0.34527
-0.00084 -0.05890 0.05947
-0.00520 0.00566 -0.33717
0.00887 -0.07007 0.11128
0.04241 0.02323 -0.09438
-0.13239 0.01655 -0.10657
-0.10751 0.02156 -0.01069
-0.05391 0.00817 0.00537
-0.12986 0.01860 -0.09870
-0.00429 0.00753 -0.28232
0.00897 0.00716 -0.31855
0.05802 -0.00619 0.00603
-0.03562 0.00558 -0.17802
-0.01512 -0.00135 -0.30103
0.05922 -0.01465 0.00832
0.09645 -0.05019 0.02074
0.00046 -0.02098 -0.00777
-0.03552 0.01355 -0.07490
-0.00609 0.01300 0.12401
-0.09696 0.01399 -0.00699
0.00354 -0.01424 0.00354
0.04420 0.01996 0.00184
0.06151 -0.03072 0.01061
0.01752 0.00751 -0.29398
0.02870 0.00996 -0.25467
-0.09178 0.01458 -0.15720
0.00006 0.00493 -0.34958
0.00243 0.01418 -0.20517
0.00039 0.00499 -0.34875
0.00009 0.00491 -0.34943
-0.05793 0.01745 -0.12608
0.00189 0.00411 -0.34104
0.03545 0.01469 -0.22030
-0.01240 0.01000 -0.26749
0.03808 0.02112 -0.08354
-0.00928 0.00067 -0.30629
-0.02426 0.01606 -0.15901
0.04404 -0.01738 -0.13113
-0.00701 0.00668 -0.30416
-0.04800 0.01361 -0.13672
-0.00585 0.00733 -0.31291
-0.00255 0.00788 -0.30607
0.01307 0.01860 -0.07450
0.04631 0.01475 -0.14130
0.06023 -0.02907 0.01276
-0.01920 0.02473 -0.02941
0.00241 0.00576 -0.33597
0.00166 0.00901 -0.28128
-0.01916 0.00749 -0.30184
-0.01540 0.00923 -0.28691
-0.00237 0.00885 -0.29111
0.08132 -0.03993 -0.06703
0.10220 -0.03555 -0.00383
-0.00824 -0.02545 -0.17787
0.05401 0.02993 0.01820
-0.01282 0.00877 -0.29783
-0.00321 0.04601 0.25514
-0.00016 0.00535 -0.34326
-0.08895 -0.03568 0.02861
-0.00020 0.00493 -0.34947
0.00067 0.00509 -0.34747
-0.11970 0.03168 0.22840
-0.03270 -0.05024 0.00911
-0.01088 0.03488 0.07404
0.01145 0.02749 0.20944
0.00443 0.01359 -0.12667
-0.01913 0.00499 -0.34417
-0.08285 -0.03278 -0.07576
-0.09130 -0.03120 0.01137
0.01580 0.01136 -0.25365
-0.00016 0.00498 -0.34874
-0.03685 0.01039 -0.16956
-0.02806 0.01487 -0.07655
0.00070 0.00513 -0.34671
-0.02434 -0.04355 -0.00000
-0.20619 0.01256 0.22875
0.00689 0.00805 -0.30217
0.00056 0.00506 -0.34760
-0.00217 0.00573 -0.33691
-0.03329 -0.04594 0.01345
-0.13379 0.02375 0.08868
-0.09739 0.01244 0.07320
0.03594 -0.04943 0.00864
-0.01529 0.00812 -0.30641
0.04452 0.02158 0.00834
-0.01228 0.00780 -0.30020
0.02118 0.02128 -0.09168
0.00024 0.00489 -0.35023
-0.02337 0.01601 -0.20387
-0.00690 0.00760 -0.31452
-0.01033 0.01170 -0.22926
0.08552 -0.02641 0.02244
-0.05573 0.01173 -0.16406
-0.00882 -0.01639 -0.00284
-0.01281 -0.01863 -0.17764
-0.00017 -0.06044 0.06252
0.01034 -0.08400 0.31654
0.05285 -0.03135 0.01829
0.05234 0.01856 -0.14917
-0.06679 0.02143 -0.06406
0.04636 -0.03565 0.00449
0.12620 -0.05635 0.03369
0.00060 0.00603 -0.32412
0.00064 0.00503 -0.34823
0.01396 -0.02410 -0.14037
0.02123 0.02481 -0.04734
0.06960 0.02907 -0.02120
0.00056 0.00501 -0.34849
0.01577 -0.02906 -0.10369
0.01245 0.01054 -0.26804
0.01341 0.01026 -0.23774
0.08428 0.01616 -0.05039
-0.11852 0.03096 0.08945
0.00075 0.00511 -0.34685
0.04420 0.01524 -0.19283
0.02426 -0.07730 0.28099
0.00208 0.00894 -0.26671
0.00192 0.00526 -0.34479
0.01042 0.00773 -0.30911
0.00636 0.01408 -0.21156
0.09407 -0.03963 0.05059
-0.08763 -0.01762 0.00636
0.08239 0.01721 -0.02481
0.01358 0.00867 -0.26988
-0.00756 0.01600 -0.20549
-0.10436 -0.02746 0.16295
-0.00096 0.00996 -0.27025
0.00757 0.00652 -0.32346
-0.00010 0.00510 -0.34369
-0.08479 -0.01723 0.00224
0.00028 0.00501 -0.34824
0.00072 0.02320 0.05817
-0.02375 0.01369 -0.21308
0.00093 0.00909 -0.29390
-0.01171 0.00639 -0.30136
0.05877 -0.01576 0.00841
-0.09203 -0.03403 0.00989
0.00141 0.01072 -0.29275
0.06262 0.03587 0.10126
-0.01509 -0.05032 0.04921
-0.04402 0.01867 -0.10847
0.03062 0.01388 -0.22296
-0.05297 -0.00013 -0.11694
0.00962 0.00789 -0.30028
-0.04876 -0.01450 0.00708
-0.00912 0.00625 -0.31092
0.09147 -0.04005 0.02813
-0.09851 0.01603 0.05355
-0.00609 0.01861 0.13351
0.01563 0.00620 -0.28490
-0.00277 0.00543 -0.33579
0.00992 -0.04367 0.00956
-0.02547 0.01164 -0.24433
-0.00184 0.00814 -0.30120
0.02376 0.02099 -0.11522
-0.00982 0.00635 -0.31993
-0.05875 0.01589 -0.17313
0.07261 0.00987 0.00593
-0.00699 0.00944 -0.25246
-0.09221 -0.02973 0.00715
-0.08237 0.02105 0.18183
0.01077 0.01510 -0.01020
-0.08525 0.01473 -0.00080
-0.02883 -0.04730 0.00799
0.02840 0.00814 -0.17078
-0.08127 0.01558 0.00112
-0.06256 -0.00234 0.02905
-0.03741 -0.00979 -0.01058
0.00707 0.00205 0.07703
0.00012 -0.11420 0.29749
0.00183 0.00534 -0.34325
-0.05229 0.01079 -0.04641
-0.10596 -0.01546 0.00336
0.01374 0.00851 -0.26956
-0.04830 0.01341 -0.07596
-0.11066 0.01119 0.00165
-0.04889 0.01342 -0.06059
-0.07617 -0.00142 0.01447
-0.07520 -0.00132 0.00869
-0.00004 0.00489 -0.34886
-0.10790 0.00969 0.01710
-0.08286 -0.01248 -0.00472
0.00059 0.00852 -0.29592
-0.02562 0.00677 -0.09369
0.05419 -0.01165 0.01043
-0.12281 0.02498 0.06351
-0.37224 0.02463 0.96721
0.03202 -0.09846 0.35654
-0.11600 0.01224 0.04649
0.01037 0.00785 -0.29190
0.01106 0.00749 -0.29319
-0.08409 0.01636 0.00390
-0.05256 -0.00052 0.00184
-0.04391 0.00906 -0.21925
-0.06018 -0.00525 -0.00757
-0.07280 0.02414 -0.04730
0.00007 0.00493 -0.34957
0.03207 0.00907 -0.22213
0.00337 -0.00408 -0.13511
-0.01734 -0.04184 0.02120
-0.00968 0.00620 -0.30727
-0.05714 -0.00461 -0.11934
-0.01629 0.00803 -0.00438
0.08652 -0.01554 0.00656
-0.04814 -0.03370 0.01458
0.08752 -0.02629 0.00960
-0.02028 -0.05790 0.13317
0.02774 0.04244 0.27056
0.17857 -0.07939 0.18417
0.05241 0.01213 -0.00652
-0.00018 0.00492 -0.34958
0.06201 0.03606 0.10768
0.04307 -0.07440 0.20666
-0.00713 0.00918 -0.27988
0.00476 0.00575 -0.33317
0.01139 0.01469 -0.20339
0.11560 0.02596 -0.02021
0.00124 0.01193 -0.23606
0.00048 0.00517 -0.34701
0.00540 0.02269 -0.07118
0.03771 0.00006 -0.09998
0.04375 0.01474 -0.19558
-0.06920 -0.03187 0.00546
0.02610 0.01349 -0.21130
0.10867 0.03087 -0.04046
0.08650 -0.02896 0.01141
-0.04686 -0.03332 0.00935
0.07274 -0.03180 0.00999
0.04756 0.01631 -0.16038
-0.01966 0.00927 -0.26951
0.05910 0.02547 -0.08896
0.04479 0.02974 -0.05010
-0.12943 -0.01536 0.01904
0.00367 0.01202 -0.24512
-0.00685 -0.00353 -0.26445
-0.08098 -0.03056 0.00185
0.16881 0.04424 0.47179
0.08514 0.02371 0.03166
0.00405 0.01145 -0.20547
-0.01047 0.00710 -0.31448
0.01405 0.02031 -0.13612
-0.01748 0.00961 -0.28641
0.00555 0.01236 -0.24246
0.13721 -0.02218 0.01345
-0.01048 0.00823 -0.28783
0.04032 -0.01431 -0.14702
0.01636 0.01103 -0.26037
0.00940 0.01892 -0.14982
0.10667 0.02827 -0.04770
0.12982 0.05763 0.38047
0.00163 0.00531 -0.34443
0.00510 0.01936 0.00389
0.01819 -0.00990 -0.19590
-0.09838 -0.04301 0.11832
0.13750 -0.08591 0.11614
0.00171 0.00928 -0.28218
0.00609 0.01358 -0.21774
0.00152 0.01113 -0.26643
-0.11106 -0.04198 0.02469
-0.00288 -0.04648 0.02019
0.10942 -0.06987 0.03302
0.05064 0.01688 -0.14727
0.05808 -0.02739 0.00300
-0.02730 -0.05078 -0.00126
0.00867 -0.04262 -0.00399
0.00867 -0.04262 -0.00399
0.12403 -0.08002 0.05932
-0.00390 0.01596 -0.21196
0.02483 -0.05077 0.05729
0.09616 0.00347 -0.09206
-0.03826 0.01524 -0.06979
0.17326 0.04155 0.16386
0.00641 -0.05610 0.05328
-0.02037 0.00815 -0.30092
-0.01047 -0.02279 -0.16091
0.12687 -0.05318 0.02557
-0.02883 0.00769 -0.25764
-0.10553 -0.05469 0.00861
-0.05777 -0.02398 -0.17591
-0.07615 0.03777 0.38549
0.04712 0.02517 0.02272
0.03146 -0.01778 -0.11161
0.06896 0.02641 -0.06869
-0.01454 0.00912 -0.29141
-0.04782 -0.03053 0.00875
0.14393 -0.09152 0.14009
-0.01180 0.00844 -0.28943
0.00655 -0.00085 -0.30577
0.02859 0.01862 -0.20063
-0.00887 0.00034 -0.30378
0.06326 0.04025 0.09261
0.00178 0.01299 -0.20603
-0.00896 0.01667 -0.17811
-0.14512 0.02797 0.07412
-0.03389 0.00581 -0.33176
0.00310 -0.06196 0.06123
-0.00316 0.01680 -0.19603
-0.03794 0.01584 -0.07428
-0.01314 0.01099 -0.27063
0.00039 -0.02485 0.03051
0.01450 -0.05209 0.05347
-0.08403 -0.02982 0.00957
0.02092 -0.04112 0.01640
0.06296 -0.04686 0.02306
-0.05513 0.01763 -0.12983
-0.06355 0.02087 0.00445
-0.09238 -0.04205 0.02509
-0.03834 0.01167 -0.09369
-0.07899 -0.03231 0.02834
-0.16218 0.01690 0.27279
-0.00822 0.00741 -0.30915
-0.06224 0.01889 -0.12654
0.02701 -0.04975 0.06187
-0.02120 0.03050 0.03259
0.09777 -0.04444 0.01376
0.05717 -0.03109 -0.00635
-0.00247 0.01016 -0.26348
-0.09733 0.01800 -0.12311
-0.02060 0.00801 -0.30913
-0.05114 -0.01712 -0.12536
-0.05969 0.02384 -0.03826
-0.02265 -0.05450 0.07975
0.06896 0.01954 -0.07620
-0.01563 0.00992 -0.27119
0.13329 0.02672 0.02527
0.04287 0.01790 -0.07836
0.07019 -0.02571 -0.01974
-0.05832 0.01049 -0.23892
-0.11352 -0.03251 -0.02427
0.01111 0.01445 -0.00686
-0.00985 0.00832 -0.26394
0.13094 -0.07930 0.10127
0.09817 -0.06213 0.00981
0.00445 0.00864 -0.27412
-0.00888 0.00718 -0.30241
0.02873 -0.04622 0.05535
0.00218 0.00944 -0.26988
-0.00546 0.00823 -0.28819
-0.05191 0.01004 0.01813
-0.00629 0.00687 -0.29843
-0.08791 0.01936 -0.12174
0.02836 0.01192 -0.21543
-0.01820 0.01176 -0.23392
0.13316 -0.08456 0.11056
0.04223 0.01660 -0.08190
0.11089 -0.04236 0.08261
-0.00938 -0.00138 -0.31643
-0.01150 0.01020 -0.25908
0.00686 0.01435 -0.22798
0.01490 0.06757 0.19366
0.02043 0.01724 -0.19362
-0.01205 -0.01650 -0.00009
-0.03753 0.01133 -0.08341
-0.02766 0.02476 -0.01899
0.02040 -0.03063 0.24364
-0.03430 0.00295 -0.24059
0.00014 -0.06533 0.07412
-0.03401 0.00404 -0.24205
-0.02288 0.01850 -0.04033
-0.03839 0.00615 -0.07729
0.04295 0.01622 -0.12403
0.01051 -0.02053 -0.00817
0.38499 0.05203 0.52920
-0.06969 0.00315 -0.01208
-0.01395 0.00787 -0.30145
0.14499 0.00004 0.04010
0.03506 -0.02302 0.00997
-0.06214 -0.00852 -0.00004
0.07679 -0.01548 0.00514
-0.09661 0.02337 0.00039
0.16498 0.01448 0.09697
-0.05427 0.01205 -0.04127
0.00317 0.01586 -0.20362
-0.00290 0.00682 -0.29104
0.01314 0.01896 -0.01305
-0.02399 0.01981 -0.10016
0.04025 0.02934 0.00310
-0.05389 0.01022 0.02823
0.11142 0.01208 0.01619
0.09054 -0.03976 0.01858
-0.03834 -0.00602 -0.06304
-0.03842 -0.00573 -0.06016
-0.00457 0.01383 -0.25599
0.03838 0.01487 -0.18165
-0.10940 0.02331 -0.04507
-0.07441 -0.01747 0.00604
0.08722 0.02068 -0.13830
-0.00704 -0.00745 -0.00009
0.00497 -0.01458 0.17649
-0.00897 0.00742 -0.30232
-0.00566 0.00735 -0.00531
-0.00004 0.00424 -0.34504
-0.00771 0.01016 -0.23345
0.04017 -0.01112 -0.08748
-0.05097 -0.01281 0.00598
0.03996 0.01315 -0.08824
-0.07267 -0.00584 0.38213
-0.01177 0.00736 -0.28626
0.09761 -0.03507 0.01296
-0.00955 0.00432 -0.31707
-0.06636 -0.01413 0.00714
-0.00173 0.00903 -0.27903
0.02732 0.00880 -0.17738
-0.12368 0.02320 -0.00746
-0.05319 0.03494 0.09923
-0.01564 -0.05936 0.05669
0.03855 0.02319 -0.05213
-0.05636 -0.00829 -0.08836
-0.00389 0.00784 -0.30073
0.19048 0.01896 0.18435
-0.02358 0.01859 -0.03816
0.06985 0.01426 0.01271
-0.02049 0.01666 -0.20648
-0.01074 -0.04400 0.02776
0.00763 -0.02056 -0.00758
-0.05228 0.01355 -0.04772
-0.02049 0.01631 -0.21432
-0.00331 0.01280 -0.22892
0.00244 -0.00962 -0.08172
-0.00622 0.01571 0.00802
0.01161 0.01566 -0.00453
0.16629 0.01599 0.06796
-0.08515 0.02735 -0.00708
0.14396 0.03349 0.15466
-0.00098 0.00477 -0.34478
-0.07541 0.01516 0.00995
-0.00058 -0.01192 -0.02152
0.03871 0.01507 -0.09184
-0.00754 0.00303 -0.30639
-0.01469 -0.00181 -0.30403
-0.08285 0.02095 0.27880
0.06563 0.01744 0.00338
-0.03812 -0.01460 0.00630
0.09647 -0.01232 0.03469
-0.05922 -0.00339 -0.02434
0.04170 -0.00111 -0.08038
0.05601 0.01654 -0.00035
0.00531 -0.00845 -0.24566
0.14015 0.01706 0.02128
-0.00551 -0.00805 -0.28034
-0.00263 0.04903 0.26688
-0.03158 0.01323 -0.23090
0.02019 0.01276 -0.01224
-0.19359 0.02568 0.68100
-0.00378 -0.06158 0.05932
-0.01331 -0.00404 -0.30262
-0.03603 0.00264 -0.31476
-0.03893 0.01329 0.00454
-0.02202 0.00336 -0.32363
-0.07689 0.01350 -0.04887
0.14603 0.02324 0.03212
-0.00867 -0.02174 -0.00803
-0.13156 -0.04757 0.54032
-0.09073 -0.03228 0.01143
0.06643 0.01707 0.01228
0.00793 -0.03374 -0.00755
0.24190 0.06660 0.37373
-0.13391 0.00408 0.00803
-0.08398 0.01484 -0.00643
0.00002 0.00493 -0.34879
-0.02492 0.00479 -0.26108
0.01148 -0.03681 -0.00035
-0.05309 0.01590 -0.00140
-0.02195 0.01383 -0.22882
-0.00775 0.00812 -0.14798
0.04657 0.00690 -0.12469
0.09190 -0.01361 0.00912
0.12122 0.02193 0.15452
0.01221 0.01586 -0.25593
0.05290 0.00788 0.01026
-0.00013 0.00502 -0.34648
0.04306 -0.00844 0.01203
0.27543 -0.04106 0.91589
0.09890 0.01714 -0.03345
-0.05991 0.02246 -0.03199
-0.02121 0.00911 -0.11300
-0.02663 0.01536 -0.00616
0.03144 0.01129 -0.14345
0.09077 -0.03108 0.00877
0.10027 0.01969 -0.00197
-0.09982 0.01806 0.01003
0.03106 -0.05212 0.01183
-0.12831 -0.03319 0.00784
0.12571 -0.03439 0.00879
-0.00322 -0.05870 0.08049
0.08025 -0.01118 0.01045
0.08412 -0.01133 0.00839
-0.02214 -0.04456 0.02305
-0.03051 0.00518 -0.33921
-0.02310 0.02602 -0.01915
-0.03025 0.00558 -0.33053
-0.01989 0.00604 -0.32211
-0.02023 0.00678 -0.32211
-0.02012 0.00660 -0.32211
-0.02787 0.00538 -0.33758
-0.03055 0.00547 -0.33104
-0.02011 0.01869 -0.28583
-0.09156 0.01584 -0.00188
0.00936 -0.05773 0.06403
0.09129 -0.00761 0.00972
-0.12953 -0.01986 0.00826
-0.05004 -0.01780 0.00242
0.04576 0.02690 -0.01364
-0.11571 -0.05430 0.00704
-0.02399 0.01572 -0.17032
0.01630 -0.06178 0.06848
-0.02531 -0.04270 -0.00623
-0.03099 0.00559 -0.33315
-0.01424 0.00952 -0.29025
-0.02003 -0.06564 0.12111
0.00381 -0.06299 0.05964
-0.06545 0.03079 0.04608
0.01081 0.01918 -0.25050
0.00963 0.00744 -0.31140
-0.01860 0.02649 -0.02370
-0.07907 -0.02869 0.00637
-0.03819 0.00381 -0.06949
0.00998 -0.01218 -0.23167
0.08172 0.02229 -0.06838
0.03623 -0.05079 0.01108
0.04052 -0.01191 -0.08477
-0.01063 -0.05370 0.06095
0.00040 0.00501 -0.34866
0.00003 0.00487 -0.35042
0.00004 0.00489 -0.35033
0.00384 0.00516 -0.33505
0.00042 0.00490 -0.34935
-0.00003 0.00264 -0.34094
0.00029 0.00487 -0.35010
0.00026 0.00486 -0.34946
-0.00181 0.00507 -0.33850
0.00039 0.00172 -0.33265
0.00017 0.00314 -0.34127
0.00017 0.00487 -0.34369
-0.00007 0.00415 -0.34322
0.00009 0.00313 -0.34135
-0.00004 0.00490 -0.33625
-0.00285 0.00560 -0.33494
0.00036 0.00315 -0.34006
-0.00002 0.00491 -0.34879
0.00049 0.00442 -0.34750
-0.12968 -0.02106 0.00500
-0.08734 -0.01699 0.00689
-0.01003 -0.05254 0.06020
0.07257 -0.03064 0.01012
0.07288 -0.03076 0.01068
-0.06942 -0.03342 0.00769
0.13613 0.00495 0.01040
0.15605 0.00750 0.01609
-0.05574 -0.04523 0.16622
0.00447 0.01732 -0.05071
0.03923 -0.03555 0.00448
0.05087 -0.03185 0.01128
0.01240 0.01752 -0.02474
0.03350 -0.05632 0.01240
0.04854 0.02590 -0.00056
0.08011 0.03350 0.08320
0.03615 -0.04475 0.01015
0.03604 -0.04431 0.00926
-0.04618 -0.03240 0.00918
-0.04598 -0.03228 0.00860
0.09976 -0.05089 0.03767
0.07319 -0.02840 0.01095
-0.05924 -0.03064 0.00832
0.06182 -0.03105 0.01003
0.02704 -0.04501 0.01456
-0.05945 -0.02113 -0.07358
-0.04767 -0.03153 0.00966
-0.04772 -0.03186 0.00888
-0.09251 -0.05224 0.02599
-0.01109 -0.00104 -0.28382
0.02144 0.02173 -0.07273
-0.04632 -0.03134 0.00944
-0.02151 0.01677 -0.05203
0.02079 0.02114 -0.08906
0.12192 -0.03416 0.00456
0.06113 -0.03200 0.01172
-0.02937 0.02007 -0.01170
-0.01180 0.01097 -0.19992
0.04966 0.03545 0.04854
0.07916 0.01063 -0.05254
0.00932 0.01706 -0.02987
0.04165 0.02129 -0.06448
0.05577 0.02685 0.01551
0.02731 0.01952 -0.07179
0.15810 0.02616 0.02258
0.00179 -0.06753 0.07535
0.00145 0.01449 -0.09093
0.08580 0.02214 0.04448
0.04662 0.01789 -0.08805
0.04662 0.01789 -0.08805
0.14571 0.00724 0.00291
-0.00699 0.00791 -0.29781
0.04563 0.02118 -0.05510
-0.01357 -0.04748 0.03196
0.00230 0.00778 -0.28377
-0.00833 0.00713 -0.29494
-0.00365 0.01360 -0.24146
0.04127 0.01542 -0.06313
0.00100 -0.01477 -0.00457
0.02992 -0.04412 0.01194
0.15572 0.00478 0.00362
0.05718 0.04193 0.11611
0.09007 -0.02812 0.02167
0.10842 0.03124 -0.01516
0.00349 0.00637 -0.30949
-0.01010 0.00717 -0.29551
0.06870 0.03386 0.08920
0.20681 0.01343 0.24729
0.10148 0.01351 0.05205
