# .PCD v.7 - Point Cloud Data file format
VERSION .7
FIELDS x y z
SIZE 4 4 4
TYPE F F F
COUNT 1 1 1
WIDTH 1875
HEIGHT 1
VIEWPOINT 0 0 0 1 0 0 0
POINTS 1875
DATA ascii
0.00144 0.04239 -0.12247
0.19873 -0.07747 0.27367
0.14424 0.00394 -0.04641
0.07198 0.04715 -0.11769
-0.17739 -0.09549 0.18522
-0.19926 -0.08125 0.16082
-0.14057 -0.07981 0.14168
-0.20262 -0.07338 0.10494
-0.07296 0.03258 -0.07192
0.26704 -0.09183 0.36849
-0.08058 -0.06345 0.04338
-0.08397 -0.01487 -0.01726
0.20624 -0.04978 0.13726
0.19355 -0.04708 0.13530
-0.17008 -0.01797 0.08915
0.17845 -0.03609 0.10594
0.25846 -0.02425 0.25508
0.04656 0.01626 0.01083
0.09720 -0.02064 0.03464
0.17282 -0.02448 0.02329
-0.02714 -0.00529 -0.04073
0.19889 -0.00288 0.03490
-0.17083 0.03213 -0.00611
-0.03328 0.01610 -0.06641
-0.10368 -0.06281 0.07023
0.00022 0.03403 -0.04998
-0.06356 0.05398 -0.10232
0.06552 0.03556 -0.21732
-0.15626 -0.09586 0.14305
0.23317 -0.08782 0.36521
-0.16077 0.00971 -0.01359
0.04250 0.01661 0.02365
-0.03254 0.04536 -0.14229
-0.21079 -0.01913 0.03841
-0.05665 0.07418 -0.20017
-0.17298 -0.02527 0.03060
-0.28521 -0.19225 0.40518
-0.12750 -0.06644 0.13387
0.09593 0.04177 -0.06564
-0.15895 -0.09159 0.17961
-0.16342 -0.07754 0.11584
-0.00264 -0.02727 -0.94894
-0.16740 0.01402 0.01033
0.17045 -0.02206 -0.05387
0.11198 0.03919 -0.10678
-0.00440 -0.07599 0.13415
-0.11411 0.02199 -0.02490
-0.06842 0.02976 -0.05783
0.05965 0.04091 -0.15191
0.25922 -0.07807 0.37985
0.27110 -0.02478 0.29337
-0.18204 -0.03516 0.02014
-0.15950 0.04140 -0.04232
-0.08368 0.05131 -0.08448
0.07605 0.03110 -0.10326
-0.17051 -0.06867 0.09522
-0.04217 0.05358 -0.13284
0.15210 -0.00277 0.06414
-0.10640 0.04250 -0.07660
0.05695 -0.05267 0.06718
0.05294 -0.07079 0.07279
-0.20869 -0.01339 0.08152
-0.01037 0.02704 -0.14456
0.07598 -0.01371 -0.69658
-0.16883 -0.04524 0.07455
-0.16715 -0.08527 0.13653
0.26406 -0.04327 0.31411
-0.17245 -0.07580 0.09934
-0.21312 -0.06256 0.10999
0.03978 -0.02967 0.12877
0.24831 -0.02795 0.22461
0.00099 0.02893 -0.04563
-0.20229 -0.05363 0.09826
-0.00914 -0.05221 0.07318
-0.19241 0.00831 0.04938
-0.08988 0.00157 -0.00707
-0.16292 0.02266 0.02131
-0.05791 0.04398 0.00738
0.19574 0.05290 -0.05596
-0.13954 -0.08334 0.14178
0.06372 -0.05780 0.09150
-0.16245 0.02754 -0.03270
0.23167 -0.08291 0.35144
-0.20625 -0.05385 0.09734
-0.18724 -0.05309 0.03788
-0.02258 0.04175 -0.09098
-0.00757 -0.06479 0.03868
0.01608 -0.05329 0.14622
-0.04932 0.03778 0.05404
-0.03040 0.02484 -0.12525
0.04839 0.02239 -0.14782
0.17946 -0.02940 0.11029
-0.13415 -0.00086 -0.02129
-0.13502 0.00291 0.00206
-0.09373 -0.06922 0.08014
-0.08458 -0.05999 0.03233
0.07999 -0.00037 0.04343
-0.18400 0.11286 -0.19115
-0.17265 0.02110 0.00122
-0.01672 0.03555 -0.12979
-0.14539 0.03650 -0.04798
-0.17523 -0.07758 0.09950
-0.10834 -0.05265 0.09121
-0.01205 -0.00949 0.03990
-0.12718 -0.02485 0.02829
0.07654 0.01342 -0.09829
-0.10493 0.00287 -0.05489
-0.10483 0.00707 -0.04338
-0.16209 -0.02694 0.02830
0.10539 -0.02562 0.00784
-0.03089 -0.00345 -0.00784
0.13462 0.03234 -0.00538
-0.18862 -0.09113 0.15349
0.06594 -0.01248 0.07688
-0.18651 -0.07329 0.08725
-0.15414 -0.06632 0.10880
-0.11844 -0.06489 0.10597
0.01646 0.06855 -0.30196
0.26793 -0.06892 0.34063
0.09945 -0.06746 0.07061
-0.15743 -0.03883 0.07717
-0.12369 -0.04171 0.09522
0.03557 -0.03925 0.14464
0.01140 -0.02480 0.13735
-0.13328 -0.00794 -0.00059
-0.01293 -0.01962 -0.01801
-0.09656 -0.01096 -0.04697
0.13670 -0.02938 0.00297
0.06978 -0.01560 -0.02648
0.13698 -0.00649 0.00708
0.14845 -0.00304 0.00628
0.11314 0.00822 0.00475
-0.07086 0.02595 -0.06288
0.13207 0.02661 0.01227
0.16996 0.02838 0.01234
-0.05940 0.03062 -0.18377
-0.16217 0.02205 0.00789
-0.04815 0.04095 -0.10947
0.18955 0.05224 0.10729
0.26495 -0.10399 0.40433
0.13328 -0.03807 0.03665
0.21138 -0.03780 0.16437
0.24533 -0.09230 0.35518
-0.07383 0.00815 -0.01877
-0.14169 0.01031 -0.02663
-0.08471 0.03435 -0.04115
-0.08041 0.05165 -0.11036
-0.01320 -0.07320 0.09708
-0.19271 -0.03881 0.07639
0.16289 0.02813 0.02693
-0.15736 -0.08217 0.13368
-0.18188 -0.07313 0.10085
-0.11760 0.03915 -0.02567
-0.13383 -0.06511 0.11033
-0.20548 -0.05140 0.10067
-0.17056 -0.04716 0.06832
-0.08986 -0.05405 0.03207
0.26081 -0.05842 0.32069
-0.10696 -0.03717 0.02511
0.23462 -0.03874 0.21074
0.16269 -0.00166 -0.00135
-0.02713 -0.02578 -0.02118
0.26375 -0.01756 0.27718
-0.03763 -0.01751 0.02001
-0.01329 -0.00507 -0.04146
-0.05075 0.01351 -0.07577
0.03613 0.01846 -0.03219
0.05838 0.02737 -0.05332
0.13571 0.02681 -0.01411
-0.01470 0.05188 -0.15980
0.12866 0.05124 -0.12546
-0.03423 0.02997 -0.07090
-0.18526 -0.09250 0.15443
-0.04016 -0.07991 0.07189
-0.06070 -0.07687 0.11881
-0.15457 -0.04924 0.10839
0.25648 -0.07475 0.31496
-0.12041 -0.05226 0.04768
0.22416 -0.06951 0.23764
0.09277 -0.05922 0.05898
-0.11719 -0.03868 0.05605
0.03270 0.00537 0.02412
0.00306 -0.03516 0.11620
0.13751 -0.05220 0.06793
-0.11745 -0.02986 -0.02159
0.14439 -0.04921 0.07514
-0.03851 -0.03372 0.00118
0.22886 -0.03741 0.20723
-0.10878 -0.01700 -0.00087
0.08167 -0.02980 0.05016
-0.16734 -0.00560 0.06852
-0.15226 -0.00658 0.00113
-0.09740 -0.01574 -0.02921
0.06502 -0.02237 0.00226
0.23165 -0.02730 0.17931
-0.15536 0.00734 -0.02219
0.21450 -0.00689 0.16138
0.15277 -0.00965 0.00100
0.14919 0.01668 -0.03757
0.11638 -0.00531 0.02096
0.11953 -0.00626 0.00757
-0.03342 0.00581 -0.06739
-0.06474 0.01239 -0.09253
0.05159 -0.04912 0.04785
0.17025 -0.00019 -0.04258
0.10564 0.01600 -0.01312
0.01557 0.02881 -0.03979
0.04071 0.03116 -0.03573
-0.08551 0.06973 -0.10944
-0.18227 -0.08300 0.17496
-0.08486 0.06541 -0.09443
-0.06574 -0.06324 0.01888
-0.07509 0.04093 -0.04502
0.12007 0.02451 -0.06541
-0.03992 0.03107 -0.05052
-0.08231 0.01788 -0.05739
0.08095 0.03507 -0.13331
0.08797 0.04308 -0.09389
0.07851 0.04132 -0.12119
-0.20179 -0.08672 0.13559
-0.08562 -0.01620 0.01497
-0.15324 -0.08795 0.13184
0.12968 -0.00955 0.09821
0.03245 0.01126 -0.03769
0.15592 -0.07819 0.09576
-0.09209 -0.05557 0.03415
-0.08284 -0.02678 -0.00923
0.12985 -0.04166 0.10591
-0.01286 0.01335 -0.05447
-0.05064 -0.05201 -0.00000
-0.01179 -0.02376 0.03458
0.16192 0.08397 -0.24243
-0.01504 0.03592 -0.10380
-0.11411 -0.08307 0.11707
-0.15345 -0.06943 0.13631
-0.02690 -0.05087 0.00130
0.19464 -0.05837 0.18247
0.21557 -0.05853 0.16652
0.05273 -0.02601 0.01013
0.25138 -0.02959 0.27818
-0.12180 -0.01456 0.01488
-0.11579 0.01640 -0.04070
0.04328 0.00783 0.01940
0.19427 0.00634 -0.00555
0.09827 0.03768 -0.11048
-0.04121 0.05986 -0.10626
-0.14503 -0.05330 0.09700
0.00548 -0.04849 0.12612
0.06127 0.02245 -0.02735
-0.00839 0.04340 -0.10375
0.23319 -0.00207 0.16038
0.15728 -0.00776 -0.07081
0.11365 0.02186 0.00690
0.05240 0.02345 -0.06617
0.10432 0.03392 -0.07626
0.14765 -0.00668 -0.04584
-0.13494 -0.10198 0.17134
-0.18393 -0.09678 0.16197
0.11483 -0.09435 0.10947
0.08031 -0.08480 0.11619
0.11756 -0.04218 0.03416
0.12633 0.05777 -0.26726
0.18700 -0.06997 0.20827
-0.03591 0.02873 -0.15185
-0.08216 -0.07496 0.06292
-0.11884 0.00705 -0.00541
-0.13076 0.08831 -0.18543
0.07955 0.03252 -0.08697
0.13422 0.04668 -0.03012
-0.13389 0.01023 0.01325
-0.09364 0.05941 -0.09568
-0.13748 0.00709 0.00089
-0.06558 0.07743 -0.25437
0.18206 0.00175 0.02533
0.21448 -0.04550 0.15699
0.19104 -0.03440 0.12481
-0.20108 -0.06342 0.07018
-0.03911 -0.06630 0.03040
-0.18144 -0.04137 0.03615
-0.15810 -0.02103 0.06143
0.17283 -0.04570 0.13730
0.01779 -0.02143 0.09239
0.26534 -0.02775 0.28463
-0.15033 -0.00277 -0.04274
0.15585 -0.02079 -0.04658
-0.06130 0.00388 -0.03367
-0.00022 0.02366 -0.08537
0.15152 0.03178 -0.02758
-0.00937 0.01757 -0.03930
-0.04789 0.04874 -0.08223
-0.04969 0.04753 -0.11157
-0.01052 0.03353 -0.07211
-0.15905 -0.09223 0.10164
-0.05640 0.09291 -0.29059
-0.11429 -0.07080 0.15559
0.23870 -0.09028 0.35981
0.12877 -0.02350 0.03756
0.16277 0.03648 0.02491
0.05913 -0.02328 0.07151
0.19523 -0.03867 0.07225
0.16669 -0.03156 0.09166
0.05849 0.01090 -0.07162
0.26460 -0.06487 0.31013
-0.15221 -0.09905 0.22677
-0.12097 -0.08815 0.20993
-0.14901 -0.07217 0.11785
-0.20021 -0.05895 0.08666
0.24119 -0.07028 0.34823
0.04859 -0.04411 -0.89104
-0.20811 -0.02022 0.08525
0.14937 -0.03768 0.06256
0.00444 -0.00751 0.02854
-0.10467 0.10394 -0.28054
0.19563 -0.00595 0.05082
0.19599 -0.00155 0.01243
-0.13652 0.02497 -0.05733
0.16815 0.01225 -0.03160
-0.05952 0.03382 -0.06631
-0.08839 0.04631 -0.11681
0.15323 0.03098 -0.07893
-0.11975 0.01477 -0.01851
0.24528 0.00514 0.14832
-0.09438 0.02955 -0.06445
0.11254 -0.01343 0.02221
-0.09248 0.04346 -0.06974
-0.17012 -0.09157 0.17124
-0.18784 -0.07115 0.11435
0.17332 0.06312 -0.11707
-0.19624 -0.06330 0.08744
-0.22650 -0.05745 0.14200
-0.19971 -0.05360 0.09503
-0.06558 -0.06626 0.02123
0.25154 -0.07234 0.34730
-0.08678 -0.05423 0.02894
0.27006 -0.07075 0.33695
-0.07290 -0.04946 0.02461
-0.12789 -0.03870 0.06117
0.25694 -0.05713 0.33533
-0.19981 -0.02841 0.09278
-0.15456 -0.03784 0.09426
-0.11191 -0.04133 0.03067
0.19191 -0.06106 0.18040
0.26850 -0.05546 0.31486
-0.07716 -0.04041 0.00265
0.29453 -0.06497 0.36997
0.19155 -0.04816 0.16334
-0.13682 -0.02600 0.00571
-0.20733 -0.01097 0.08832
-0.11849 -0.02259 0.08256
0.19737 -0.03505 0.13043
0.25063 -0.02587 0.26099
0.10594 -0.02610 0.04342
-0.04609 -0.01212 -0.03547
0.16239 0.03170 -0.08214
0.20953 -0.01443 0.13702
-0.03381 -0.00544 -0.03210
0.11178 0.08087 -0.27152
0.08282 0.06229 -0.17172
-0.15889 0.05117 -0.02557
-0.18633 0.02903 0.02203
-0.14694 0.02338 -0.00873
0.18424 0.06945 -0.14853
-0.04543 -0.03345 0.00159
-0.02773 0.01582 -0.06470
0.19587 0.00419 0.01273
-0.07467 0.02484 -0.06357
-0.11861 0.03300 -0.05964
-0.01134 0.02455 -0.09400
0.13877 0.06292 -0.18858
-0.05385 0.04324 -0.09370
-0.04609 0.04499 -0.06640
-0.07544 0.04964 -0.11196
-0.12584 0.07542 -0.12985
-0.05225 -0.08613 0.06833
-0.08372 0.07975 -0.22194
-0.10765 0.08552 -0.28871
-0.00978 0.02829 -0.08130
-0.21789 -0.08178 0.16491
0.08500 0.01286 -0.00095
-0.10717 0.02296 -0.08995
-0.09170 0.05114 -0.12084
-0.15234 -0.05513 0.08012
0.15208 -0.01962 0.01687
0.16837 0.01279 -0.00152
0.18335 -0.01765 0.08122
0.02854 0.02980 -0.03683
0.00795 0.04250 -0.08295
-0.01033 0.04096 -0.11544
-0.04213 0.06267 -0.09674
-0.11806 0.02896 -0.02723
-0.19339 -0.03583 0.07050
-0.00995 0.03791 -0.19225
0.01623 0.01225 -0.01783
0.18461 -0.01748 0.06536
-0.05423 0.04753 -0.11182
-0.00048 0.04723 -0.17377
0.16102 -0.06629 0.05921
0.12989 0.00626 0.02464
-0.13908 0.05080 -0.12629
0.00724 0.04530 -0.11332
-0.18044 -0.06199 0.12641
-0.01569 -0.06579 0.04473
-0.03748 -0.08553 0.06847
-0.12222 -0.08074 0.17829
-0.15617 -0.07483 0.10969
0.10032 0.02863 0.00328
-0.19968 -0.03543 0.03872
-0.21585 -0.01254 0.09753
0.18501 -0.00196 0.01896
0.09010 0.04987 -0.11328
-0.15968 0.03153 -0.02847
-0.00938 0.04448 -0.04301
0.13074 0.03003 -0.04628
-0.10426 -0.06106 0.03901
0.05951 0.04091 -0.13393
0.02375 -0.03808 0.10656
-0.03755 -0.04132 -0.00122
0.01711 0.02450 -0.01733
0.01314 0.02462 -0.04420
0.11589 0.03213 -0.16439
0.17621 -0.04518 0.14553
-0.10621 0.01022 -0.09042
-0.09418 -0.06353 0.07014
-0.12882 -0.00876 0.00734
0.00526 0.01866 -0.02196
-0.15729 0.06100 -0.10945
0.21551 -0.02993 0.15051
-0.02386 -0.01488 -0.01632
-0.02101 0.04508 -0.09240
-0.03642 0.05868 -0.09783
-0.18876 -0.09709 0.11225
-0.08064 0.00971 -0.04662
-0.07956 0.04377 -0.11469
-0.18541 -0.09235 0.12542
-0.09179 0.01965 -0.04549
-0.13080 0.00681 -0.02291
0.13671 0.03213 -0.01138
-0.05780 -0.04752 0.00722
-0.03760 0.03901 -0.06401
-0.14638 -0.08469 0.15449
-0.20859 -0.06793 0.10880
-0.15105 -0.06875 0.14072
-0.14941 -0.04644 0.10273
-0.02606 -0.05483 0.06870
-0.13922 0.03549 0.01128
0.23239 -0.03408 0.19941
-0.09378 -0.01132 -0.01596
-0.03861 -0.01822 -0.03277
-0.14194 -0.00617 -0.02567
-0.10510 -0.01022 -0.02074
-0.12350 0.01484 -0.01453
-0.13617 0.02668 -0.03755
0.07020 0.00659 0.02398
-0.06518 0.01352 -0.01235
0.07797 -0.06524 0.07107
-0.21464 -0.00342 0.05574
-0.11054 -0.03559 0.03463
0.09936 -0.08046 0.19029
0.10770 -0.07873 0.08579
-0.01458 0.05305 -0.08660
-0.19163 0.01575 0.05423
-0.13533 -0.05038 0.10224
0.26733 -0.00340 0.23428
-0.13704 0.05116 -0.12421
-0.15859 -0.08968 0.13643
-0.12611 -0.02451 0.07267
-0.11116 -0.02334 0.03377
0.26259 -0.10882 0.31791
0.13206 0.00041 0.01127
-0.09027 0.04965 -0.10042
-0.02648 0.04631 -0.11674
0.25192 -0.07609 0.36099
0.08847 -0.02703 0.20092
0.04562 0.01395 0.01425
-0.07221 0.05023 -0.14533
-0.18365 -0.04740 0.10337
-0.16365 -0.00896 0.03796
0.03715 -0.03924 -0.99530
-0.06002 0.05699 -0.07125
-0.10144 -0.05233 0.04754
-0.02120 -0.06436 0.08493
-0.14664 -0.03998 0.07880
-0.08062 0.00276 -0.03484
-0.09487 -0.00259 -0.02988
0.06607 0.03376 -0.11907
-0.09909 -0.07339 0.10903
-0.02553 0.00757 -0.03569
-0.15758 0.03649 -0.00583
-0.17699 -0.05601 0.04906
-0.15517 0.05828 -0.14285
-0.14066 -0.04632 0.07326
-0.07966 0.04800 -0.06942
0.11226 -0.06289 0.15873
0.22390 -0.06627 0.20935
-0.05044 -0.00338 -0.05757
0.09904 0.00536 -0.01630
0.20403 0.01772 0.00518
0.12042 0.04284 -0.05750
-0.17204 -0.09206 0.12793
0.23067 -0.07779 0.30596
0.02068 -0.03648 0.13565
-0.03198 -0.01356 0.00335
-0.06329 0.04038 -0.17963
0.13912 0.03212 0.01819
-0.17523 -0.09173 0.13072
-0.15936 -0.08410 0.12399
-0.13234 -0.08211 0.14806
0.00437 -0.02372 0.02471
-0.13920 -0.01902 0.02422
0.19211 -0.02847 0.07778
-0.14919 0.00006 0.01307
-0.07703 -0.01234 -0.03366
-0.10404 0.03481 -0.06386
-0.06511 0.02750 -0.01868
-0.14410 0.05747 -0.05872
-0.03789 0.05002 -0.08902
0.04048 0.04133 -0.13672
-0.20546 -0.02020 0.08862
-0.17106 -0.05741 0.08376
0.04502 0.04260 -0.12013
0.14106 -0.02019 0.02753
-0.04871 0.04876 -0.09962
-0.16030 -0.02078 0.04869
0.05210 0.01988 -0.02534
-0.21760 -0.07457 0.13582
0.10085 -0.08574 0.10376
0.27073 -0.01229 0.29934
0.10063 -0.08499 0.15461
0.04966 -0.06482 0.12718
-0.06906 -0.05643 0.02657
0.15182 -0.01596 0.00685
0.09761 -0.08938 0.19641
0.19598 -0.06306 0.18796
-0.14959 0.04253 0.04596
-0.18476 -0.09812 0.14334
-0.15453 -0.10005 0.17417
-0.17049 -0.07346 0.14492
-0.12552 -0.07309 0.09376
-0.18159 -0.06298 0.08786
0.11195 -0.08781 0.11028
-0.14718 -0.05718 0.09781
-0.17651 -0.04112 0.08767
-0.09129 -0.05319 0.03109
-0.17641 -0.03793 0.03661
0.14916 -0.06662 0.05379
-0.15293 -0.03383 0.05407
0.18887 0.01231 -0.02329
0.00546 -0.03152 0.08919
0.09409 -0.01784 0.03422
0.23384 -0.01162 0.13704
0.08497 -0.00715 0.02532
0.23837 0.00526 0.18655
-0.00933 0.00992 -0.02164
-0.01283 0.01840 -0.03459
0.13744 0.01694 -0.02448
-0.00695 0.03900 -0.06794
0.04238 0.03296 -0.06675
0.10529 0.05202 -0.08947
-0.10173 -0.03798 0.07933
-0.02952 0.01256 -0.06126
0.01809 0.01896 -0.03211
0.06220 0.02512 -0.08368
0.08617 -0.01920 0.03758
-0.07438 -0.00104 -0.04755
-0.08359 -0.07774 0.04817
-0.10008 0.02064 -0.02886
-0.16134 -0.08107 0.10720
-0.04882 -0.07534 0.02526
-0.15274 -0.02628 0.04037
-0.10232 -0.01918 -0.02534
-0.06363 -0.06898 0.01609
0.25720 -0.06203 0.31806
-0.07241 0.05892 -0.12652
-0.17084 -0.10007 0.18770
0.02179 0.00431 -0.05211
-0.04626 -0.07049 0.01032
0.20814 0.00897 -0.01194
0.14969 0.02831 -0.01280
-0.12495 -0.03522 0.05076
0.10191 -0.05096 0.05550
0.04230 -0.01562 0.10588
-0.03343 0.05723 -0.10608
-0.20617 -0.08920 0.14120
-0.18905 -0.04461 0.06960
0.14230 0.04362 -0.11679
-0.09893 -0.02755 -0.00242
0.14121 -0.03464 0.04273
-0.13987 -0.08898 0.20062
-0.22649 -0.04783 0.14134
-0.16742 -0.04984 0.07814
-0.05846 -0.02384 -0.07049
-0.08559 -0.00576 -0.04370
0.16345 0.01138 -0.03659
0.14479 0.02933 -0.15238
0.11537 -0.08894 0.12074
-0.09246 -0.04841 0.03940
0.09949 0.00112 0.00239
0.10617 0.01833 -0.02995
-0.05970 0.05937 -0.10790
-0.02808 -0.04583 0.04131
0.04298 -0.01140 0.09380
0.04205 0.01824 -0.00409
-0.01451 0.04232 -0.09769
-0.04365 -0.08491 0.05756
0.08825 -0.04513 0.03080
-0.05601 0.03406 -0.08950
-0.10764 0.01867 -0.05607
-0.16833 -0.00415 0.04845
0.06809 0.01827 -0.03947
-0.10781 0.03164 -0.02238
0.10747 0.02265 -0.02984
-0.01304 0.04361 -0.12315
-0.09793 0.06037 -0.08771
-0.09772 -0.05816 0.02449
-0.02146 0.05866 -0.23951
-0.09367 0.05780 -0.06767
-0.08178 0.05328 -0.13388
0.08350 0.04052 -0.11762
-0.16671 -0.00759 -0.01465
-0.18289 0.04574 -0.01865
-0.08103 -0.05219 0.02111
0.04344 -0.03211 0.13162
0.10933 -0.04068 0.02274
0.18133 0.01062 0.04350
-0.13035 0.03816 -0.03771
-0.15265 -0.06684 0.07521
-0.04082 -0.04503 -0.08254
-0.04230 -0.04335 0.01705
-0.02562 -0.04729 0.08215
0.12107 -0.08185 0.04631
-0.16079 -0.03782 0.06549
0.14874 0.04276 -0.03732
0.06974 -0.05514 0.02779
-0.03879 -0.04967 0.00622
-0.06751 -0.08136 0.01740
0.22561 0.00398 0.10626
0.23479 -0.01744 0.14922
-0.15092 0.02423 -0.01022
-0.09777 0.08671 -0.13797
0.19603 -0.07950 0.15643
0.05913 -0.01760 0.07201
-0.15786 0.01978 0.02374
-0.04839 -0.02201 -0.03682
0.01084 -0.02997 0.10001
-0.11796 0.03857 -0.07928
-0.03855 -0.00592 -0.03507
0.12692 -0.04695 0.02233
0.02470 -0.02164 0.08016
-0.06594 0.02096 -0.07990
-0.06317 0.05105 -0.10538
-0.01551 -0.00334 -0.04280
0.03302 0.02636 -0.10191
-0.13150 -0.03896 0.04581
0.14183 -0.06278 0.03858
-0.16012 -0.09213 0.13952
0.13780 0.04261 -0.05182
0.09827 -0.00929 -0.00296
0.12459 -0.05346 0.05412
0.09216 -0.06807 0.04140
0.00097 0.04473 -0.11026
-0.11200 -0.06577 0.07469
0.02249 -0.02928 0.07636
0.11119 -0.01726 0.09149
-0.07660 0.02073 -0.05001
0.08237 -0.06409 0.07408
0.03540 0.03658 -0.09121
0.10987 -0.00541 -0.03645
0.14905 0.03187 -0.14961
0.22382 -0.08719 0.34496
-0.17828 0.02872 0.03941
-0.10762 -0.06719 0.07800
0.17336 -0.05655 0.13459
0.14977 0.03866 -0.06851
-0.00369 -0.08076 0.18928
-0.21333 -0.06202 0.08917
0.11462 -0.00054 0.10366
0.17459 -0.04413 0.07927
0.05286 0.00558 0.02970
0.18180 -0.04451 0.09256
-0.01349 -0.00065 -0.03165
0.15225 -0.05903 0.02675
0.24426 -0.04432 0.28192
0.25327 -0.06884 0.37699
-0.03513 -0.00744 -0.02236
0.19902 -0.06766 0.18954
0.22367 -0.03215 0.15934
0.12122 0.05220 -0.04218
0.20392 -0.10293 0.26559
-0.20418 -0.03224 0.05775
0.19191 -0.04212 0.13765
-0.11607 0.00670 -0.04381
-0.12494 0.05109 -0.04208
0.00912 -0.05304 0.14531
-0.08804 0.00590 -0.08766
-0.08140 0.00167 -0.07162
-0.00444 -0.03274 -0.96261
0.03038 0.04713 -0.10467
-0.18236 -0.02145 0.05175
-0.17662 0.05211 -0.00912
-0.02424 -0.04413 0.10096
0.02936 -0.03722 -1.00000
-0.16703 -0.07978 0.12275
-0.03481 -0.04976 0.03567
-0.08609 0.03960 -0.09613
0.05519 0.06103 -0.56851
-0.00863 0.05229 -0.16594
-0.02174 0.05302 -0.23058
0.17636 0.02734 0.00797
-0.13103 -0.04174 0.06312
-0.13533 -0.01919 0.03181
0.30823 -0.01686 0.28455
0.33737 -0.08400 0.45114
0.29056 0.00388 0.24846
0.25858 -0.03288 0.24989
0.26493 -0.01192 0.20677
0.29689 0.02146 0.24969
-0.09196 0.10117 -0.31662
0.24660 -0.05419 0.34938
0.01826 -0.02405 0.15363
0.28438 -0.06570 0.37520
0.27935 -0.05393 0.34288
0.02495 -0.03319 0.11937
-0.09799 0.12398 -0.33778
0.11524 -0.01434 -0.00041
0.10132 0.04931 -0.15820
0.03209 0.03752 -0.00893
-0.15962 -0.06113 0.14655
-0.06918 -0.06745 0.01772
-0.01305 0.00756 -0.03948
0.14001 0.03508 -0.06883
0.10324 0.06712 -0.16721
-0.13588 -0.04278 0.06048
-0.18638 -0.05133 0.07192
-0.15916 -0.04747 0.06827
-0.19551 -0.07847 0.08571
0.16131 0.05148 -0.02198
0.09235 -0.03045 0.05444
-0.05260 0.05282 -0.18834
0.30668 -0.01423 0.23147
0.16827 -0.04313 0.12732
0.34548 -0.07041 0.41511
-0.17728 -0.08818 0.13963
-0.13952 0.01414 -0.02760
0.22335 0.06275 0.00497
0.08666 0.02891 -0.12189
0.08552 0.03307 -0.17228
0.26980 -0.11161 0.49128
0.33140 -0.04531 0.30870
0.02019 -0.04591 0.05689
0.19967 -0.11762 -0.30764
0.10166 -0.06548 -0.62401
0.02145 0.01681 0.02114
-0.04331 0.07211 -0.48428
-0.10275 0.07307 -0.44668
0.06432 0.06457 -0.18325
0.20818 0.01775 0.00264
0.07691 0.08804 -0.26716
-0.07358 0.10358 -0.20938
0.27243 -0.05478 0.36000
0.20688 -0.03274 0.10537
0.23316 0.06482 0.05882
0.24503 -0.08675 0.33580
0.30464 -0.02799 0.32130
-0.03612 -0.03079 -0.00224
-0.06200 0.07063 -0.25510
0.04413 -0.05125 0.03069
0.01582 -0.00045 0.02118
-0.00433 -0.03195 -0.97368
0.25293 -0.08342 0.40637
-0.14678 0.06681 -0.15167
-0.00239 0.06319 -0.33929
0.26867 0.00734 0.23493
0.21102 0.04240 0.01137
-0.02517 -0.06376 0.01387
-0.06259 0.08446 -0.17161
-0.02914 -0.02270 0.08954
-0.13358 0.09763 -0.13258
0.22776 0.02673 0.07239
-0.02074 0.03751 0.02047
0.09087 -0.05416 0.07921
-0.17958 -0.06741 0.10782
-0.10830 -0.07499 0.12855
0.27030 0.02382 0.16755
-0.16943 -0.04650 0.09868
-0.12146 0.07162 -0.25438
-0.12996 0.08311 -0.20351
-0.14848 0.07119 -0.14104
-0.14817 0.05205 -0.11930
-0.00766 0.01133 0.00094
-0.07391 0.08599 -0.08038
-0.04680 -0.03784 -0.06291
0.32895 -0.05813 0.38025
0.32011 0.03199 0.28248
0.13892 0.08392 -0.28701
-0.12974 0.11777 -0.26760
0.17527 0.08494 -0.33572
-0.15324 0.13488 -0.23622
-0.09012 0.12431 -0.31405
-0.01675 0.10559 -0.38762
-0.09430 0.09553 -0.47581
-0.16490 0.01256 -0.06450
-0.12013 0.08120 -0.45901
0.13965 0.01703 0.00985
-0.03957 0.06125 -0.19959
-0.06355 -0.05404 0.02559
0.08656 0.07288 -0.27770
0.13830 -0.07122 0.04450
-0.15318 -0.08504 0.16217
0.08956 -0.01934 0.05608
0.13259 -0.00829 0.01590
-0.04337 -0.02584 0.00065
0.05551 0.01784 -0.01379
-0.00656 -0.00992 -0.00957
0.04889 -0.06615 0.09235
0.13890 -0.00570 0.00634
0.00520 0.02612 -0.05401
-0.08739 -0.00436 -0.07266
0.03631 0.02213 -0.07910
-0.12425 0.00851 -0.03520
0.06955 0.01607 -0.01225
0.04532 -0.02174 0.10673
-0.09820 0.02622 -0.04952
-0.08964 -0.02708 -0.01296
-0.02963 -0.00727 0.00609
-0.17299 -0.02902 0.02867
0.09428 -0.13812 -0.03557
0.03634 -0.03040 0.11804
0.14864 0.00729 0.00962
-0.05807 -0.06581 0.01379
-0.02555 -0.05819 0.06899
-0.06413 -0.03632 0.01409
0.06878 -0.06504 0.05177
-0.03669 -0.03415 0.00698
0.01272 -0.03677 0.10080
-0.08399 -0.01747 -0.10426
-0.02645 -0.00793 -0.04657
-0.09480 0.03838 -0.01979
0.08764 0.02139 0.03638
-0.07230 0.05095 -0.02979
0.09609 -0.00210 0.02659
-0.02312 -0.07314 0.11085
0.07754 -0.00422 -0.17089
0.04326 0.02691 -0.34833
0.03385 0.01095 0.03223
-0.10631 -0.03257 0.02859
0.06191 0.07009 -0.43568
-0.02195 -0.06800 0.06609
0.11751 -0.03125 0.03643
-0.04806 0.01327 0.03310
-0.04587 0.01531 -0.13467
-0.01566 0.01790 0.08791
-0.06210 -0.07196 0.01467
-0.02989 0.00567 -0.02424
-0.06147 -0.01152 -0.08133
0.10967 -0.05998 0.05252
0.09596 0.00446 0.01439
0.01278 -0.00440 0.01956
-0.11655 -0.02875 0.02587
-0.04018 -0.02284 0.02409
-0.14840 0.01094 -0.01088
-0.01020 0.00486 -0.01200
-0.00186 0.02674 -0.12573
-0.01503 -0.05909 0.01266
0.10118 -0.07851 0.05801
0.14837 0.01260 -0.02811
0.12804 -0.06207 0.04856
0.11253 -0.00096 0.01452
-0.10246 -0.05089 0.02688
0.21500 0.01334 -0.00972
0.08385 -0.00313 0.04490
-0.03965 0.02449 -0.03469
-0.08130 -0.03476 0.03042
0.11658 0.05858 -0.07105
0.01693 0.00232 0.00277
-0.03373 -0.06088 0.04527
0.09967 -0.07892 0.13929
0.13119 -0.05768 0.03017
-0.00857 -0.03171 -0.00068
0.13048 -0.02980 0.00417
0.07250 -0.00642 0.02956
0.01082 0.03125 -0.04180
0.19317 -0.05400 0.14783
-0.06625 0.04561 -0.08208
0.14773 0.03436 0.00000
-0.06910 0.05422 -0.07260
-0.05759 -0.04035 0.03064
0.10564 0.00002 0.06033
-0.03810 -0.00793 -0.01394
-0.14253 -0.06425 0.12107
0.00970 -0.02362 0.07736
0.03659 -0.02026 0.10861
-0.07852 -0.00653 -0.00700
0.14574 0.00507 0.01814
-0.03602 0.02048 -0.07938
-0.10640 -0.06589 0.03885
-0.03001 -0.05774 0.06238
0.19098 0.06983 -0.08224
-0.11516 -0.01961 0.00927
0.02748 -0.03018 0.06812
0.11377 -0.02248 0.02590
0.07909 -0.01407 0.03524
-0.09554 0.07147 -0.04741
-0.07692 0.01956 -0.07680
0.01014 0.07412 -0.44104
0.04322 -0.06216 0.07288
-0.09218 0.01641 -0.02852
0.08368 0.00868 0.04766
-0.04465 -0.09055 0.08724
0.12260 -0.02302 0.02273
-0.02344 -0.04972 0.04501
0.03265 -0.00160 0.06460
0.14944 -0.02763 -0.00301
0.08214 -0.01983 0.04228
0.09566 -0.03564 -0.01538
-0.15477 0.08945 -0.17855
0.04909 0.04005 -0.07341
-0.10803 0.02336 -0.03988
0.07646 -0.00857 0.06036
0.08432 -0.06802 0.11795
-0.02325 0.05569 -0.04402
0.02349 0.01059 0.03126
0.12297 0.02204 -0.00823
0.06367 -0.04952 0.06032
0.00075 -0.03135 0.06029
-0.11381 -0.02376 0.01808
-0.11462 -0.00586 -0.00061
-0.06317 0.00547 -0.03761
0.09838 0.00230 -0.01223
-0.09670 0.06598 -0.08364
0.15286 0.00129 0.05414
0.00886 0.01709 -0.05261
-0.11797 0.09055 -0.21218
-0.03302 -0.07730 0.07398
0.12938 -0.08646 0.06669
-0.04788 -0.08025 0.03651
0.14232 -0.07133 0.07902
0.08811 -0.05570 0.05778
0.08790 -0.04551 -0.08799
-0.02433 -0.01203 -0.00602
0.13560 -0.01950 0.01236
-0.02466 0.00226 -0.05129
-0.06391 0.02943 -0.05166
-0.11226 0.04603 -0.01375
-0.07046 0.04637 -0.03439
0.08844 0.03471 -0.01070
-0.05767 0.03053 -0.08001
-0.13911 -0.06657 0.12991
-0.12838 0.04910 -0.09006
-0.11583 -0.04612 0.06063
-0.18102 0.11249 -0.12764
0.01067 0.06575 -0.29076
-0.01863 -0.04039 0.05777
0.01795 -0.02814 0.06750
0.07317 -0.04329 0.08205
0.11460 0.06487 -0.24395
-0.01876 -0.01100 -0.00572
-0.05190 0.11373 -0.36374
0.08375 -0.01723 0.06176
-0.09597 -0.06651 0.08597
0.08722 -0.05756 0.05746
0.15989 -0.01209 0.03961
-0.03328 0.07121 -0.30362
0.09319 0.00915 0.03594
-0.08126 0.03594 -0.02960
-0.13976 0.01127 -0.01883
0.16498 -0.01582 0.04646
-0.02118 0.01852 0.01757
0.15792 -0.06236 0.11289
0.07388 0.00185 0.03257
-0.00377 -0.01733 0.02653
0.15855 0.04604 -0.09714
-0.11280 -0.07666 0.08110
0.06414 -0.07027 0.05421
-0.03498 -0.07309 0.06749
-0.00511 0.04546 -0.03647
-0.12757 -0.02719 0.04674
-0.04445 0.01642 0.00332
-0.03183 0.02793 -0.04686
-0.06632 -0.04253 -0.00444
0.12311 -0.05023 0.00938
0.02692 0.01449 -0.04627
-0.10630 0.04679 -0.05951
0.14938 -0.02925 0.03404
0.13148 0.00382 -0.02028
-0.04997 -0.04090 -0.01135
0.13156 -0.04555 0.05627
-0.10948 0.00167 -0.05606
-0.13060 0.00465 0.14581
-0.01812 -0.00772 -0.07948
0.08115 -0.03671 0.05058
-0.05432 0.04821 -0.09838
-0.05918 -0.05041 -0.01680
-0.09960 -0.06213 0.08798
-0.10544 -0.06056 0.07584
-0.01404 -0.04775 0.07051
-0.06641 -0.03392 -0.00020
0.12807 -0.05620 0.03813
-0.11156 -0.01689 0.00190
-0.03100 -0.00134 -0.02328
-0.01851 -0.00114 -0.02315
0.04931 0.00437 0.02929
-0.06646 0.02639 -0.07473
-0.00210 0.02529 -0.03414
-0.06742 -0.06189 -0.00855
-0.08824 0.04677 -0.07381
0.10408 -0.07989 0.05484
0.11019 -0.07769 0.10719
0.16267 -0.02650 0.05326
0.15848 -0.06960 0.06268
0.09224 -0.01063 0.03038
0.08552 -0.01413 0.03374
0.13934 -0.06229 0.03738
0.04483 0.02403 -0.01624
0.09218 0.02434 -0.02359
-0.01168 -0.06021 0.08380
0.04923 0.00271 0.06777
-0.07007 0.03296 -0.22517
-0.00848 -0.01301 -0.04634
0.14668 -0.00301 0.01568
-0.08496 -0.03046 0.07365
-0.08848 -0.05698 0.04135
0.11891 -0.01251 0.02005
-0.08242 -0.06172 0.02556
0.14175 0.02285 0.00870
0.10378 -0.06997 0.04311
0.07764 -0.00082 -0.12947
-0.01761 0.00788 -0.04151
-0.02763 -0.04297 0.05570
-0.01162 0.03266 -0.04275
-0.07227 0.04668 -0.09394
0.13594 0.01267 0.00565
-0.05222 0.05631 -0.04854
-0.04579 -0.01821 -0.00139
0.08080 0.02936 -0.04581
-0.07798 0.04895 -0.07873
0.10444 -0.01567 0.03674
0.03617 0.00623 0.02286
0.14950 0.00527 0.01101
0.05847 -0.01924 0.03944
-0.03071 -0.02081 0.00954
-0.15520 0.07323 -0.21324
0.13480 -0.05440 -0.04574
-0.03902 0.00858 0.01778
0.12667 -0.05631 0.01606
0.16396 -0.03911 0.05133
-0.02092 -0.01664 -0.03671
0.14523 -0.00728 0.02116
0.00493 0.03323 -0.01366
0.03876 -0.04982 0.06564
0.04798 0.01860 -0.00422
-0.06763 -0.08571 -0.00275
-0.01647 -0.07643 0.13816
0.02153 -0.04110 0.06427
0.01586 -0.03914 0.05790
0.07920 -0.07317 0.05745
0.13786 -0.03713 0.04349
0.00049 -0.05541 0.07270
-0.03361 0.03944 -0.09758
-0.13621 -0.07220 0.07652
0.14967 0.01558 0.00228
0.00996 0.03662 -0.05588
0.04944 -0.04767 0.05825
0.08936 -0.01628 0.02848
0.06023 -0.03992 0.06905
0.15258 -0.06242 0.04235
0.11648 -0.06042 0.07317
-0.00929 0.01651 -0.00350
0.06472 -0.01961 0.07492
-0.10968 0.00878 -0.03877
-0.09867 0.03917 -0.07348
0.17032 0.01378 -0.03300
0.06726 -0.07039 0.01254
-0.04369 -0.07972 -0.07907
0.02365 0.04011 -0.01823
-0.07611 0.04334 -0.13010
-0.04863 0.00001 -0.06003
-0.05641 -0.05134 -0.01974
0.07565 -0.03035 0.04729
0.11031 -0.01263 0.05203
-0.04721 -0.04189 -0.00480
-0.07346 0.03108 -0.05782
0.01470 0.03712 -0.05964
-0.08442 -0.05946 0.01272
0.11686 -0.06484 0.10046
-0.11118 -0.06475 -0.00422
-0.05380 -0.05150 -0.01797
0.16278 -0.05301 0.05303
0.00128 -0.02468 0.06808
-0.05905 -0.05606 0.02303
-0.08608 -0.00768 -0.01206
-0.00497 0.02017 -0.00950
-0.10557 0.07299 -0.14010
-0.07213 0.03172 -0.05997
0.17733 -0.07164 0.12677
0.04549 0.02611 -0.03602
-0.12212 -0.00897 -0.00561
0.18134 -0.03310 0.10834
0.20699 0.04371 -0.08691
-0.13248 0.06411 -0.01654
0.15976 0.06521 0.10967
-0.15019 -0.02935 0.00500
-0.06081 0.07440 -0.21307
-0.12731 0.05279 -0.18582
-0.15617 0.02742 -0.03670
-0.07632 0.07489 -0.12786
0.27670 -0.07975 0.36871
-0.14884 0.06144 -0.16955
0.03728 -0.02068 0.00006
0.18002 0.02563 0.08329
0.10849 0.05413 -0.19469
0.28276 -0.02509 0.28529
0.21116 0.03028 -0.00781
-0.20934 -0.09709 0.13626
0.22061 -0.06996 0.28503
-0.14417 0.09285 -0.17228
0.26230 0.03523 0.08621
-0.09181 0.03587 -0.07054
-0.06293 0.02176 -0.44005
-0.11743 0.02658 -0.07708
0.01778 -0.06070 0.15461
-0.12384 0.04413 -0.15159
0.06722 0.02509 0.01245
-0.16351 -0.03395 0.02983
0.06339 0.04628 -0.18018
-0.07733 0.01872 -0.13335
0.19375 0.04064 -0.01731
0.28114 -0.04663 0.34010
0.09151 0.00704 -0.60270
-0.12863 0.04717 -0.18676
0.03613 -0.02855 -0.98173
0.03587 -0.02437 -0.97175
0.02371 -0.02428 -0.97948
0.02879 0.07546 -0.38673
-0.03261 0.08600 -0.41925
-0.17329 0.03025 -0.08476
-0.17168 0.09828 -0.21657
0.05394 0.01439 -0.00208
0.06527 -0.02270 -0.92146
-0.12114 0.12307 -0.32622
-0.25758 0.15910 -0.12541
0.05470 -0.02753 -0.95441
0.05855 0.07852 -0.34280
0.06930 -0.02453 -0.91974
0.21647 0.06489 -0.26266
0.05503 -0.02708 -0.95493
-0.01046 -0.07056 -0.04792
-0.16478 0.12677 -0.21282
-0.19059 -0.00410 0.07518
-0.15745 0.09507 -0.25001
0.23853 0.09246 -0.15914
-0.22084 0.06308 0.13097
-0.24928 0.14441 -0.15333
0.19059 -0.05520 0.10272
-0.17846 0.11075 -0.19645
0.05458 -0.03220 -0.94211
-0.21751 0.14948 -0.15113
0.15807 0.05999 -0.16044
0.13092 0.03841 -0.04255
0.07894 -0.02017 -0.91734
0.05320 -0.03550 0.07826
0.11489 -0.04518 -0.73950
-0.05880 -0.08816 0.02838
0.26886 -0.00137 0.19511
-0.15337 -0.09673 0.12959
0.12730 0.05638 -0.03079
0.07643 0.04830 -0.16591
0.15723 -0.00001 -0.04344
-0.17846 -0.09915 0.15318
0.26080 -0.10052 0.42008
0.29770 -0.09304 0.43956
-0.06899 -0.05805 0.00365
0.17425 -0.01958 0.08981
0.20275 -0.00671 0.10808
0.04998 0.02486 -0.03028
0.09513 -0.06579 0.12730
0.01988 -0.00241 -0.11601
0.10020 -0.01947 0.04376
0.21862 -0.04987 0.19343
0.06396 0.04286 -0.20894
0.13098 -0.00745 0.02280
-0.05607 0.05143 -0.16172
0.08523 -0.04086 0.12847
0.26390 -0.02877 0.29639
0.07125 0.00349 0.04046
0.00353 0.03447 -0.01695
0.10904 0.03099 -0.03414
-0.03728 0.05243 -0.28204
0.22768 -0.08379 0.34647
0.06217 -0.04213 0.07161
-0.03185 0.02985 -0.05147
0.08734 0.00900 0.02336
-0.04792 -0.09872 0.03321
-0.06869 -0.01959 -0.02836
-0.13470 -0.06624 0.15920
-0.14020 -0.05825 0.10737
0.20780 0.00696 0.02981
-0.10109 0.01645 -0.05882
0.14293 0.03458 -0.02898
0.16761 -0.05428 0.13019
0.13010 -0.01779 0.02968
-0.05550 -0.00838 -0.09690
0.23170 0.00873 0.12023
0.17460 0.05051 -0.02229
0.14269 0.04459 -0.07453
0.18869 -0.03583 0.12290
-0.03725 -0.00144 -0.05763
-0.07055 -0.05275 0.03915
0.29355 -0.08558 0.42356
0.20873 -0.00502 0.04099
-0.07337 0.06094 0.24414
0.07422 0.01881 -0.18987
0.09689 0.04214 -0.12159
-0.05818 -0.09390 0.04067
-0.01851 -0.04568 0.02743
0.25561 0.02901 0.11223
-0.06233 -0.04464 0.01538
-0.15464 -0.08708 0.18976
-0.12196 -0.06457 0.12488
0.23977 -0.07025 0.30621
-0.13401 -0.03389 0.04171
0.06651 0.01694 -0.01398
0.08056 -0.04761 0.06489
0.02168 -0.03457 0.06346
0.29368 -0.00100 0.21475
-0.13709 -0.08682 0.21686
-0.04809 -0.06407 0.03157
0.06097 -0.04710 0.06737
0.05980 -0.03131 0.12983
-0.13990 0.06721 -0.15225
-0.01561 -0.02358 0.00531
-0.08226 -0.04441 0.07522
-0.11874 0.07843 -0.20930
-0.06217 0.01806 -0.06426
-0.05076 -0.03036 0.11423
0.14924 -0.04160 0.03541
0.06498 -0.06118 0.02376
0.23791 -0.02614 0.18636
-0.12949 -0.02290 0.07349
-0.13275 0.03565 -0.00679
-0.08637 -0.02367 0.02761
-0.04779 -0.00609 0.02217
-0.03401 0.01055 -0.04099
-0.13205 -0.01983 0.04125
0.08840 0.02626 -0.35944
0.13787 0.04743 -0.18212
0.15783 0.05380 -0.06544
0.04794 -0.05204 0.04748
0.23887 -0.03189 0.09960
0.12566 0.05001 -0.20449
0.28021 -0.04054 0.31012
0.12074 -0.01969 0.01136
-0.07222 -0.02826 0.00682
-0.06066 0.09369 -0.21540
-0.16803 0.11643 -0.18791
0.27537 0.03617 0.15939
-0.02067 -0.07891 -0.14299
0.16326 -0.07665 0.17956
0.10605 0.02311 0.00981
-0.21291 -0.09567 0.17160
0.19832 -0.09867 0.32464
0.12399 -0.07399 0.03119
0.19235 -0.06115 0.13264
-0.10877 0.06667 -0.15734
0.01068 0.08460 -0.34511
-0.05263 -0.08483 0.00739
0.08490 0.05209 -0.20820
0.09333 0.05331 -0.17985
0.11628 0.02233 -0.01720
-0.05823 -0.08638 0.01564
0.27077 -0.08611 0.38858
-0.17910 -0.08642 0.13326
-0.09080 -0.01773 0.02484
0.30195 -0.05109 0.35658
-0.01534 -0.04563 0.02981
-0.21475 -0.09505 0.16318
-0.11236 0.01560 -0.02160
0.12283 0.00834 -0.05933
-0.11540 0.02162 -0.08791
0.15026 -0.02324 0.08209
0.15879 0.03533 -0.16845
-0.07685 0.10427 -0.32179
0.25116 -0.00902 0.16766
-0.10024 0.11784 -0.29232
-0.06154 -0.06162 0.01261
-0.19710 -0.03571 0.05365
-0.07652 0.04354 0.01542
-0.12232 -0.08818 0.18012
0.17901 -0.01115 0.02120
0.06988 -0.05245 0.04164
0.24989 -0.08628 0.33771
0.10382 -0.07315 -0.05094
0.12053 -0.06696 0.06630
-0.07638 -0.02345 -0.00955
0.15721 -0.01370 0.00606
-0.05489 0.00557 -0.05736
0.10881 0.00500 0.03938
0.22169 0.01583 0.07665
-0.07005 0.05093 -0.08588
0.15202 0.05429 -0.02864
-0.05833 0.00281 -0.01241
0.11158 0.01146 -0.06434
0.15443 0.01833 -0.04105
-0.14412 0.04082 -0.05271
-0.15032 -0.06227 0.10063
0.04656 0.03436 -0.08841
0.19601 -0.08316 0.22637
-0.16204 0.06950 -0.14373
0.11541 -0.07359 0.05163
-0.11405 0.08754 -0.09692
0.31395 -0.05247 0.37415
-0.03020 -0.02966 0.02815
0.11397 -0.01754 0.05603
0.20521 -0.02879 0.19372
0.08635 -0.00421 -0.00527
0.24542 0.00441 0.18090
0.03986 0.00839 0.01889
0.27088 0.00945 0.18165
0.01434 0.01039 -0.83235
0.01951 -0.02346 -0.95177
0.13106 0.02972 -0.01169
0.12418 0.02646 -0.00834
-0.00971 -0.01471 -0.00880
-0.15177 0.07841 -0.19688
-0.11590 0.07711 -0.19950
-0.05650 -0.01043 -0.02107
-0.05250 0.06899 -0.14642
0.07531 0.01457 -0.01401
0.05040 0.03424 -0.13435
-0.07101 -0.10389 0.05113
0.11420 0.02821 -0.05974
0.08521 -0.06733 0.09673
0.01161 0.00969 -0.08777
0.17653 0.04212 -0.02157
0.11633 -0.05280 -0.00189
0.19194 0.07389 -0.22454
-0.04189 0.05873 -0.08376
-0.06549 0.02872 -0.06902
0.06171 -0.02059 -0.95573
-0.00315 0.01426 -0.05541
-0.09065 -0.02084 0.00752
-0.10042 -0.07014 0.09386
-0.10745 -0.04236 0.05100
-0.02152 0.04734 -0.03923
0.06607 -0.07682 0.10409
-0.05017 -0.00850 -0.04214
-0.07761 0.00584 -0.05034
0.22791 -0.05902 0.31848
0.08937 0.01288 0.01464
-0.05850 -0.02988 -0.00303
-0.12542 -0.03489 0.02164
-0.17826 -0.04242 0.04721
0.01053 -0.05760 0.04595
-0.10771 -0.02645 0.02498
-0.04159 0.03146 -0.06477
0.05208 0.01547 0.04903
0.02193 0.05361 -0.24092
-0.08906 0.03032 -0.20964
-0.04042 0.06499 -0.21601
-0.12312 0.06031 -0.03726
-0.04920 0.05717 -0.27975
-0.10084 0.08855 -0.21514
0.08406 -0.04600 0.02410
0.29129 -0.00584 0.18754
0.07522 -0.05416 0.05036
-0.21277 0.11678 -0.16907
-0.11481 0.11764 -0.33935
0.03091 0.06383 -0.28075
-0.17863 0.09235 -0.16653
0.11908 -0.05637 0.18721
0.02410 0.03029 -0.07885
-0.07442 0.00465 -0.02938
0.06571 -0.03934 0.00970
0.12119 -0.02446 0.04079
0.30851 -0.04766 0.36875
0.02851 -0.01008 0.11590
0.07221 -0.03668 0.05124
-0.08626 0.08203 -0.30026
0.15087 0.08636 -0.22269
-0.00764 0.07280 -0.42512
0.09562 -0.01566 0.04295
-0.14335 -0.07423 0.08146
0.19014 -0.06055 0.23388
0.24105 -0.07738 0.31677
0.09302 0.02169 -0.04932
0.06316 0.01590 -0.09283
-0.11720 -0.03428 0.04836
0.24134 -0.08106 0.28669
0.05839 0.00458 0.02056
-0.03130 -0.00005 -0.06034
-0.03420 0.05746 -0.16513
0.11116 0.12448 0.00782
0.03053 -0.04030 -0.99883
0.24561 -0.04022 0.23804
0.10998 0.03415 -0.65457
-0.04886 0.04107 -0.06130
0.08459 -0.03558 0.05785
0.21440 -0.00723 0.12288
0.03947 0.03242 -0.09394
-0.05838 0.01156 -0.08432
-0.19494 -0.09251 0.12537
-0.01534 -0.00799 0.00127
-0.05697 0.02608 -0.07583
-0.10422 0.00094 -0.01658
-0.03397 0.04857 -0.05386
0.09497 -0.07352 0.06311
-0.02434 0.04791 -0.05162
-0.03690 -0.05091 0.02555
-0.07953 -0.03142 -0.02343
-0.06566 0.00057 -0.03298
0.14495 0.01966 0.00274
0.12294 0.01549 0.01044
0.24409 -0.09751 0.36779
-0.04640 -0.02122 -0.00852
0.16817 0.00440 0.03363
-0.11823 -0.05204 0.07225
0.08671 0.04949 -0.12194
-0.01157 -0.05642 0.09739
0.08460 0.01623 -0.09925
0.10567 -0.08272 0.07140
0.06810 0.03055 -0.07912
0.01784 0.02970 -0.13026
0.25995 0.02610 0.12202
-0.04592 0.01520 -0.05923
0.22157 -0.01730 0.16163
0.08288 -0.04436 0.06306
-0.13951 0.09564 -0.15266
-0.15541 -0.08862 0.17467
0.28083 -0.08470 0.39051
0.10339 0.01686 0.01930
-0.15158 -0.09357 0.20370
0.25430 -0.09417 0.39412
0.02895 0.07033 -0.21400
-0.01151 0.07757 -0.24852
0.00473 0.08022 -0.24806
0.05277 0.08167 -0.30478
0.25820 -0.04971 0.33937
0.00864 -0.04915 0.13438
0.10861 0.01864 -0.05818
0.05575 0.00310 0.02265
0.23510 -0.03745 0.25607
0.28042 -0.06179 0.35836
0.00126 -0.03438 0.02424
0.02854 0.00903 -0.02972
0.20091 -0.02198 0.07549
0.10628 0.00972 -0.02276
0.02791 -0.03552 0.08176
0.05554 -0.01983 0.10635
0.29059 -0.03849 0.31967
0.05725 0.02813 -0.11798
0.02918 -0.03965 0.11293
-0.15888 0.02497 -0.00382
0.07548 -0.08109 0.14542
-0.13330 0.06300 -0.06858
0.03022 -0.02093 0.05737
0.25009 -0.01114 0.10073
-0.10431 0.01122 -0.05024
-0.02850 0.08136 -0.24808
0.00904 0.07235 -0.39308
-0.06988 -0.04741 0.00475
-0.01305 -0.01395 -0.00026
0.25399 -0.06914 0.36135
-0.04958 0.02700 -0.06468
0.19061 -0.06470 0.16757
0.03436 0.02248 0.01563
-0.12375 -0.03778 0.05982
-0.16587 0.05828 -0.02742
-0.13942 0.07341 -0.12293
0.04133 0.06204 -0.22446
0.12222 0.05742 -0.24480
-0.06007 0.02689 -0.01122
-0.06599 0.05043 -0.08670
-0.14246 0.10749 -0.23728
0.09623 0.08264 -0.37017
0.02822 0.01648 0.00277
-0.05434 0.10627 -0.36895
0.27352 0.01032 0.12478
-0.12192 0.08400 -0.13105
0.11030 0.01745 0.00777
-0.09615 -0.05578 0.03048
-0.01310 -0.00324 0.00426
-0.14150 0.06552 -0.12383
-0.02389 -0.03983 0.03020
0.09268 0.04205 -0.08663
0.08961 -0.06960 0.03790
-0.21257 -0.05098 0.09398
0.07274 -0.03340 0.03397
-0.14511 0.08181 -0.13980
0.21951 0.07019 -0.15294
-0.10002 -0.04486 0.06362
-0.04611 -0.02668 0.01216
-0.14374 0.07731 -0.12351
0.10402 -0.00197 -0.00785
-0.19631 -0.05647 0.11029
-0.23012 -0.00268 0.15464
-0.00192 -0.01121 -0.00054
-0.02789 0.08505 -0.28589
0.13570 -0.03503 0.05130
-0.06435 0.07047 -0.26215
0.00388 0.07162 -0.29647
-0.08278 0.11642 -0.37729
0.14122 -0.02969 0.01219
-0.16530 0.02346 -0.01242
0.24515 0.01166 0.14371
-0.18396 0.04902 -0.02080
0.21175 0.02842 -0.03329
-0.14109 0.06321 -0.06577
-0.13831 0.05891 -0.19196
0.09695 0.05632 -0.16561
-0.10733 0.05762 -0.03112
-0.06267 0.10036 -0.31579
0.14672 0.07140 -0.26077
-0.22441 0.13868 -0.11860
-0.01267 0.08831 -0.36556
-0.05510 0.07858 -0.22426
-0.03760 -0.02546 -0.03401
0.04946 -0.04212 0.05301
-0.11314 0.07002 -0.20889
-0.02365 0.02036 -0.03372
-0.10200 0.04901 -0.08198
-0.10510 0.06278 -0.19967
0.15152 0.00907 -0.00225
-0.03993 -0.05257 0.02015
-0.20111 0.08070 -0.11552
0.26118 0.01315 0.19204
0.18172 0.01157 -0.05433
-0.04080 0.04946 -0.21902
-0.01817 -0.02505 -0.00417
0.11490 -0.02000 -0.02928
-0.03154 -0.00908 -0.02715
-0.13881 0.06467 -0.21327
-0.05081 -0.00782 -0.00535
-0.11852 0.07740 -0.23686
-0.02064 -0.05483 0.06844
-0.03525 -0.05275 0.03812
-0.19046 -0.04216 0.06614
-0.18568 -0.06311 0.08177
-0.16624 0.01898 0.02685
-0.10419 0.08044 -0.17832
-0.11446 0.08827 -0.21601
-0.20170 0.11941 -0.17438
-0.04214 0.09502 -0.27460
0.09510 -0.03139 0.02934
0.05742 0.02942 -0.43865
0.20369 -0.02230 0.10754
-0.06709 0.05342 -0.40637
0.04769 0.01140 0.03803
0.05186 -0.05759 0.05603
-0.07144 -0.04057 -0.00719
-0.15250 0.05501 -0.05335
0.06441 -0.00052 -0.81827
0.11366 0.04891 -0.21443
0.06926 -0.03044 0.05962
-0.06574 0.02580 -0.06064
-0.18145 -0.03029 0.04241
-0.12305 0.04357 -0.05707
-0.02475 0.06276 -0.23510
-0.03886 0.03760 -0.30676
0.03898 0.10176 -0.32722
-0.06847 -0.01511 -0.02210
-0.07935 -0.07622 0.04225
-0.05380 0.07283 -0.15874
-0.03013 0.08030 -0.11105
0.02604 0.07677 -0.29785
-0.12825 0.10312 -0.27144
0.03557 0.07610 -0.35633
-0.15858 0.07381 -0.14971
-0.12695 -0.04911 0.07752
0.09657 -0.03930 0.05312
0.17382 -0.00179 -0.01338
0.13239 0.02564 -0.01180
-0.01261 -0.04294 0.05150
-0.18384 -0.01350 0.04198
-0.03045 -0.03475 0.01493
-0.03558 0.02455 -0.10685
-0.16770 -0.03380 0.02697
0.08534 -0.02507 0.06130
-0.05923 -0.06959 -0.00114
-0.13758 -0.01030 0.00999
-0.15951 0.03322 -0.03785
0.09673 -0.01199 0.02732
0.07865 -0.01626 0.05376
-0.07463 -0.07333 0.02801
0.08196 -0.07825 0.05345
-0.01547 -0.05346 0.05644
-0.03204 0.03960 0.07259
0.10759 0.04579 -0.10702
0.00349 -0.03129 0.05850
-0.05858 -0.05730 -0.01183
-0.00640 0.00681 -0.05466
0.13240 -0.04359 0.01693
0.04330 0.01052 0.03602
0.05959 -0.00998 0.07388
0.06611 -0.04425 0.04388
-0.03088 0.02767 -0.00092
-0.01533 0.03949 -0.05424
-0.19824 -0.04185 0.07887
0.08892 -0.06511 0.04195
-0.04409 0.01349 -0.13225
-0.07462 -0.07126 0.02822
-0.13656 -0.04615 0.06241
0.10558 -0.03797 0.05508
-0.10858 0.04940 -0.02444
0.10015 0.02361 0.01072
0.14280 -0.04934 0.02963
0.11395 -0.06814 0.02807
-0.16063 -0.02384 0.00584
0.05807 -0.05885 0.09209
-0.17269 -0.08406 0.11510
0.13136 -0.02818 0.02253
-0.11478 -0.00030 -0.01834
0.09724 -0.07644 0.05698
-0.08138 -0.05687 0.02630
-0.07951 0.01353 -0.03265
0.02508 -0.03279 -0.00166
-0.13269 -0.02547 0.00624
-0.14626 -0.06259 0.12985
-0.02699 -0.00886 0.00048
-0.13436 0.03284 -0.06229
-0.10099 0.07618 -0.14289
-0.01588 -0.04363 0.07935
0.01084 0.02153 -0.06865
-0.16450 -0.01781 0.02929
-0.00551 -0.01983 -0.00048
-0.05415 -0.06420 0.04578
0.11068 -0.07401 0.08766
0.08155 0.07574 -0.30232
0.10518 0.05935 -0.16504
0.03144 -0.05250 0.12492
0.01969 0.05942 -0.22294
-0.05677 -0.08430 0.02671
0.11772 -0.06087 0.03648
0.05826 0.06514 -0.22189
0.04617 0.07172 -0.30955
0.10421 0.07386 -0.27109
0.08581 -0.00915 0.07639
0.19711 0.03390 -0.01152
0.07054 0.04127 -0.13411
0.06712 -0.00724 0.04570
0.14669 0.06610 -0.09205
0.10010 0.07802 -0.27476
-0.02154 -0.05013 0.07132
0.07384 -0.00987 0.05790
0.12666 -0.03325 0.03948
0.10050 0.01577 0.04416
0.18981 -0.01368 0.04012
-0.04454 -0.02507 -0.00959
-0.18477 -0.11324 0.30309
0.12800 0.06368 -0.16140
-0.00070 -0.06559 0.01755
0.16531 0.05408 -0.16925
-0.01800 -0.08040 0.08118
0.11789 -0.08443 -0.02223
0.13973 -0.01298 0.04709
0.12711 0.03251 -0.06259
0.11091 -0.08275 0.01346
0.08406 0.07064 -0.17633
0.06649 0.03062 -0.05488
0.20978 -0.02574 0.14106
0.02926 -0.01316 -0.88382
0.06656 -0.04821 0.02418
-0.04937 0.02406 -0.05142
0.05554 0.06483 -0.36907
0.02898 0.06480 -0.31301
0.20030 0.06747 -0.19771
0.09373 0.00995 0.00124
0.15025 -0.05577 0.08293
0.17969 0.04804 -0.06949
0.07421 -0.06797 0.10128
0.04841 0.06239 -0.32163
0.09026 0.07498 -0.26217
-0.03085 -0.02769 -0.00803
0.08286 -0.04974 0.06278
0.12223 -0.01506 0.02379
0.16943 0.00468 -0.00655
0.26431 0.00908 0.17833
0.19223 0.01793 0.04592
0.01066 -0.04310 0.14023
0.19823 0.02473 -0.05168
0.15103 0.08104 -0.25356
0.04749 -0.05848 0.06102
0.07603 0.07038 -0.25801
-0.00935 -0.06904 0.08490
0.15054 -0.07464 0.08056
0.14795 0.07782 -0.29326
0.12024 -0.05289 0.03916
-0.02259 -0.03409 0.02344
-0.03606 -0.03318 0.02660
0.05187 0.06111 -0.18191
-0.08444 -0.01936 0.00145
0.11893 -0.05573 0.05974
0.04048 -0.02132 0.10028
0.05896 -0.00609 0.07031
0.15472 0.01851 0.12256
0.20818 0.03428 -0.06545
0.11757 0.06261 -0.08657
0.13914 0.06857 -0.29194
0.09142 0.07304 -0.30300
0.09435 0.06919 -0.35703
0.06721 -0.03623 0.02060
0.05818 0.04404 -0.15786
0.12753 0.04541 -0.07577
0.20458 0.04651 -0.05702
0.05378 0.01254 0.01572
0.01825 0.07158 -0.27499
-0.05334 -0.01582 -0.02468
0.19871 0.07361 -0.06152
0.03907 -0.01581 0.03532
0.10566 0.02244 -0.09313
-0.10992 0.11766 -0.20294
0.03750 0.03692 -0.15471
0.08013 0.03910 -0.09706
0.06736 0.06149 -0.30268
0.02458 0.06148 -0.18658
0.10407 -0.05679 0.02021
0.03470 0.02461 -0.00368
0.18063 -0.02676 0.06911
0.10144 -0.03696 0.04449
0.14862 0.08438 -0.26092
0.10443 -0.03252 0.00837
-0.03272 -0.01975 -0.04862
-0.04845 0.04390 -0.02170
0.21623 -0.01960 0.14560
0.18616 -0.02949 0.11976
0.02334 0.00486 0.00055
0.00315 -0.05194 0.03811
0.13162 0.01861 -0.01683
0.20336 0.00841 0.00163
0.07675 0.06811 -0.36642
0.12633 -0.06202 0.07102
-0.06767 -0.04086 -0.00384
0.04854 -0.02842 0.02331
0.03699 0.00022 0.18819
0.06164 -0.00865 0.04308
0.12979 -0.02745 0.03751
-0.07669 -0.05855 0.02101
0.17788 -0.03503 0.05822
0.08273 -0.00040 0.00020
-0.04439 -0.07038 0.04018
-0.02504 -0.00585 0.00217
0.12131 0.02115 0.01945
0.00782 0.03454 -0.08506
0.19460 0.04097 -0.03164
0.21788 0.05131 -0.00827
0.23871 0.02980 0.06762
0.14664 0.07624 -0.28335
-0.01299 -0.03106 0.05260
0.15433 0.04063 -0.05484
0.15323 0.04334 -0.05806
0.05423 0.02069 -0.08988
0.17374 0.05782 -0.05794
0.19234 0.04496 -0.06699
-0.10234 0.12299 -0.35931
0.04673 -0.04935 0.02621
0.13575 -0.05714 0.04120
0.19991 0.03247 -0.03115
0.21478 0.04049 -0.03598
0.02334 0.05822 -0.24503
0.02086 0.07479 -0.28909
0.13196 0.08060 -0.30022
0.13663 -0.07297 0.06548
0.02435 -0.00951 0.11200
0.19008 0.07967 -0.11549
0.18744 0.05396 0.00641
0.07422 -0.05108 0.05409
0.07718 -0.05162 0.05181
0.15561 0.02785 0.00618
-0.00801 -0.03907 0.03169
0.22060 0.06653 0.02317
0.06720 -0.00497 0.02414
0.04227 0.07294 -0.34354
0.14012 -0.08062 0.05196
-0.17851 -0.03423 0.05994
-0.12583 0.04889 -0.07283
-0.08820 0.04202 -0.12237
-0.16801 -0.05668 0.01483
-0.08070 -0.01753 -0.00653
-0.04760 0.01531 -0.01289
-0.13284 -0.07655 0.12077
-0.12208 0.01736 -0.01563
0.19506 0.00770 0.03523
0.09766 0.00174 0.02825
-0.11318 0.12451 -0.29462
0.07970 0.07680 -0.21754
0.08116 0.04212 -0.12727
-0.14634 0.00212 -0.03391
-0.01845 0.03236 -0.09398
0.01507 -0.04668 0.04106
-0.07065 -0.05933 -0.00676
0.18447 0.01194 0.01573
0.07754 -0.03523 0.04699
-0.09370 0.06921 -0.19689
0.12792 0.02655 0.03909
-0.09629 -0.01058 -0.01609
-0.07729 0.07956 -0.13418
-0.04819 -0.02869 -0.00753
-0.17808 0.02995 0.02399
-0.18133 0.00763 0.02304
0.06725 -0.01549 0.05096
-0.18468 -0.08053 0.07834
-0.04850 0.00767 -0.03624
0.10544 -0.04151 0.05891
-0.12202 -0.00077 0.00507
0.13338 -0.08062 0.05890
-0.04347 0.05910 -0.09765
-0.14095 -0.03948 0.06121
-0.14582 -0.02688 0.03268
-0.06838 -0.03954 0.04316
-0.15219 0.08181 -0.19022
0.00265 -0.04742 0.11437
-0.06854 0.07575 -0.13394
-0.14994 -0.01984 0.03691
-0.17526 -0.05870 0.03322
0.01252 0.02713 0.02258
-0.15400 0.01564 0.00890
-0.08423 0.01068 -0.07669
-0.07065 0.01992 -0.10150
-0.15480 0.04240 -0.03031
-0.12007 0.04668 -0.01082
0.14602 -0.07479 0.09073
-0.02871 0.02428 -0.08440
-0.14981 0.03525 -0.03118
-0.18992 -0.01657 0.07769
-0.17623 0.01471 0.02451
-0.01334 -0.03967 0.08465
-0.11664 0.06184 -0.20238
0.13276 -0.00105 0.05366
-0.13421 0.03182 -0.00199
-0.13497 -0.00487 0.01175
0.04728 -0.00647 0.00305
-0.13715 0.04004 -0.01767
0.12610 -0.06641 0.05533
-0.13472 -0.01757 0.01031
0.07522 -0.03673 0.05652
-0.18602 0.06572 0.01794
0.12701 -0.08270 0.05337
0.06165 0.01098 0.02834
0.00702 -0.02736 0.05436
0.07709 0.01384 -0.06239
0.13636 0.00182 -0.01357
-0.01929 0.05681 -0.11827
0.01979 -0.04969 0.03152
0.00713 -0.05125 0.15548
-0.09582 -0.03525 0.06165
0.12673 -0.03227 -0.04346
0.15848 -0.04308 0.04890
0.18277 -0.02819 0.02713
0.05071 0.01953 -0.00321
-0.04683 -0.01600 -0.02874
-0.02308 0.05487 -0.08534
0.12488 -0.08546 0.06753
-0.05588 0.05034 -0.01682
0.11942 -0.02874 0.03608
-0.10808 -0.01140 -0.00269
0.15057 0.04046 -0.01195
-0.03194 0.10331 -0.37834
0.12758 -0.01759 0.02857
0.19650 0.01019 -0.02436
-0.02262 0.05831 -0.15457
0.08990 0.01426 -0.00295
-0.03907 0.07156 -0.14172
0.14206 -0.03335 -0.02048
0.08362 -0.05659 0.07692
-0.01478 -0.05395 0.10599
0.21052 0.00146 0.06548
0.17879 0.03777 -0.06724
0.05501 0.05763 -0.10692
-0.12497 0.05230 -0.13373
-0.05228 -0.06090 0.04321
0.12461 0.05198 -0.15469
-0.09173 -0.02233 -0.00799
-0.02651 -0.02045 -0.03633
-0.02645 0.06785 -0.14617
0.17597 -0.06292 0.11588
0.18524 0.01124 -0.00314
-0.03509 -0.02274 0.02106
