# .PCD v.7 - Point Cloud Data file format
VERSION .7
FIELDS x y z
SIZE 4 4 4
TYPE F F F
COUNT 1 1 1
WIDTH 499
HEIGHT 1
VIEWPOINT 0 0 0 1 0 0 0
POINTS 499
DATA ascii
0.01679 0.04235 0.11450
-0.01965 0.02457 0.16793
0.10708 0.01766 -0.48323
-0.04372 -0.13111 0.14118
-0.04353 -0.13137 0.14191
-0.01844 0.03962 0.15968
0.12705 -0.01604 -0.61854
0.00994 0.04314 0.16253
-0.08745 0.03788 0.04559
0.10598 0.01382 -0.73942
-0.02106 -0.00372 0.17774
-0.00487 -0.07498 0.28192
-0.02065 -0.07875 0.18952
-0.08817 0.02575 0.07455
0.07597 0.07141 -0.07164
-0.08229 0.02983 0.00000
0.12936 -0.00018 -0.61461
-0.08395 0.02636 0.02497
-0.07714 0.03493 -0.05951
0.00000 -0.07438 0.28612
-0.08606 0.03923 0.07676
-0.08318 0.02753 0.03324
-0.08318 0.02753 0.03324
-0.02283 -0.02780 0.18261
-0.08071 0.01879 0.00853
-0.08550 0.03131 0.08110
-0.07973 0.03152 0.00366
-0.07965 0.02386 0.00847
-0.07908 0.03020 0.00476
-0.07348 0.03347 -0.06835
-0.08395 0.03949 0.07843
0.01093 0.02888 -0.24426
-0.03199 0.02053 0.16169
-0.07880 0.02516 0.00918
-0.08466 0.02096 0.08817
-0.07750 0.03746 0.00159
0.09286 -0.00819 -0.56059
-0.03180 0.02333 0.16062
-0.01929 0.02427 -0.09849
-0.03133 0.03225 0.15874
-0.03466 -0.13599 0.15137
-0.07649 0.03633 0.00093
-0.03466 -0.13599 0.15137
-0.03255 -0.02912 0.17751
0.13096 0.00218 -0.62526
-0.08069 0.04158 0.08171
0.00772 0.01724 -0.20460
-0.08158 0.02816 0.08800
0.13086 0.00303 -0.62680
-0.07000 0.02900 -0.07076
0.10239 -0.00598 -0.71167
-0.08041 0.03824 0.08419
0.00956 -0.07462 0.33878
-0.09072 0.02041 0.08196
-0.05816 0.03459 0.12218
-0.08001 0.03316 0.08670
-0.08001 0.03316 0.08670
-0.08022 0.02537 0.09293
-0.07932 0.03493 0.08789
-0.07895 0.03830 0.08620
0.05978 0.07362 -0.04114
-0.07657 0.04564 0.08968
0.13225 0.00563 -0.62782
-0.03693 -0.14862 0.13902
0.13215 0.00376 -0.63052
-0.07626 0.04205 0.08896
-0.06229 0.03104 0.12571
-0.07557 0.04409 0.08991
-0.06343 0.01439 0.13512
-0.07663 0.02757 0.09501
-0.06317 0.02843 -0.09648
-0.06317 0.02843 -0.09648
0.01389 -0.07430 0.34954
-0.03738 -0.14369 0.14191
-0.00991 -0.02539 0.19466
-0.02911 -0.02861 0.17823
0.05598 0.06988 -0.04010
-0.07367 0.03402 0.09072
-0.05956 0.03983 -0.10567
-0.07232 0.04675 0.08555
0.05452 0.07146 -0.01739
0.10808 -0.00448 -0.77829
0.04603 0.07808 0.03247
-0.06530 0.03944 0.10377
-0.07233 0.01569 0.10496
-0.06970 0.04887 0.09008
-0.06462 0.04928 0.09431
-0.06119 0.01963 -0.05497
0.13860 0.02000 -0.57820
-0.07102 0.02829 0.10210
-0.07102 0.02829 0.10210
-0.06990 0.04103 0.09585
0.12900 -0.00101 -0.61726
-0.06956 0.04387 0.09413
-0.05598 0.02767 -0.12073
-0.02645 0.03279 0.16040
-0.06893 0.04710 0.08995
-0.06893 0.04710 0.08995
-0.08162 0.03602 -0.00416
-0.06820 0.05215 0.09276
-0.07086 0.01530 0.10778
-0.06934 0.03650 0.09895
-0.06953 0.03369 0.10049
-0.06895 0.04020 0.09754
-0.06809 0.04885 0.09287
-0.06899 0.03802 0.09827
-0.06827 0.04605 0.09474
0.05089 0.08014 0.03540
-0.02552 0.03886 0.15577
0.10765 0.00838 -0.74392
-0.02039 -0.07505 0.18813
-0.02657 0.02946 0.16129
-0.02203 -0.07203 0.19041
-0.01892 -0.07247 0.18089
0.07367 0.07172 -0.06731
-0.02494 0.03424 0.15871
-0.07128 0.03357 0.09838
-0.02804 -0.03002 0.17999
-0.02821 -0.03006 0.18065
-0.02584 -0.06421 0.18526
-0.02553 0.05124 0.15811
-0.03510 -0.00538 0.16912
-0.03496 -0.00257 0.16837
-0.02607 0.00389 0.17228
-0.02015 0.02608 0.16580
-0.00810 -0.10361 0.19793
-0.02195 -0.03145 0.18513
-0.02840 0.00370 0.17066
-0.08126 0.03960 -0.00526
-0.02442 0.02703 0.16382
-0.02141 0.00578 0.17281
-0.06283 -0.08982 0.13573
0.07138 0.07196 -0.06378
-0.03151 0.03464 0.24923
-0.02756 0.02853 0.16064
-0.02853 0.00504 0.16972
-0.02405 0.03284 0.16151
-0.03400 0.00448 0.16595
-0.02949 -0.03129 0.17923
0.00423 0.04450 0.19414
-0.00497 -0.07258 0.23660
-0.02330 0.03562 0.16131
-0.03251 -0.07355 0.17715
-0.02811 0.00039 0.13314
-0.03367 -0.00455 0.16991
-0.03368 -0.00088 0.16866
-0.03336 -0.13511 0.15040
0.05981 0.06825 -0.04662
-0.02250 -0.00125 0.17640
-0.01150 -0.11897 0.18255
0.10210 -0.02346 -0.48086
-0.01187 -0.12422 0.18439
-0.02893 0.04002 0.15336
-0.03313 0.00465 0.16543
-0.01891 -0.06354 0.19160
0.03118 0.06578 0.13665
-0.07790 0.02362 -0.00095
-0.02331 -0.06384 0.18812
-0.02324 -0.03059 0.18384
0.11522 -0.00045 -0.83721
-0.01792 -0.06201 0.19164
-0.03049 0.03514 0.15425
-0.02263 0.02938 0.16403
-0.04269 -0.13323 0.13941
0.04884 0.06580 0.04718
-0.01802 0.02222 0.16946
-0.05509 0.00661 0.13810
-0.03160 0.04020 0.21060
-0.06196 0.00693 0.13179
-0.04976 0.00558 0.14399
-0.04976 0.00558 0.14399
0.09756 0.01498 -0.57988
-0.02951 -0.03407 0.18011
-0.03331 0.02091 0.16075
0.00256 0.06729 0.17800
0.11280 -0.01323 -0.63296
-0.02780 0.02602 0.16179
0.01124 -0.04874 0.19210
-0.01643 -0.10195 0.17583
-0.04830 0.01166 0.14538
0.12997 0.00011 -0.61847
0.10737 0.00892 -0.74193
0.06637 -0.02891 -0.12289
0.04290 -0.05105 -0.02237
0.10837 0.00889 -0.74069
-0.03111 0.03363 0.14529
0.10197 0.00420 -0.82864
-0.06309 -0.03234 0.11691
0.10455 -0.01276 -0.44596
0.11814 -0.02100 -0.60083
0.11990 -0.02109 -0.60288
0.08443 -0.01561 -0.21025
0.10982 -0.00337 -0.74895
0.11157 0.01370 -0.57734
-0.05360 -0.05802 0.14348
0.11286 0.00005 -0.62902
0.05065 -0.03217 -0.13268
0.12972 0.00864 -0.69385
-0.03196 0.02068 0.16187
0.11319 0.00661 -0.63528
0.10441 0.00896 -0.74639
0.08223 -0.01698 -0.46801
0.10763 0.00902 -0.74163
0.11085 -0.00288 -0.76222
0.10524 0.00903 -0.74496
0.09089 0.00344 -0.79735
0.12822 0.01159 -0.67834
-0.02859 0.03841 0.14256
0.11116 -0.01798 -0.42638
0.10727 -0.01283 -0.45110
0.05640 -0.03017 -0.14744
0.08532 -0.02249 -0.48473
0.10872 0.00851 -0.73913
0.10688 -0.01849 -0.46677
0.10516 -0.01321 -0.42629
0.10481 0.00899 -0.74563
0.10279 -0.01047 -0.37912
0.11790 -0.01239 -0.40018
0.10788 -0.00498 -0.76761
0.10333 -0.01661 -0.40124
0.10465 -0.02008 -0.44168
0.12385 -0.00763 -0.59165
0.06689 -0.02630 -0.23034
0.11867 -0.02299 -0.59987
0.09794 -0.01262 -0.33228
0.11911 -0.01141 -0.61495
0.12715 -0.00757 -0.60708
0.10830 0.00843 -0.74154
0.13096 0.00218 -0.62526
0.11253 0.00293 -0.62910
0.06953 -0.02659 -0.22569
0.06924 -0.02557 -0.22160
0.12008 -0.01104 -0.61268
0.12008 -0.01104 -0.61268
0.12045 -0.01053 -0.61324
0.12114 -0.01412 -0.49706
-0.04833 0.00470 0.14710
0.12083 0.01321 -0.66586
0.12083 0.01321 -0.66586
0.09263 -0.01362 -0.32709
0.12741 -0.01931 -0.60567
0.09648 -0.02342 -0.40360
0.08275 -0.01867 -0.16088
0.14065 0.01150 -0.73101
0.14104 0.01166 -0.72879
0.08641 -0.02898 -0.27848
-0.05193 0.01051 -0.06724
0.08126 -0.03475 -0.21527
0.12630 -0.01215 -0.61196
0.12588 -0.01646 -0.61166
0.10915 0.00345 -0.80991
0.08394 -0.03168 -0.30266
0.12635 -0.01158 -0.61236
-0.07684 0.03711 -0.00817
-0.07830 0.03567 -0.00781
-0.07830 0.03567 -0.00781
0.13132 0.00198 -0.62653
0.12932 0.01227 -0.69109
0.13059 0.00215 -0.62382
-0.03551 0.02956 -0.14359
0.11744 -0.00018 -0.83837
0.12693 0.01105 -0.69027
0.14188 0.01184 -0.72610
0.14171 0.01177 -0.72708
0.14148 0.01159 -0.72808
0.14208 0.01182 -0.72465
0.13420 0.01237 -0.66701
0.11763 0.00000 -0.84541
0.13420 0.01239 -0.66701
0.11306 -0.00286 -0.79855
0.13175 0.00295 -0.62864
0.11834 0.00045 -0.84530
0.13201 0.00416 -0.62819
0.07866 0.07335 -0.04674
0.04678 0.05777 0.24373
-0.07794 0.02204 0.09680
0.10459 0.00892 -0.74607
-0.04571 -0.06472 0.16236
0.10714 0.00880 -0.75644
0.12846 0.00283 -0.60870
0.14432 0.02006 -0.57781
0.08276 0.00244 -0.75889
-0.07499 0.04676 0.08719
0.00710 0.10452 0.50069
0.11294 -0.01403 -0.63209
-0.05526 -0.04509 0.14136
0.04448 -0.03634 -0.05599
0.10904 -0.00360 -0.79400
0.00994 0.04314 0.16253
0.10377 0.00853 -0.74714
-0.04837 -0.10795 0.11630
0.11881 -0.02123 -0.60253
0.11319 -0.01551 -0.63425
0.10373 0.00893 -0.74657
0.12657 -0.00705 -0.60389
-0.05592 -0.09464 0.12180
0.03574 -0.06850 0.24266
0.08135 0.00254 -0.74695
0.13058 -0.00119 -0.62005
0.12138 -0.01007 -0.58094
-0.02796 -0.07009 0.18026
0.12942 -0.00123 -0.61711
0.13142 0.00103 -0.62344
0.09558 -0.01923 -0.29080
0.12947 -0.00120 -0.61674
0.12695 -0.01580 -0.62019
-0.05217 -0.10099 0.10935
-0.05239 -0.09651 0.11286
-0.05160 -0.10090 0.11207
-0.00805 -0.08266 0.19823
-0.09754 0.01764 0.04353
-0.04585 -0.08599 0.14640
-0.03189 -0.07304 0.17365
-0.05315 -0.09260 0.10099
-0.03111 0.03363 0.14529
-0.04926 -0.10389 0.11299
-0.05609 -0.07693 0.10877
-0.05421 0.00655 0.13388
0.13331 0.00596 -0.63086
0.13325 0.00675 -0.62999
0.13307 0.00643 -0.62971
0.11066 -0.00305 -0.79319
-0.04837 -0.10795 0.11630
-0.01576 0.03566 0.16879
-0.01499 0.03550 0.16584
0.13266 0.00542 -0.62950
0.13269 0.00542 -0.62924
-0.05692 -0.07499 0.10687
-0.04877 0.05433 0.12280
0.11633 -0.01154 -0.55658
0.13126 0.00282 -0.62774
0.13130 0.00279 -0.62577
0.06275 0.07311 -0.04497
-0.04690 -0.10764 0.11840
0.13101 0.00414 -0.62547
0.13086 0.00185 -0.62475
-0.05778 -0.07392 0.10211
-0.05778 -0.07392 0.10211
0.10448 -0.02084 -0.49027
-0.01850 -0.11054 0.17341
-0.01840 -0.11059 0.17313
-0.04744 -0.08465 0.14343
-0.02243 -0.02925 0.18783
-0.01969 0.02183 0.16947
0.00214 0.03342 -0.00963
-0.02095 -0.07281 0.17898
-0.06589 0.02343 0.14246
-0.06589 0.02343 0.14246
-0.04650 -0.08679 0.14576
-0.04650 -0.08679 0.14576
-0.02057 0.03061 0.16584
-0.02152 -0.09833 0.17164
-0.02420 -0.06332 0.18649
-0.05776 -0.03088 0.10570
-0.02300 -0.00441 0.17252
-0.02051 -0.02764 0.18765
0.11053 -0.00310 -0.79378
0.10203 -0.02306 -0.47585
0.12776 -0.01378 -0.61228
0.10203 -0.02306 -0.47585
-0.02669 0.02680 0.16249
0.10210 -0.02346 -0.48086
0.12705 -0.01749 -0.61840
-0.03259 -0.06743 0.23696
0.12715 -0.01172 -0.61385
-0.07889 -0.01755 0.06733
-0.05628 -0.09880 0.08478
-0.02423 0.03909 0.16251
0.09913 -0.02352 -0.46099
-0.05951 -0.03431 0.12472
0.09805 -0.02250 -0.46130
0.12644 -0.01566 -0.61373
0.12675 0.00730 -0.60340
-0.03052 -0.00483 0.17519
-0.02891 0.04014 0.16608
-0.02953 0.00076 0.16947
0.10794 0.00847 -0.74130
0.09125 -0.02385 -0.42441
-0.02943 0.03168 0.15746
0.12475 -0.01635 -0.61249
-0.03121 -0.10082 0.16488
-0.03387 -0.07668 0.17767
-0.03593 0.04853 0.19247
0.11844 -0.01835 -0.62836
0.11847 -0.01964 -0.62906
-0.03409 -0.03317 0.17442
0.12520 -0.01297 -0.60234
-0.03360 0.03476 0.16438
-0.03629 -0.03803 0.17812
0.12126 -0.02021 -0.62338
0.12118 -0.02055 -0.62314
0.12190 -0.01108 -0.60731
0.12260 -0.00905 -0.59538
0.12121 -0.01088 -0.60905
-0.06428 -0.04873 0.09021
0.12099 -0.01246 -0.60954
0.12086 -0.01096 -0.61064
0.11952 -0.02051 -0.62661
-0.06450 -0.06777 0.08682
-0.06450 -0.06777 0.08682
-0.06441 -0.06917 0.08747
-0.06390 -0.06625 0.08899
0.06930 -0.03682 -0.22455
0.12224 -0.00799 -0.58738
0.00097 0.07716 0.53059
0.12171 -0.01082 -0.60408
0.08317 0.00569 -0.76204
0.10878 0.00957 -0.73769
0.10628 -0.01621 -0.51138
0.11942 -0.01503 -0.61501
0.10533 0.01087 -0.71415
0.12743 -0.01823 -0.60585
-0.02100 -0.07160 0.18485
-0.04735 -0.08987 0.13315
-0.02957 -0.07269 0.17997
-0.02969 -0.07268 0.18048
0.12883 -0.00952 -0.61617
0.11921 -0.01991 -0.62717
-0.02574 -0.09936 0.16889
0.12885 -0.00096 -0.61392
-0.02596 -0.10054 0.17042
-0.02309 0.03567 0.16019
0.10240 -0.02235 -0.47810
-0.02646 0.01853 0.17020
0.11822 -0.00636 -0.59320
0.12685 0.00052 -0.58445
0.12578 0.00607 -0.71535
-0.02799 -0.07618 0.17914
-0.05355 -0.08627 1.00000
0.12246 -0.00580 -0.60199
-0.06251 -0.03265 0.11525
-0.01892 -0.07247 0.18089
0.13287 0.00744 -0.62740
-0.01590 -0.09660 0.62167
0.13090 0.00353 -0.62370
0.12923 -0.00046 -0.61882
0.12898 -0.00100 -0.61745
-0.05654 -0.10920 0.08073
0.11060 -0.01492 -0.52495
0.11182 -0.00315 -0.63373
0.10845 -0.00477 -0.76853
-0.06098 -0.03048 0.11648
0.09157 0.00713 -0.79588
0.11319 0.00844 -0.62032
-0.06073 0.01616 -0.04283
0.10646 -0.02470 -0.32445
0.08361 0.00234 -0.76119
0.07891 -0.02412 -0.21896
0.11495 -0.01204 -0.64068
-0.05541 -0.06409 0.12030
0.11519 -0.01423 -0.62581
0.11512 -0.01403 -0.62837
0.10323 -0.01055 -0.31666
0.11096 -0.01491 -0.34859
0.06072 -0.05307 0.13402
-0.05860 -0.06084 0.13951
-0.07074 -0.03114 0.10733
0.12925 -0.00054 -0.62207
-0.08046 0.03022 0.00967
0.10295 -0.01192 -0.37665
0.04805 0.06100 0.23252
-0.05594 -0.06717 0.14240
-0.05292 -0.06606 0.12946
0.09871 -0.01646 -0.35286
0.11881 -0.02123 -0.60253
-0.01215 -0.04253 0.21953
0.09452 -0.02283 -0.26938
0.03126 0.06584 0.33020
0.11944 -0.00495 -0.62254
0.09244 0.00279 -0.80098
0.09180 0.00449 -0.79798
0.09180 0.00449 -0.79798
0.08565 -0.01717 -0.13265
0.12071 -0.01963 -0.62850
0.10721 0.00822 -0.74915
-0.05064 -0.07038 0.14110
-0.05064 -0.07038 0.14110
-0.00843 -0.05896 0.22185
0.11319 -0.01551 -0.63425
-0.04808 0.03390 0.12914
0.10698 -0.00804 -0.70027
0.12365 -0.02229 -0.58442
-0.00021 0.04527 0.19994
-0.02965 0.03484 0.14911
0.12475 -0.01635 -0.61249
0.10788 0.00893 -0.74111
0.12486 -0.01223 -0.61539
-0.04506 -0.08386 0.14309
0.09752 0.00459 -0.81846
0.12526 -0.01576 -0.60965
-0.00861 -0.04598 0.30538
0.12606 -0.01567 -0.61074
-0.07002 0.05566 -0.01116
0.10462 0.01731 -0.69568
0.09195 0.00419 -0.79646
0.10717 0.00833 -0.75630
-0.01515 -0.06413 0.33618
0.10646 0.00926 -0.73539
0.08208 0.00249 -0.75747
