# .PCD v.7 - Point Cloud Data file format
VERSION .7
FIELDS x y z
SIZE 4 4 4
TYPE F F F
COUNT 1 1 1
WIDTH 1881
HEIGHT 1
VIEWPOINT 0 0 0 1 0 0 0
POINTS 1881
DATA ascii
-0.08088 -0.02629 0.05336
-0.02875 -0.05190 0.14414
-0.06690 -0.04516 0.12940
-0.07801 -0.04004 0.10883
0.04565 -0.04161 0.09523
-0.03973 -0.05242 0.13362
0.00101 -0.03811 0.29594
0.07275 -0.04827 0.12575
-0.02628 -0.04264 0.11766
0.07698 -0.04206 0.08463
0.00702 -0.05247 0.12344
-0.03587 -0.03132 0.05356
0.03542 -0.04516 0.08320
-0.02529 -0.02698 0.06369
-0.02884 -0.00053 -0.02844
0.07746 -0.03781 0.08337
-0.09508 0.02097 -0.06836
0.03007 -0.03869 0.09460
-0.02935 -0.03227 0.06978
-0.07108 -0.02297 0.00251
0.00281 -0.01717 -0.12751
-0.02662 -0.03101 0.08753
0.07571 -0.02296 0.04379
-0.04609 -0.01712 0.01574
0.06299 -0.03638 0.11121
-0.08791 0.03605 -0.13687
0.02736 -0.03518 0.11948
-0.02538 -0.03625 0.09620
0.06484 -0.01734 0.02941
-0.01717 0.02158 -0.02930
0.06824 -0.04661 0.14313
-0.09511 0.02653 -0.08109
-0.09487 0.03433 -0.08221
0.06746 -0.03184 0.07883
0.03080 -0.07548 0.19849
-0.09345 0.04497 -0.14025
-0.03502 -0.00443 -0.02149
0.04655 -0.02957 0.07391
-0.00914 -0.00822 -0.02216
-0.06786 -0.03065 0.08246
-0.08757 0.01107 -0.05560
0.07548 -0.03014 0.07075
0.09399 0.01207 -0.02249
0.08557 0.02993 -0.09746
0.08568 0.03377 -0.10619
0.07103 -0.01324 0.00840
-0.08967 0.03866 -0.13598
-0.08943 0.03630 -0.12991
-0.09174 0.02288 -0.08336
-0.07978 0.03534 -0.15764
-0.09194 0.03576 -0.11670
-0.02758 -0.01071 -0.00231
0.07640 -0.01183 0.00562
-0.01377 -0.00475 -0.04178
0.08105 0.04187 -0.13965
0.07842 0.04729 -0.15924
-0.09039 0.02843 -0.10087
0.08449 0.03701 -0.11792
0.07471 0.04935 -0.17388
0.07355 0.03761 -0.15962
-0.06592 0.03364 -0.16171
-0.07932 -0.00813 -0.00809
0.08672 0.03697 -0.11025
-0.01218 0.00817 -0.02544
-0.06483 -0.03193 0.10455
-0.09221 0.03141 -0.10344
0.07932 0.03743 -0.13223
-0.08220 0.03946 -0.15801
-0.09340 0.00349 -0.01233
-0.04924 0.05442 -0.17755
0.07524 0.05047 -0.17480
0.07563 0.03805 -0.14345
-0.03912 0.00665 -0.05623
0.07233 0.04725 -0.17226
-0.08334 0.04028 -0.15977
-0.05865 0.01552 -0.05706
0.07670 0.03941 -0.14440
0.02895 0.00894 -0.05554
-0.07675 0.03322 -0.14060
-0.07902 0.03161 -0.14103
0.06760 0.01098 -0.06389
-0.08922 0.04503 -0.15134
-0.08533 0.03730 -0.13193
0.05592 0.00905 0.00295
0.02971 0.04630 -0.16184
0.04180 -0.00756 -0.01453
-0.09071 0.04782 -0.15876
-0.08693 0.03260 -0.11460
-0.00298 0.04254 -0.19512
-0.02704 -0.00135 -0.00097
-0.03690 0.00299 -0.04642
-0.08232 0.03020 -0.11729
-0.07917 0.04208 -0.17414
0.02461 0.01114 -0.05505
0.00434 0.03145 -0.16329
0.07495 0.02851 -0.10724
0.07527 0.03003 -0.11249
-0.08427 0.03685 -0.14559
-0.03531 0.00831 -0.05869
-0.00097 0.02788 -0.15733
0.03674 0.00694 -0.05680
0.05414 0.03651 -0.11497
-0.07253 -0.01006 -0.00405
-0.02441 0.05444 -0.22612
-0.04636 0.04871 -0.17685
0.07935 0.02502 -0.09184
-0.01148 0.01182 -0.10715
-0.08085 0.03880 -0.17655
-0.01481 0.02466 -0.13480
-0.08794 0.04525 -0.15658
0.06720 0.04004 -0.13297
0.01601 0.05167 -0.21434
-0.05352 0.04736 -0.18981
0.06887 -0.00109 -0.03029
0.00535 0.02795 -0.15786
-0.04272 0.05242 -0.19661
-0.07986 0.00504 -0.04177
-0.03184 -0.03582 0.08347
0.03563 -0.07524 0.20319
0.06712 0.00953 -0.05776
0.08070 0.01958 -0.08280
-0.02847 -0.00303 -0.01957
0.06981 -0.06353 0.16659
-0.07745 -0.06079 0.16190
-0.08630 0.00221 -0.03255
-0.02624 -0.00861 0.00013
0.08042 -0.01795 0.01287
0.07506 0.01012 -0.09245
-0.01701 -0.00201 -0.04365
-0.08003 0.00282 -0.04214
-0.01070 0.00170 -0.05289
-0.03824 0.00084 -0.02141
0.08469 -0.01305 0.03124
0.03715 -0.04217 0.09380
0.03284 -0.04118 0.09344
-0.02955 -0.03746 0.09845
-0.03714 -0.04980 0.12219
0.06877 -0.03703 0.10522
0.00417 -0.01498 0.07329
-0.03312 -0.05185 0.13506
0.02439 -0.03327 0.02400
0.02767 -0.03163 0.08714
-0.03744 -0.04190 0.09190
-0.06843 -0.02607 0.05226
-0.09098 0.04038 -0.13649
-0.02682 -0.05777 0.34280
0.04564 -0.08033 0.21955
-0.07836 -0.04893 0.12318
0.01110 -0.03180 -0.09140
-0.04632 -0.02977 0.06365
-0.07782 -0.02787 0.06334
-0.07138 -0.06089 0.12576
-0.08103 0.01343 -0.07453
-0.16553 -0.01224 0.11974
-0.09131 0.01016 -0.04293
0.05038 -0.03926 -0.03280
-0.08710 0.00793 -0.04819
0.05179 -0.02127 0.07158
-0.03353 0.06195 -0.24075
-0.07006 -0.03600 0.09446
-0.08981 0.04748 -0.15667
0.02722 0.04630 -0.15454
0.00149 0.05121 -0.20190
-0.05885 -0.02156 0.02686
0.00322 0.05949 -0.20883
-0.06957 -0.03824 0.08942
-0.02286 0.05310 -0.21182
-0.02480 0.06045 -0.24292
-0.00232 -0.00222 -0.03224
0.01961 0.04141 -0.18835
0.00717 0.08035 -0.21647
-0.03274 0.05626 -0.24008
-0.11179 0.04262 -0.05142
-0.08324 0.03628 -0.14130
-0.03159 0.07764 -0.26602
-0.05386 0.04337 -0.23009
-0.02043 -0.00735 0.03544
-0.05050 0.00967 -0.05180
0.05542 0.05343 -0.22355
-0.03634 0.06355 -0.25410
0.06436 -0.02808 0.11105
-0.06673 -0.03044 0.07720
-0.05773 0.04138 -0.23194
-0.04993 0.04159 -0.22247
0.07658 0.05253 -0.17541
-0.05127 -0.03275 0.00404
-0.05209 0.04362 -0.23154
-0.08317 0.04327 -0.17538
-0.06045 0.04296 -0.21996
0.06102 -0.03247 0.08499
-0.00903 0.05198 -0.20655
-0.02997 0.08310 -0.26326
0.07151 -0.01626 0.03598
-0.01294 0.06255 -0.21101
-0.02390 0.04782 -0.20990
-0.05622 0.04429 -0.22784
-0.08316 0.01956 -0.08784
-0.08133 0.04329 -0.17400
0.07004 0.05335 -0.19788
0.08753 0.01621 -0.06223
0.07688 0.05388 -0.17832
0.01209 -0.00242 -0.07113
-0.07562 0.03627 -0.13845
0.01504 0.01947 -0.05199
0.07004 0.04748 -0.17239
0.00543 0.06120 -0.20674
-0.03336 0.00233 -0.27986
-0.00400 0.03254 -0.16356
0.00842 0.05806 -0.21219
-0.00598 0.04334 -0.18099
0.01552 0.04185 -0.19197
-0.09215 0.00643 -0.03704
-0.08708 0.03836 -0.13641
-0.01455 0.03745 -0.17638
0.05286 0.04977 -0.21381
0.03709 0.01243 -0.05281
0.02987 0.04118 -0.14161
-0.01139 0.02400 -0.15949
0.02320 0.05240 -0.22536
0.06929 0.01444 -0.04761
0.00036 0.06215 -0.20200
-0.01590 0.03499 -0.17501
-0.00232 0.09162 -0.25914
0.02526 0.04358 -0.14324
-0.05764 0.03948 -0.22857
-0.00786 0.02045 -0.14600
-0.03288 0.04440 -0.15210
-0.03164 0.03022 -0.11926
-0.08064 0.02412 -0.10973
-0.02609 0.08339 -0.26452
-0.07465 0.01386 -0.07212
0.03889 0.04801 -0.23041
0.03818 0.00441 -0.04735
0.07213 0.05043 -0.17890
0.06538 -0.00707 -0.00705
-0.08240 0.00888 -0.05862
0.03518 0.00107 -0.03814
0.05817 0.05139 -0.22023
-0.05074 0.04396 -0.22660
0.06734 0.00754 -0.05125
-0.01221 0.01401 -0.09173
0.02764 0.06069 -0.24555
-0.03232 0.05753 -0.23380
-0.05131 0.04677 -0.19660
0.03492 0.01057 -0.01667
-0.01587 0.07766 -0.21818
0.01201 0.05631 -0.20968
0.08123 -0.02103 0.04535
-0.03038 0.02657 -0.10315
0.04524 -0.05339 0.15315
0.04989 -0.03260 0.08822
-0.03101 -0.01769 0.01858
0.07161 -0.04754 0.13590
-0.02380 -0.01893 0.03820
0.08358 0.04229 -0.13651
-0.04713 -0.02727 0.05662
-0.05309 -0.01629 0.04277
0.07444 -0.06497 0.16944
-0.00928 -0.00699 -0.04327
-0.06424 -0.01626 0.03327
0.00923 0.00233 -0.06613
-0.00236 -0.02754 0.18945
-0.08111 -0.02319 0.04811
-0.05285 -0.00082 0.01448
-0.05512 -0.00508 0.01609
0.06690 -0.02907 0.07463
0.00829 0.01386 -0.10199
-0.06350 0.01367 -0.05897
0.02840 -0.03348 0.12453
0.08096 0.03459 -0.11213
0.02549 -0.02279 0.08041
0.01012 0.00230 -0.06443
-0.04753 -0.00923 -0.00451
0.02216 -0.00709 0.00920
-0.04951 -0.07524 0.23019
-0.07850 -0.05938 0.15728
-0.07699 -0.05036 0.13943
0.07444 -0.06241 0.16544
0.04189 -0.08089 0.24800
0.07430 -0.00891 -0.00137
0.02978 0.00060 -0.03391
0.04285 -0.00549 -0.01201
0.02744 -0.01820 0.05888
0.06540 -0.00442 -0.01490
0.07967 -0.06054 0.16362
0.08192 0.00423 -0.03505
0.01458 -0.04426 0.60217
0.04423 -0.07055 0.19634
0.07586 -0.01205 0.00205
0.07642 -0.00298 -0.02188
0.01248 0.01357 -0.03328
0.08185 0.03875 -0.13341
0.04063 -0.00142 -0.03123
0.06881 -0.00521 -0.01752
-0.00169 0.02685 -0.15186
0.06276 -0.00475 -0.00990
-0.08099 -0.03808 0.11402
0.02190 -0.02233 0.06006
0.01715 0.01847 -0.03952
0.06863 -0.00693 -0.00938
0.07140 -0.01839 0.02430
-0.07732 -0.06447 0.16732
0.06573 0.00972 -0.05899
0.06898 -0.01572 0.01994
0.03144 0.00244 -0.04088
0.01399 0.01586 -0.03169
0.08692 0.00724 -0.01891
0.04037 0.00525 -0.05240
-0.00897 -0.01449 0.06418
0.04846 -0.01204 0.04501
-0.10572 0.01305 -0.01579
-0.07682 -0.01391 0.01043
-0.08164 -0.02859 0.05883
0.03088 0.01494 -0.01729
0.08725 0.00877 -0.02500
0.04959 -0.06433 0.18204
-0.03104 -0.03054 -0.05404
0.07181 0.01188 -0.06738
-0.06071 -0.04933 0.14360
-0.07006 -0.03274 0.08869
0.01150 -0.02461 -0.12144
0.07542 0.01046 -0.06275
-0.04336 -0.07819 0.21032
-0.02291 -0.06424 0.17914
0.01695 0.02225 -0.05606
-0.02857 -0.06484 0.19888
0.08498 -0.05449 0.15422
-0.02842 -0.02633 0.04911
0.06905 -0.02458 0.05134
0.08278 0.03278 -0.10901
-0.06561 -0.02180 0.05266
0.02386 0.04341 -0.13661
-0.07714 0.03441 -0.14492
-0.08008 0.01934 -0.08952
0.05664 -0.01909 0.05536
-0.02914 -0.01338 -0.04470
-0.04483 -0.05763 0.17158
-0.05711 0.03971 -0.17002
-0.00107 0.04812 -0.19766
0.01042 0.01949 -0.11415
-0.07948 0.00972 -0.06554
0.06380 0.01189 -0.06476
0.08593 -0.05263 0.16093
-0.02718 0.01934 -0.07598
0.08182 0.03017 -0.10138
-0.08148 0.03204 -0.12054
0.02381 -0.01296 0.06457
-0.08066 0.01836 -0.08567
0.00572 0.01161 -0.07562
0.02572 0.05284 -0.17070
-0.07159 0.01263 -0.06960
0.07943 -0.04576 0.12401
0.06618 0.03568 -0.12846
-0.02797 -0.01643 0.02024
0.03556 -0.01333 0.00173
0.01658 0.04217 -0.18811
0.03508 -0.03283 0.06504
-0.07240 -0.01390 0.01139
0.05102 -0.03036 -0.03081
0.04384 -0.04521 0.14274
0.08249 0.04057 -0.13218
-0.07233 -0.00725 -0.01283
0.08646 -0.00123 -0.01651
-0.03618 -0.02038 0.02327
0.08735 0.00393 -0.02041
0.07092 0.00896 -0.18027
0.02203 -0.01297 0.04912
0.26594 0.11050 0.23208
-0.02867 -0.06076 0.17007
0.02521 0.00750 -0.27502
0.26113 0.12703 0.17335
0.03093 0.00204 -0.26682
0.02916 -0.03969 0.10952
0.03588 -0.05262 0.16840
0.24993 0.10465 0.21868
-0.00559 -0.04908 0.24879
0.24851 0.10644 0.18363
0.06841 0.03924 -0.20656
0.24747 0.12376 0.19038
0.01339 -0.05111 0.23623
0.23918 0.11024 0.19576
0.25303 0.12464 0.17895
0.25779 0.12049 0.17827
0.26351 0.10426 0.23843
0.06905 -0.03559 0.08829
0.01266 -0.05315 0.22728
0.23844 0.10087 0.21495
0.01630 -0.05278 0.32197
0.25564 0.13789 0.18379
0.24858 0.11963 0.20407
0.04800 -0.03893 0.09504
0.25927 0.11370 0.22708
0.05686 -0.02489 0.03697
0.03124 -0.04582 0.12453
0.26011 0.13792 0.15386
0.27782 0.15019 0.17081
0.07593 -0.01461 0.00295
-0.03793 -0.05256 0.12147
0.00346 -0.03962 0.28495
0.10346 0.02034 -0.10549
0.26746 0.15145 0.15923
0.02333 -0.06838 0.42577
0.26765 0.14646 0.17163
-0.00114 -0.04156 0.26490
0.25909 0.13792 0.17733
-0.09039 0.01831 -0.07389
-0.02752 -0.03928 0.09703
0.09265 0.06226 -0.15630
0.04670 0.02355 -0.24515
0.24775 0.12637 0.18642
0.24478 0.11193 0.19448
0.02581 -0.04843 0.09478
0.06979 -0.05025 0.19123
0.09206 0.06319 -0.16316
-0.03830 -0.03696 0.08054
-0.01248 -0.05890 0.37521
0.00612 -0.02925 0.23406
0.07936 -0.06410 0.16712
0.02425 -0.01569 0.03297
0.08503 0.06131 -0.17719
0.07791 -0.02240 0.04459
0.25526 0.15162 0.12083
0.25841 0.12356 0.21093
0.09856 0.06604 -0.15784
-0.09171 0.02763 -0.09416
0.02260 -0.01206 0.01327
0.00585 -0.03929 0.21916
-0.08630 0.03575 -0.13570
0.05445 0.04879 -0.21498
0.08076 0.06360 -0.19539
-0.07740 -0.02631 0.04833
0.06249 -0.01869 0.06626
-0.05115 -0.03731 0.10653
-0.04567 -0.03089 0.06784
0.09526 0.06331 -0.14783
0.07494 -0.03592 0.09785
0.04065 -0.05347 0.05017
0.05919 0.05752 -0.23545
0.08679 0.06421 -0.17749
0.06986 0.06149 -0.21370
0.03956 -0.01660 0.01228
0.09615 0.06770 -0.16311
0.07136 -0.02778 0.08317
0.08903 0.04663 -0.13388
0.08373 -0.06068 0.16311
0.03725 0.00161 -0.04291
-0.01246 0.08643 -0.24933
0.03768 0.05018 -0.23283
0.09121 0.06345 -0.16686
0.04470 0.08644 -0.27384
0.03956 -0.01773 0.01937
0.05015 -0.04849 0.13288
0.04576 0.00237 -0.03375
-0.01169 0.09000 -0.24537
0.08625 0.06865 -0.18960
0.05678 0.05171 -0.21909
-0.07995 -0.06126 0.15629
0.08081 0.06623 -0.19763
-0.00349 -0.02358 0.06389
-0.01634 0.08813 -0.24868
-0.01722 -0.05333 0.31901
0.05588 0.08016 -0.25116
-0.04561 -0.00792 -0.00974
0.04537 -0.00647 -0.01452
-0.07794 0.03741 -0.15726
-0.03655 0.06809 -0.25440
0.05038 0.04775 -0.21012
-0.07833 0.03333 -0.13056
0.05998 -0.02423 0.08970
0.04567 0.08822 -0.27540
-0.02805 -0.07769 0.19245
0.05132 0.04990 -0.21376
0.06815 0.05902 -0.21287
0.04712 0.04501 -0.18582
0.04652 0.08652 -0.27224
0.08435 -0.04088 0.11969
0.01846 0.02932 -0.04546
0.09246 0.06621 -0.16781
0.04243 0.00077 -0.03464
0.07319 -0.02724 0.04963
0.06991 0.05902 -0.20257
0.07089 0.05336 -0.20100
-0.02596 0.08476 -0.26084
0.04811 0.04267 -0.23307
-0.08218 0.02858 -0.11010
0.07151 -0.03415 0.10749
-0.07771 0.03875 -0.13893
0.05605 0.03730 -0.15723
-0.07747 0.03684 -0.15246
0.07430 0.00808 0.12016
0.00799 0.08579 -0.25139
0.07151 0.01452 -0.02484
-0.01018 0.08965 -0.24611
-0.09135 -0.04732 0.16754
0.06991 0.00254 0.01025
0.02808 0.06362 -0.24875
0.00319 0.07878 -0.22205
0.04553 0.08940 -0.27165
0.06232 -0.00157 -0.01828
0.05730 0.00932 -0.03830
-0.01493 0.09189 -0.25973
0.05167 0.05146 -0.21567
0.03220 0.05065 -0.23537
0.02535 0.06478 -0.24255
0.04925 0.05000 -0.21710
0.10263 0.06691 -0.15164
-0.01179 0.08179 -0.22264
0.06671 0.05189 -0.20702
0.15763 0.12853 -0.05196
-0.08901 0.03757 -0.12603
0.06074 0.05853 -0.23709
0.05294 0.08042 -0.25225
0.05542 0.06735 -0.24643
0.05824 0.06264 -0.23915
-0.02443 0.08779 -0.25891
0.18743 0.14187 -0.01531
0.05782 0.05456 -0.22912
-0.08336 -0.02296 0.04096
0.06823 0.05491 -0.20208
-0.01071 0.04846 -0.18655
-0.05223 -0.00749 0.02492
0.06046 -0.00475 -0.00346
0.06523 0.02788 -0.15958
0.08848 0.06647 -0.17633
0.07924 0.05841 -0.18378
-0.00586 0.08923 -0.25590
-0.06388 -0.06116 0.16529
0.07209 0.05640 -0.17839
0.02962 -0.04259 0.11106
0.05436 0.07915 -0.24914
-0.01708 0.08972 -0.24170
0.05818 0.05241 -0.22160
-0.04699 0.04271 -0.15518
-0.01679 0.08952 -0.25305
0.06143 0.01529 -0.06907
0.01655 0.07282 -0.24584
0.05934 0.05635 -0.23684
0.05386 0.07627 -0.25796
-0.03172 0.06194 -0.24198
0.09142 0.05772 -0.16127
0.03692 0.05335 -0.23420
0.03742 0.05171 -0.23339
-0.00983 0.08963 -0.25403
-0.04040 -0.02662 0.03957
0.02824 0.05812 -0.24334
0.04474 0.05684 -0.21155
-0.08183 0.03334 -0.12323
0.06395 0.02646 -0.16474
0.05312 0.07793 -0.25272
0.05155 0.07916 -0.25012
0.08709 0.05652 -0.16007
0.05346 0.04982 -0.21702
0.04838 0.08494 -0.27501
0.02746 0.02300 -0.02235
0.02019 0.00165 -0.06363
0.02546 0.05165 -0.16709
-0.02697 0.08422 -0.26141
0.05534 0.07629 -0.25368
-0.01212 0.08991 -0.25793
0.08166 0.05107 -0.16689
0.07110 0.03708 -0.14919
0.07044 0.05767 -0.20810
0.05187 0.04907 -0.22126
0.03733 0.05117 -0.23638
0.06172 -0.00706 -0.00093
0.06994 0.06298 -0.21625
0.04927 0.07837 -0.26303
-0.01300 0.09314 -0.26001
0.01251 0.07605 -0.24051
0.04418 0.04639 -0.19609
0.07233 0.03481 -0.14334
0.08649 0.06168 -0.17259
0.06817 0.04994 -0.18975
0.01475 0.01385 -0.03402
-0.01944 0.00508 0.00166
0.02389 0.01737 -0.06017
0.05576 0.01458 -0.04019
0.08334 0.03067 -0.09789
-0.07627 0.03437 -0.14310
0.00018 0.00199 -0.32711
0.04541 0.04906 -0.20127
-0.01680 0.09219 -0.25986
0.04729 0.05659 -0.21077
-0.00720 0.08367 -0.22850
-0.03763 0.05645 -0.24082
0.01478 0.09811 -0.26883
0.08435 0.05180 -0.15922
0.02372 0.01821 -0.06727
-0.01416 -0.00859 -0.03144
-0.06605 0.04623 -0.19975
-0.01768 0.08864 -0.24499
0.06808 0.05429 -0.20072
-0.05767 -0.05237 0.14446
-0.07996 0.02723 -0.09536
0.00852 0.08510 -0.24258
0.05713 0.04896 -0.20584
0.05924 0.05433 -0.22948
0.05922 0.01564 -0.06607
0.02104 0.02887 -0.05674
-0.08109 0.03074 -0.11585
0.01413 0.09837 -0.26975
0.08538 0.05455 -0.16207
-0.01048 0.08765 -0.25359
0.05993 0.06136 -0.23938
0.02796 0.05375 -0.17506
-0.07302 0.03517 -0.13794
0.06549 0.04134 -0.15115
0.05997 -0.00201 -0.00027
0.06992 0.05261 -0.19442
-0.03663 0.05017 -0.17300
0.05282 0.05224 -0.21939
0.00049 0.07827 -0.21893
0.00905 0.03549 -0.15924
0.08326 0.06355 -0.18819
-0.07844 0.03086 -0.10907
0.03264 0.05575 -0.23693
0.07020 0.03729 -0.13817
0.05195 0.08133 -0.26454
0.05620 0.04854 -0.22215
0.07433 0.05220 -0.18975
-0.02812 0.08492 -0.26469
-0.07520 0.03457 -0.13191
-0.03014 -0.04147 0.09346
0.03819 -0.06352 0.16605
0.03988 -0.02289 0.03229
0.06336 -0.05206 0.16918
0.03901 -0.00906 -0.01200
-0.07550 -0.04308 0.12027
-0.02811 -0.04859 0.13900
0.06633 0.01740 -0.07997
-0.07470 -0.01965 0.02737
0.02197 -0.05802 0.36362
-0.01300 -0.04140 0.25792
0.00748 -0.03323 0.24256
-0.01816 -0.01998 0.02685
0.08522 0.03811 -0.11849
-0.00657 -0.04082 0.26822
-0.01803 -0.02880 0.05435
0.09398 0.03291 -0.07218
-0.04998 -0.02650 0.05063
0.05483 -0.03036 0.08814
-0.00361 0.03909 -0.21142
0.07195 -0.08543 0.39108
0.00813 -0.05083 0.24277
0.00412 -0.05090 0.25355
-0.01421 -0.04956 0.22835
-0.07832 -0.03689 0.09500
-0.10289 0.01098 -0.04884
0.00774 -0.05497 0.25298
-0.01581 -0.04092 0.16672
-0.02361 -0.08615 0.54358
-0.06689 -0.02765 0.06912
-0.01125 -0.04655 0.24642
-0.04358 -0.03718 0.08965
-0.00375 -0.02143 0.07147
-0.00463 -0.04274 0.26396
-0.01641 -0.04495 0.17921
-0.08642 0.03589 -0.13944
-0.02100 -0.04323 0.15785
-0.10410 0.01150 -0.03651
-0.09689 0.04511 -0.13335
-0.02460 -0.04164 0.13866
-0.01115 -0.05140 0.20870
-0.10364 0.01400 -0.03440
-0.10568 0.01244 -0.02178
0.03680 -0.04575 0.10373
-0.10558 0.01504 -0.01977
0.06336 -0.03623 0.13624
0.07315 -0.05336 0.14238
-0.03619 -0.03068 0.05119
0.00681 -0.00348 -0.05864
-0.08690 -0.00845 0.00478
0.06585 -0.02614 0.09407
-0.10286 0.00960 -0.04438
0.16564 -0.01853 0.35953
-0.11509 0.01429 0.02003
0.00911 -0.05740 0.24707
0.02095 -0.04451 0.32758
-0.10569 0.01547 -0.01177
-0.02624 -0.05791 0.18573
0.06298 -0.02780 0.05007
0.06415 -0.02334 0.05842
-0.02128 -0.07854 0.22265
-0.08200 0.03665 -0.15719
-0.08952 0.01068 -0.05028
0.00853 -0.00479 -0.06022
-0.09417 0.05084 -0.15364
-0.09365 0.04659 -0.14296
0.06323 -0.02171 0.06465
0.06127 -0.05529 0.15896
0.07352 -0.00042 -0.02978
0.00993 0.00517 -0.05988
-0.02365 -0.03833 0.18342
0.01614 -0.01435 0.00806
0.08438 0.01122 -0.05086
-0.07829 0.03526 -0.16050
-0.02168 -0.07656 0.24014
0.08144 0.04929 -0.15907
-0.08835 0.03867 -0.13817
-0.00790 0.00373 -0.03569
-0.09595 0.04256 -0.12920
-0.08899 0.01653 -0.06196
-0.01811 -0.01493 -0.01643
-0.06640 0.03429 -0.15986
-0.06961 -0.01344 0.01316
-0.01680 0.00658 -0.01393
0.01517 -0.01739 0.02924
0.07282 -0.01337 0.00810
-0.09683 0.04362 -0.13154
-0.05269 0.04557 -0.17285
-0.07310 -0.00378 0.12768
0.01085 0.00822 -0.04671
0.04415 0.01815 -0.24209
0.04682 -0.01757 0.02370
-0.06322 -0.00965 0.01660
-0.08043 0.03274 -0.13092
-0.06235 0.03799 -0.09544
-0.06987 0.01337 -0.06557
-0.07244 0.00928 -0.05590
-0.02363 -0.00639 -0.08319
-0.07189 0.03628 -0.12929
-0.04936 0.05575 -0.18117
-0.08579 0.03561 -0.12279
-0.08550 0.04670 -0.16239
-0.07124 -0.00530 -0.01808
-0.07721 0.04251 -0.17461
-0.02298 0.03171 -0.09842
-0.07327 0.03449 -0.12665
-0.05049 0.04167 -0.14201
-0.07983 0.03723 -0.15988
-0.05935 0.04873 -0.21321
-0.06595 -0.01142 0.01765
-0.06197 0.00106 -0.01775
-0.07730 0.00785 -0.04951
-0.02980 0.04971 -0.21419
-0.08843 0.02930 -0.09919
-0.06526 -0.00793 0.00598
-0.04785 0.00260 -0.03709
-0.08701 0.04282 -0.14413
0.06110 -0.01246 0.02597
-0.05364 0.04399 -0.14045
-0.05983 0.04158 -0.12161
-0.05430 0.01639 -0.06023
-0.03653 0.00873 -0.07022
-0.08681 0.02523 -0.09453
-0.07022 0.01106 -0.06357
0.00479 0.06389 -0.21237
-0.06867 -0.00048 -0.03069
-0.06653 0.00000 -0.05814
-0.08674 0.03132 -0.11305
-0.05888 0.01274 -0.05029
-0.04160 0.04087 -0.16128
0.03166 -0.01013 -0.00734
0.04208 0.00478 -0.04661
0.05563 0.03590 -0.14886
-0.04331 0.04310 -0.18418
-0.05526 0.01353 -0.05341
0.06458 -0.00005 -0.02886
-0.07737 0.03351 -0.12359
0.07054 0.03708 -0.12696
-0.07449 0.03210 -0.12153
0.04038 -0.00075 -0.02445
-0.07623 0.03983 -0.16052
-0.06937 0.03470 -0.12448
-0.03243 0.01146 -0.05935
-0.08088 0.02437 -0.10173
-0.00598 0.03111 -0.16504
-0.05787 0.01812 -0.05819
-0.06190 0.00894 -0.03946
0.06592 0.03539 -0.12995
-0.07006 -0.00879 -0.00384
-0.00180 0.04133 -0.18637
-0.06225 0.03370 -0.15753
-0.04212 -0.05637 0.05216
-0.05136 0.02604 -0.09259
-0.03412 0.05176 -0.18802
-0.03777 0.00821 -0.07606
-0.06196 -0.00743 0.03670
-0.03449 0.01323 -0.06885
-0.06710 0.01370 -0.06357
-0.08132 0.03408 -0.11509
0.01893 0.03209 -0.09763
-0.02285 0.03569 -0.19181
-0.08173 0.02357 -0.09606
0.02826 0.03689 -0.12999
-0.02347 0.04425 -0.20276
0.04028 0.04660 -0.16699
0.06575 0.03339 -0.13008
-0.05565 0.01936 -0.06932
-0.06423 0.00981 -0.04875
-0.00369 0.04244 -0.18355
-0.07711 0.04775 -0.17669
-0.03622 0.04160 -0.15294
-0.01496 0.03170 -0.16560
-0.05881 0.03678 -0.17904
-0.06336 0.01600 -0.06427
-0.03622 0.01426 -0.06908
-0.02207 -0.00911 0.01057
0.06993 0.04008 -0.13808
0.06637 0.02846 -0.10665
-0.06418 0.00860 0.02209
-0.09838 -0.01274 0.13676
-0.05764 0.03089 -0.13916
-0.04750 0.04068 -0.14363
-0.02894 0.00977 -0.05653
-0.01521 0.05015 -0.18622
-0.06700 0.01066 -0.06317
-0.06249 0.04068 -0.09578
-0.07288 0.00533 -0.04823
0.03632 0.00542 -0.05208
-0.06107 0.02099 -0.07748
0.00019 0.03275 -0.16641
0.04935 -0.07196 0.19771
0.03597 -0.06790 0.19918
-0.08637 0.01988 -0.08415
-0.09096 0.03250 -0.11096
-0.01775 0.03615 -0.17944
-0.06832 -0.04308 0.12267
0.07288 -0.05820 0.16247
-0.02379 -0.03140 0.09645
-0.04433 0.00037 -0.03743
-0.05850 -0.01734 0.04816
-0.02434 -0.02683 0.09118
-0.03666 -0.07701 0.18153
-0.04904 -0.02472 0.05444
0.07382 0.01803 -0.08262
-0.09339 -0.00470 0.01958
-0.08046 -0.03459 0.09273
0.02934 -0.05187 0.14889
0.01909 -0.04271 0.14226
-0.00797 -0.02615 0.10846
0.01840 -0.05210 0.19586
0.03045 -0.02956 0.10357
-0.08683 0.02724 -0.10222
-0.08247 0.03767 -0.15879
0.05707 -0.05363 0.15306
-0.04312 0.04044 -0.15627
-0.03863 0.02255 -0.08986
-0.08416 0.02707 -0.10262
0.03808 -0.00365 -0.03049
0.01487 -0.05528 0.24178
0.00606 -0.04251 0.17279
-0.00458 -0.05529 0.23615
0.01715 -0.06861 0.38004
0.02884 -0.03890 0.09208
-0.05319 -0.01730 0.04906
-0.00637 -0.07912 0.23408
0.00894 -0.04504 0.22283
0.00548 -0.06817 0.24045
-0.00417 -0.06813 0.23468
0.00726 -0.06309 0.24270
0.00110 -0.07041 0.24046
0.07107 -0.05227 0.14070
-0.04103 -0.05882 0.16227
-0.03845 -0.06483 0.17816
-0.09052 -0.00432 0.00466
0.00487 -0.07274 0.23820
-0.00528 -0.07402 0.23268
-0.05847 0.00029 0.00651
0.07114 -0.03319 0.08414
-0.00215 -0.08017 0.23035
0.00315 -0.05958 0.23762
0.04242 -0.01719 0.01511
-0.07523 -0.05855 0.17045
-0.07681 -0.02747 0.05529
-0.05582 -0.01375 0.03789
-0.00805 -0.08516 0.22893
0.06626 -0.03141 0.08696
0.02214 -0.01150 0.01983
-0.03764 -0.04759 0.10669
0.03850 -0.04426 0.10974
-0.08278 0.00539 -0.05687
-0.00430 -0.08373 0.23765
0.08523 0.00668 -0.04470
-0.03221 0.05298 -0.17229
-0.07451 -0.01403 0.00620
-0.03702 -0.07396 0.19398
0.05495 0.00688 -0.04410
-0.05749 -0.01048 0.02720
0.06132 -0.01497 0.04775
0.06003 -0.00061 -0.01359
0.00916 0.04032 0.04957
0.08305 0.04520 -0.13703
-0.07776 -0.00775 -0.01209
0.05882 0.01447 -0.05759
-0.04321 -0.01447 0.00514
0.06271 -0.01270 0.02353
-0.07775 -0.00377 -0.02476
-0.02018 0.01058 -0.02932
-0.02086 -0.06748 0.20555
0.03557 -0.00065 -0.03365
0.06890 -0.04508 0.13502
0.06621 -0.02156 0.04676
0.07090 -0.02980 0.06673
-0.04276 -0.01018 -0.00742
-0.06033 -0.02046 0.06187
0.07437 0.02118 -0.08928
-0.07927 -0.02940 0.06298
-0.00835 -0.00271 -0.04396
0.06681 -0.02700 0.07331
0.08741 0.00544 -0.03599
-0.03429 -0.00403 0.02654
-0.07822 0.03384 -0.12422
0.01262 -0.04018 0.24474
0.08523 0.02494 -0.08577
0.02646 0.04530 -0.14666
0.07738 0.03405 -0.12367
0.04044 -0.07293 0.20395
-0.02893 -0.07608 0.20609
0.02545 -0.02517 0.07951
0.25291 0.10700 0.23543
0.02422 -0.02004 0.06938
0.00056 -0.02686 0.12037
0.03554 -0.05286 0.16771
0.07827 -0.02239 0.04495
-0.06689 -0.04996 0.15492
0.00238 -0.01496 0.00443
-0.10942 0.03030 -0.16002
-0.08293 -0.00548 0.00066
0.04548 -0.06178 0.16629
0.02191 -0.00862 0.01182
0.03036 -0.04786 0.24588
0.04657 -0.05868 0.16789
0.02916 -0.04493 0.27791
0.07840 -0.04806 0.13436
0.03674 -0.05114 0.13610
0.03913 -0.03082 0.05355
0.06788 -0.02126 0.04210
0.00189 -0.03655 0.20334
0.04067 -0.04946 0.29327
0.02066 -0.00937 0.05198
0.03509 -0.02241 0.09799
-0.08041 -0.02619 0.05217
0.01998 -0.01446 0.05256
0.03867 -0.03657 0.08716
-0.06652 -0.03460 0.09153
0.07867 -0.02017 0.03825
-0.07407 -0.02270 0.04247
0.05347 0.00324 0.10703
-0.01183 -0.00745 0.01596
-0.02868 -0.04895 0.12483
0.03882 -0.02735 0.04139
0.07013 0.00234 -0.04006
0.00729 -0.00060 -0.05218
0.08125 -0.03259 0.14161
0.03310 -0.05320 0.11344
0.07146 -0.02740 0.05995
0.03084 -0.01631 0.01546
-0.09301 0.04637 -0.14238
0.03593 -0.01915 0.01727
0.02888 -0.04825 0.27959
-0.04310 -0.03469 0.08449
0.00401 -0.01081 -0.02379
0.04480 -0.02561 0.04151
0.03958 -0.01346 0.00390
0.06686 -0.01702 0.02559
0.07433 -0.02856 0.05947
0.08827 0.00981 -0.03498
-0.10000 0.06502 -0.16865
0.02663 -0.00349 -0.01660
0.02712 0.00301 -0.03109
-0.07772 -0.02278 0.04478
-0.09341 0.05431 -0.16224
0.02675 -0.00629 -0.00910
-0.00970 -0.00863 0.00740
0.03914 -0.02857 0.04575
0.04207 -0.06424 0.18715
0.06213 0.00711 -0.04150
-0.05942 -0.02799 -0.05451
-0.08935 0.04553 -0.14797
-0.08044 -0.02091 0.03652
0.06295 0.00174 -0.02438
0.02631 -0.05067 0.25097
0.08085 -0.04389 0.17863
-0.07442 -0.03362 0.07845
-0.08138 -0.03886 0.10924
-0.06784 -0.03210 0.08355
-0.02830 -0.04214 0.24823
0.00204 -0.04157 0.23645
-0.04101 -0.04698 0.12119
-0.02932 -0.05783 0.16682
-0.09157 0.04304 -0.13864
-0.04023 -0.00384 -0.02457
0.03374 -0.02492 0.03816
-0.07801 -0.01578 0.16170
-0.04008 -0.00659 -0.01631
0.03857 -0.00101 -0.03278
-0.09471 0.06237 -0.17512
-0.08738 0.04988 -0.16483
-0.08619 0.04830 -0.16252
0.09043 0.00661 -0.01397
-0.08921 0.05109 -0.16343
-0.09080 0.07870 -0.23177
-0.09066 0.04088 -0.13432
-0.08619 0.04825 -0.15923
-0.07664 -0.01571 0.01832
-0.08945 0.03745 -0.12717
0.08753 0.00732 -0.02131
-0.10033 0.05366 -0.17122
-0.03947 -0.01504 0.00710
-0.04798 -0.01184 0.00908
-0.09059 0.03961 -0.13110
0.06167 0.00974 -0.04996
0.08957 0.00732 -0.02178
-0.03082 -0.02887 0.05585
-0.03694 0.00174 -0.03975
-0.05170 -0.01968 0.03238
-0.06471 -0.02549 0.07787
-0.04391 -0.02435 0.03940
-0.04319 -0.00575 -0.02119
-0.02396 -0.01271 0.02734
-0.08705 0.00645 -0.04045
-0.09050 0.01831 -0.07207
-0.06375 -0.02154 0.05302
0.07367 0.03445 -0.12406
-0.08624 0.00362 -0.03231
-0.04075 -0.01168 -0.00531
0.03265 -0.02778 0.05253
0.04279 -0.02190 0.02814
0.03350 -0.01623 0.01229
0.04151 -0.01488 0.00233
0.07053 -0.00849 -0.00812
-0.03001 -0.04413 0.09537
-0.00171 -0.02621 -0.21379
0.02195 -0.01165 0.07291
-0.03563 -0.03296 0.06290
-0.00241 -0.01510 -0.00362
0.00870 0.01488 0.05337
0.02899 -0.03507 0.08872
0.04905 -0.06821 0.19810
0.15075 -0.04823 0.23531
0.04713 -0.04303 0.10884
-0.07588 -0.05180 0.14710
-0.04609 -0.03673 0.10912
0.04715 -0.04928 0.13557
0.08006 -0.01000 0.06591
0.02851 -0.05384 0.32821
-0.02177 -0.02467 0.01034
-0.04866 -0.00514 -0.01184
-0.03658 -0.06223 0.16580
0.02546 -0.02295 0.07816
0.04901 -0.03802 0.09722
-0.05248 -0.01956 0.05370
0.27024 0.13387 0.18449
0.07323 -0.00952 0.02751
0.00425 0.01538 0.05416
-0.07627 -0.01914 0.03888
-0.04796 -0.02967 0.09330
0.13857 -0.05111 0.23847
-0.07655 -0.01398 -0.02861
-0.05404 -0.00607 0.00419
0.03303 -0.03130 0.06492
-0.04574 -0.02565 0.04876
-0.04172 -0.03696 0.08579
-0.08034 -0.00761 -0.00929
0.02978 -0.02832 0.05467
0.07183 -0.04836 0.15056
0.06991 -0.03968 0.12206
-0.00580 0.00428 0.04034
-0.07692 -0.04843 0.13206
0.07595 -0.05825 0.15983
-0.03119 -0.06719 0.18368
-0.03844 -0.02825 0.04677
0.07343 -0.04964 0.15967
0.06311 -0.00558 -0.00569
-0.00583 -0.03392 0.19135
0.03050 -0.01359 0.00710
0.00478 -0.03690 0.25251
-0.04569 -0.02761 0.04996
-0.00208 0.00464 0.05807
-0.04503 -0.02837 0.05619
-0.03166 -0.06347 0.17092
0.07403 -0.01659 0.02286
-0.04536 -0.01242 0.00241
-0.03880 -0.02701 0.04244
-0.02481 -0.01976 0.01510
-0.01311 -0.02716 -0.07658
-0.05392 -0.00464 0.00095
0.08333 -0.01344 0.04495
-0.08266 -0.02113 0.04276
0.01034 -0.02218 0.20922
-0.01941 -0.00958 -0.00444
-0.04258 -0.04498 0.13845
-0.07479 -0.00366 -0.02311
0.08710 0.01505 -0.05473
0.07633 -0.02643 0.05244
0.02726 -0.02597 0.06167
0.00262 -0.01585 0.00973
0.11929 0.04899 -0.04107
-0.08030 -0.00171 -0.02741
-0.02497 -0.03234 0.08839
0.03135 -0.04585 0.13297
0.03693 -0.05453 0.14786
-0.04263 -0.02112 0.08567
-0.05405 -0.00404 0.03837
-0.04856 0.00065 -0.03532
0.02781 -0.00878 0.00071
-0.07198 -0.01197 0.00641
0.00310 -0.01337 -0.01021
0.00280 -0.02177 0.17241
0.13850 -0.04681 0.23952
-0.03844 -0.06566 0.17879
-0.08762 0.01283 -0.06939
-0.04334 -0.06037 0.01232
-0.04986 -0.03425 0.09439
-0.03571 -0.03177 0.05917
-0.06861 -0.01066 0.00819
-0.08459 -0.02048 0.06572
0.01212 -0.04488 0.24711
0.00344 -0.02099 0.27647
-0.07736 -0.05521 0.16223
0.02827 -0.02275 0.32821
-0.00067 0.07142 0.15707
-0.01419 0.00844 -0.02715
-0.02702 -0.01838 -0.01138
0.04668 0.04094 -0.14173
-0.00590 0.00875 0.04592
0.00362 -0.02001 -0.00072
-0.02295 -0.02789 0.08417
-0.01187 -0.03165 0.12025
0.00776 -0.00780 -0.01437
0.20248 0.08413 0.38338
-0.00076 -0.02930 0.19359
-0.05359 -0.00684 0.03791
0.07479 -0.01184 -0.01246
-0.06913 -0.01330 0.01470
0.06383 -0.00087 -0.02860
0.04571 -0.05436 0.19130
-0.01271 -0.00334 0.02869
-0.01779 0.00860 -0.02822
-0.01227 0.01101 -0.02755
-0.04899 -0.01950 0.03425
0.07576 0.03159 -0.15670
-0.02315 -0.01624 0.03381
0.07402 -0.04745 0.12928
-0.02264 -0.01071 0.01671
-0.03373 -0.06027 0.16022
0.08514 0.01625 -0.06345
-0.00689 -0.01257 0.00000
-0.02002 0.00081 -0.04037
-0.07933 -0.05125 0.13810
-0.07668 -0.03125 0.05509
0.06592 -0.02434 0.06301
-0.04294 -0.01861 0.01745
0.03374 -0.01988 0.02174
-0.02751 -0.03582 0.08803
-0.03978 -0.01386 0.00162
0.03907 -0.00973 -0.00901
-0.05623 0.00063 0.00744
-0.01733 -0.00199 0.02778
-0.06682 -0.00659 0.00311
0.00578 -0.06146 0.27775
-0.00311 -0.00859 -0.03289
-0.08718 0.04664 -0.15479
0.06305 -0.00132 -0.01706
-0.07769 -0.03898 0.06835
0.07731 0.02246 -0.10082
0.03901 -0.01223 -0.00076
-0.02819 -0.03936 0.08451
-0.05654 -0.00394 0.03912
-0.03044 -0.04478 0.09145
0.01266 0.00339 0.02606
0.04591 0.08684 -0.27513
0.06672 -0.01935 0.07136
-0.03048 -0.03363 0.07521
-0.06925 -0.00586 -0.00913
-0.08775 0.05841 -0.18846
-0.02548 -0.01505 0.01184
-0.08111 -0.04892 0.13771
-0.04424 -0.00066 -0.03422
-0.08236 0.06320 -0.20979
-0.00917 0.03430 -0.08967
-0.00074 -0.00997 -0.02071
-0.09184 0.04897 -0.15441
0.06375 0.00757 -0.04643
0.02228 0.00009 -0.00343
-0.04707 0.00569 -0.05005
0.09327 -0.01240 0.04833
-0.08476 0.05567 -0.19028
-0.08216 0.06687 -0.22097
-0.04380 0.00347 -0.04198
-0.08916 0.01579 -0.06597
0.06955 0.00667 -0.05273
0.06454 0.00536 -0.04247
0.07028 0.00534 -0.04750
0.04033 -0.04458 0.09919
0.07261 -0.05713 0.34186
0.07085 -0.02281 0.10204
0.07283 -0.00260 0.04523
0.08012 -0.04110 0.10641
-0.07278 -0.03015 0.06061
-0.02288 -0.00014 -0.04323
-0.00609 0.00797 -0.02518
-0.03982 -0.01224 -0.00104
0.03605 0.00375 0.00699
0.07187 0.00521 -0.07359
0.05171 -0.06871 0.19645
-0.01109 -0.01505 0.17054
-0.02001 0.00229 0.13018
-0.09555 0.02156 -0.06685
0.06554 -0.02948 0.09526
0.03349 -0.00770 -0.01477
-0.08103 -0.05373 0.15906
-0.13061 0.04574 0.34088
-0.13929 0.03704 0.32211
0.25230 0.12142 0.16027
-0.12586 0.02584 0.38873
-0.00266 -0.01523 0.00324
0.02136 -0.01362 0.04595
-0.13087 0.04821 0.32446
0.03142 -0.06866 0.19767
0.14656 0.07019 -0.07561
-0.11656 0.02301 0.39118
-0.13203 0.03834 0.36916
-0.14098 0.12877 0.12809
-0.04400 -0.04634 0.25259
0.14696 -0.05819 0.22003
-0.12415 0.04969 0.35060
0.32139 0.15517 0.17624
0.24522 0.12133 0.15666
0.14215 0.07121 -0.09374
-0.04540 -0.05084 0.24656
-0.13515 0.03955 0.34208
-0.13140 0.05509 0.30779
0.00122 -0.01062 0.11665
-0.11597 0.04400 0.33502
0.08205 -0.02707 0.07253
0.01117 -0.04434 0.22734
-0.00056 -0.05760 0.26658
0.11659 0.05425 -0.12520
-0.08701 -0.01649 0.05535
0.24937 0.15359 0.07085
-0.13072 0.05727 0.30125
0.11234 0.03913 -0.10343
0.14205 0.07313 -0.10011
-0.14211 0.03443 0.33652
0.26615 0.14034 0.14582
0.24538 0.12462 0.13788
-0.13774 0.03407 0.33846
-0.07544 -0.06204 0.16037
-0.12242 0.02926 0.37276
0.27850 0.14214 0.14773
0.02657 0.02623 -0.09738
0.08819 0.02828 -0.14427
0.02499 -0.01513 0.06841
-0.12358 0.03687 0.37829
0.03032 -0.03884 0.12258
0.00719 -0.04879 0.23948
-0.14752 0.03095 0.33115
0.23687 0.12535 0.12526
-0.00914 -0.02430 0.08821
-0.12024 0.04030 0.07808
-0.12964 0.03728 0.32142
0.05959 -0.02473 0.06710
0.25297 0.13380 0.13464
-0.13065 0.04878 0.30284
0.23111 0.14450 0.08175
-0.12233 0.04979 0.32890
0.12997 0.05243 -0.07398
-0.09610 0.04982 0.14302
-0.04863 -0.03133 0.09804
-0.13509 0.12137 0.16457
0.06343 -0.05721 0.15187
0.09791 0.02752 -0.08082
0.02811 -0.02806 0.09637
-0.15185 0.16639 0.48690
0.02606 0.00548 -0.04227
-0.12737 0.14468 -0.00671
-0.12423 0.04080 0.33710
-0.04810 -0.02643 0.09143
0.02919 -0.03185 0.11025
0.00136 -0.03183 0.18779
-0.11509 0.03637 0.37505
0.06609 -0.02646 0.09496
-0.00039 0.00084 0.09401
-0.12580 0.10807 0.16458
-0.12534 0.05302 0.33802
-0.13066 0.11497 0.21394
-0.13078 0.12926 0.12384
-0.08660 -0.01524 0.04745
0.15368 0.08412 -0.08843
0.03479 -0.05040 0.15070
-0.11572 0.03389 0.38278
0.33886 0.16038 0.18653
0.06822 -0.04694 0.11753
-0.13578 0.13079 0.14374
0.02153 -0.04956 0.24371
0.00290 -0.01165 0.12847
0.04421 -0.06557 0.17925
0.03423 -0.04769 0.14682
0.27627 0.14403 0.15206
-0.03954 -0.06749 0.19370
-0.12326 0.05673 0.29996
0.27253 0.13356 0.13828
-0.03089 -0.03879 0.08896
0.13692 0.07311 -0.10507
0.07406 -0.06239 0.16498
-0.12250 0.05277 0.32944
0.00216 0.00038 0.09501
0.28452 0.15355 0.16023
0.13764 0.07214 -0.10230
0.27359 0.13779 0.14859
0.00743 0.02154 0.05197
0.10151 0.03567 0.75893
0.00036 -0.04764 0.24370
-0.03759 -0.07768 0.19685
-0.12268 0.06297 0.28251
-0.00422 0.01241 0.04623
0.00410 -0.04722 0.24876
0.00035 -0.00076 0.10540
0.29080 0.14263 0.15490
-0.12723 0.05453 0.32353
-0.13122 0.05879 0.29369
0.00001 -0.05629 0.25414
0.02989 -0.06035 0.15396
0.01444 -0.04164 0.27116
-0.13124 0.06569 0.26703
-0.07609 -0.02194 0.03723
0.11130 0.03975 -0.10787
-0.09857 0.03837 -0.06472
-0.08426 -0.02530 0.04852
-0.13479 0.12206 0.15664
0.06850 -0.05945 0.16605
0.00303 -0.05411 0.24834
0.04398 -0.02805 0.04742
0.00085 0.01465 0.05175
-0.12795 0.09576 0.23501
-0.12313 0.06756 0.28527
0.24874 0.13528 0.11428
0.24345 0.12326 0.12122
-0.10646 0.03717 0.36278
0.03091 -0.03161 0.06832
0.31074 0.15264 0.17389
-0.04602 -0.03467 0.08879
0.33376 0.16312 0.18039
0.03763 -0.06397 0.16396
0.24281 0.11678 0.14222
0.24427 0.13363 0.12210
-0.02807 -0.03935 0.10872
-0.09365 0.00877 -0.03161
-0.12791 0.07816 0.24034
0.07411 -0.03966 0.10692
-0.07753 -0.05287 0.15297
-0.00213 -0.02066 0.15332
0.02843 -0.02841 0.07846
-0.08638 -0.01081 0.05415
0.30814 0.15659 0.17120
-0.13817 0.13781 0.13802
-0.08901 0.00869 0.10914
0.33439 0.16683 0.18907
0.04320 -0.02568 0.07667
0.14455 0.05481 -0.03573
-0.00339 -0.04380 0.23725
0.00360 -0.00249 0.13578
0.24996 0.15033 0.09351
0.24746 0.17596 0.02096
-0.08385 -0.01850 0.04831
0.00020 -0.04352 0.25598
-0.00116 -0.01741 0.15582
-0.00568 -0.03918 0.17234
0.25198 0.17260 0.03049
-0.00560 0.01442 0.05044
-0.12716 0.12202 0.15393
0.00095 0.02137 0.04555
0.00624 -0.01484 0.23084
0.09632 0.02456 -0.07371
-0.13585 0.13078 0.13202
0.02662 -0.03219 0.08403
-0.11899 0.03567 0.17332
-0.13447 0.14179 0.03781
0.01088 -0.04835 0.24118
-0.00325 -0.01207 -0.00775
0.06837 -0.01989 0.03942
0.13802 0.07467 -0.09079
-0.12800 0.13989 -0.00524
-0.13693 0.02897 0.35981
0.03685 -0.04600 0.10667
-0.03690 -0.03338 0.08064
0.08678 -0.00166 -0.00461
0.00136 -0.05194 0.23270
-0.09279 0.00007 -0.04839
-0.07374 -0.02178 0.03826
0.17986 0.10014 -0.00971
-0.13505 0.04279 0.33708
-0.13179 0.08302 0.22537
0.03059 -0.03634 0.08510
-0.05543 -0.01506 0.04651
-0.00456 -0.00861 -0.01164
-0.11732 0.03654 0.35839
0.00218 0.01436 0.06151
-0.09881 0.03483 -0.06601
-0.05037 -0.02231 0.06673
-0.04251 -0.03790 0.08575
-0.07397 -0.04994 0.12809
-0.03872 -0.03126 0.05949
-0.12764 0.04780 0.33119
-0.08347 -0.06850 -0.11359
0.03527 -0.03471 0.07144
-0.06664 -0.04203 0.12562
-0.13138 0.12902 0.03221
-0.07406 -0.02125 0.03195
0.06983 -0.04800 0.13082
0.03036 -0.00666 -0.01233
0.04441 -0.05541 0.14779
-0.12695 0.07606 0.26023
0.06625 -0.03369 0.10001
-0.08455 -0.02177 0.05108
-0.00390 -0.01085 -0.01256
-0.00281 0.02388 0.05116
-0.11966 0.03539 0.38054
-0.00114 -0.05130 0.25287
-0.12259 0.06156 0.30458
0.08857 -0.00722 0.02867
0.04118 -0.06820 0.17935
0.05281 -0.01996 0.04732
-0.01092 0.00847 -0.02610
-0.06445 -0.05702 0.18522
0.02654 -0.04342 0.20445
-0.11912 0.03254 0.41460
-0.07365 -0.05134 0.13699
0.10837 0.03848 -0.09583
0.06915 -0.02959 0.08433
-0.08216 -0.01582 0.03030
0.10370 0.06817 -0.12663
-0.03573 -0.05612 0.14091
-0.13032 0.14221 0.11325
0.06260 -0.02308 0.06426
-0.04397 -0.06018 0.17480
-0.06847 -0.04585 0.12705
-0.03562 -0.03145 0.06032
-0.09386 0.00193 -0.11725
0.13292 0.05760 -0.06887
0.08303 -0.00434 0.06097
-0.13235 0.13101 0.03005
0.07072 -0.03591 0.12505
-0.00616 -0.06264 0.24926
-0.13256 0.14688 0.09713
-0.04669 -0.03552 0.10189
0.14202 0.07203 -0.08797
0.02755 -0.02525 0.07001
-0.13267 0.11893 0.20896
-0.03706 -0.00100 -0.03241
0.07802 -0.03416 0.09051
-0.08873 0.04626 -0.15186
-0.00546 -0.03120 0.19026
-0.04277 -0.04857 0.13475
-0.00439 0.01118 0.03189
-0.01272 0.00640 -0.02348
0.02221 -0.01030 -0.22386
-0.04322 -0.03109 0.05749
0.07322 -0.05001 0.14032
-0.06521 -0.02611 0.05604
-0.04428 -0.02928 0.07606
0.09512 0.02618 -0.07495
0.08024 -0.02300 0.12030
-0.03470 -0.03523 0.07416
0.07338 -0.05601 0.15094
-0.07099 -0.01565 0.05619
0.03310 -0.05337 0.24465
-0.10187 0.08373 -0.03353
0.03097 -0.02713 0.04501
-0.08281 -0.01438 0.02554
0.04452 -0.08048 0.21499
0.04592 -0.02019 0.02687
0.08497 -0.02403 0.59919
-0.08567 0.07427 -0.23406
-0.04615 -0.00418 -0.02125
0.06616 -0.05577 0.15018
0.15424 -0.01304 0.54852
0.02671 0.00102 -0.02818
-0.13168 0.12811 0.13434
-0.02562 -0.03915 0.11214
-0.12645 0.03883 0.35716
-0.02528 -0.03840 0.12769
0.10960 0.01095 0.04233
0.24035 0.12277 0.12546
-0.04559 -0.03050 0.08415
0.03023 -0.04128 0.10172
0.02609 -0.02355 0.05122
-0.06370 -0.02186 0.06360
0.03985 -0.02554 0.03944
0.03705 -0.03445 0.06730
0.07597 -0.03509 0.10153
-0.07110 -0.01449 0.04377
-0.08088 -0.00567 0.06157
-0.03691 -0.07198 0.19331
-0.03071 -0.03489 0.07951
-0.09682 0.01128 -0.04080
-0.03455 -0.06555 0.18327
0.03982 -0.01740 0.01687
-0.04889 0.00515 -0.04543
0.06672 -0.01525 0.07654
0.36851 0.20004 0.28745
0.08248 -0.00186 0.01133
0.07824 -0.02758 0.08956
0.07866 -0.03286 0.10305
-0.01825 0.00886 -0.01500
-0.06284 -0.01581 0.04454
0.08988 -0.00034 0.03342
0.07067 -0.00701 -0.01164
0.09871 0.02987 -0.09399
-0.07638 -0.01861 0.02536
0.02099 -0.00339 0.01005
-0.00467 0.02810 -0.01090
0.04515 -0.05357 0.15004
0.04089 -0.03389 0.06862
-0.00702 0.01194 -0.03101
-0.07396 -0.01685 0.02315
-0.04198 -0.04505 0.11697
0.03836 -0.06151 0.17846
-0.04276 -0.00374 -0.02662
-0.08366 -0.01224 0.02489
0.02518 -0.00610 -0.00411
0.04529 -0.02895 0.05479
0.09747 0.02716 -0.07616
0.07670 -0.00044 -0.01613
-0.08467 -0.00754 -0.00052
0.03411 -0.02166 0.03193
-0.07075 -0.03772 0.10228
-0.04408 -0.01177 0.01406
0.03824 -0.05910 0.16355
-0.09261 0.02129 -0.02128
-0.09666 0.03265 -0.07225
-0.00898 0.01039 -0.02869
-0.07706 -0.01324 0.01041
0.06290 -0.00702 -0.00228
-0.00402 -0.01982 -0.00474
-0.03919 -0.01617 0.01152
0.07371 -0.01334 0.00896
-0.11038 0.09516 -0.03713
-0.05540 0.00482 0.05044
-0.09317 -0.00218 -0.02485
-0.04833 -0.01175 0.00138
-0.04611 -0.06368 0.05073
-0.08857 0.05160 -0.16749
-0.11762 0.05364 0.35448
-0.08440 -0.01725 0.04526
-0.01009 0.02619 -0.02023
0.08332 -0.02321 0.04985
0.07181 -0.04442 0.12067
-0.09504 0.02301 -0.04824
-0.09886 0.04917 0.13972
0.02989 -0.00911 -0.00881
-0.00228 -0.00686 -0.01269
0.04059 -0.02185 0.02732
-0.04453 -0.02083 0.02630
0.01437 -0.03812 0.26952
-0.04324 -0.02971 0.05399
0.07345 -0.04926 0.13009
-0.00940 -0.00160 -0.04037
-0.08232 -0.01178 0.00447
0.06556 -0.01320 0.04291
-0.04665 -0.02195 0.03576
0.02462 -0.01490 0.02931
0.05707 -0.03206 0.03584
0.29102 0.12800 0.13053
-0.04129 -0.02761 0.04579
-0.04841 -0.00804 -0.00418
0.07542 -0.00966 0.02655
-0.00966 0.01209 -0.03079
-0.07115 -0.02584 0.05254
-0.05164 -0.01600 0.03332
0.03398 -0.05158 0.08130
-0.03705 -0.00221 -0.02851
-0.07965 -0.01263 0.00307
-0.08068 -0.02892 0.04950
-0.10017 0.03415 -0.09971
-0.03634 -0.04620 0.15306
0.12925 0.03200 0.06918
-0.03736 0.00217 -0.03316
-0.04380 -0.02895 0.04856
0.03681 -0.02379 0.03595
-0.04989 -0.01419 0.01663
-0.06290 -0.06370 0.17504
-0.07961 -0.01265 0.01102
-0.06953 -0.01769 0.02442
-0.08831 0.03719 -0.13179
-0.02387 -0.02317 0.05367
-0.06049 -0.01578 0.04793
-0.09564 0.05635 -0.15305
0.02588 -0.01367 0.01721
0.07997 0.00481 -0.04622
-0.03001 -0.03055 0.05465
0.06357 -0.00965 0.00638
0.24943 0.13186 0.11019
0.02405 0.00610 -0.03663
0.07168 -0.02596 0.06998
-0.06791 -0.01665 0.03640
-0.04041 -0.06173 0.19771
-0.03003 -0.04552 0.11408
-0.04300 -0.05774 0.21590
-0.10355 0.06331 -0.16046
0.27712 0.14118 0.13374
-0.09217 0.05522 -0.16784
0.07371 0.00249 -0.03887
-0.08101 -0.05768 0.15744
-0.03200 -0.07392 0.19923
-0.06439 -0.04715 0.12473
0.02464 -0.02100 0.04747
0.04827 -0.03554 0.08781
0.03605 -0.01500 0.00574
-0.05574 -0.01796 0.04794
0.04064 -0.06199 0.16434
0.07171 -0.01565 0.01653
-0.07358 -0.02703 0.05365
-0.04285 -0.06872 0.19916
0.08020 -0.03293 0.08891
0.06744 -0.01806 0.03031
0.07250 -0.02201 0.04224
0.02393 -0.01105 0.01690
0.04229 -0.07364 0.19964
-0.06215 -0.01652 0.05603
0.06451 -0.01574 0.02604
-0.03609 -0.06822 0.18503
0.02781 -0.01637 0.01936
-0.01581 0.01262 -0.03621
0.02662 -0.02028 0.03809
-0.03130 -0.06418 0.17935
0.02779 -0.00881 -0.00516
-0.04693 -0.01693 0.01986
-0.03368 -0.00601 -0.01733
0.03094 -0.01494 0.01153
0.03620 -0.01775 0.01435
0.04648 -0.04549 0.11836
0.06995 0.03429 -0.13107
0.07134 -0.05594 0.15457
-0.04806 -0.01297 0.01373
-0.04869 -0.00024 -0.02838
0.03414 -0.06449 0.20050
0.06105 -0.01547 0.04553
0.07226 -0.01896 0.03023
0.24351 0.11870 0.15859
-0.14465 0.03862 0.32061
0.00372 -0.02521 0.17398
-0.16808 0.15079 1.00000
0.24648 0.13545 0.10777
0.00506 -0.01209 0.14612
-0.12747 0.06157 0.29582
0.00373 -0.05603 0.25853
0.03196 -0.02928 -0.13970
-0.02653 -0.05855 0.18497
0.22468 0.06836 0.21945
0.02177 -0.00330 0.00252
-0.10780 0.11576 0.00258
-0.07978 -0.03495 0.04440
0.00114 -0.01171 -0.01218
0.03031 -0.05035 0.26205
0.02913 -0.03699 0.11402
-0.17004 0.12713 0.02616
-0.17089 0.12640 0.04962
-0.20544 0.21518 0.18339
-0.16258 0.12474 0.02194
-0.16409 0.12062 0.03988
-0.19933 0.21698 0.15795
-0.18331 0.22025 0.15185
-0.13363 0.13207 -0.01933
-0.16716 0.13108 -0.00069
-0.18263 0.21522 0.15434
-0.23611 0.40655 0.45220
-0.16569 0.12528 0.02595
-0.16252 0.13399 -0.00773
-0.16515 0.22494 0.12938
-0.20777 0.22785 0.11654
-0.16909 0.12772 0.02117
-0.20371 0.22319 0.15600
-0.18031 0.14895 0.03541
-0.19934 0.22383 0.15766
-0.13701 0.13803 -0.02488
-0.13466 0.12681 0.02656
-0.13862 0.14059 -0.03493
-0.17151 0.20647 0.10335
-0.14075 0.13869 -0.02357
-0.20116 0.22563 0.14340
-0.14087 0.13659 -0.00471
-0.20067 0.22693 0.15275
-0.00847 -0.00391 -0.04374
-0.17252 0.23162 0.15863
-0.20668 0.21984 0.16476
-0.16208 0.21578 0.14278
-0.20513 0.21944 0.15814
-0.19132 0.21960 0.14164
-0.12865 0.12266 0.03471
0.08162 -0.02864 0.07785
-0.20738 0.21798 0.13938
-0.23052 0.32454 0.30811
-0.12710 0.13136 -0.01993
-0.16393 0.13091 0.00048
-0.20534 0.23914 0.13996
-0.21568 0.22759 0.12748
-0.20458 0.23005 0.13838
-0.20945 0.20083 0.11401
-0.18885 0.26365 0.19891
-0.13568 0.13646 -0.01845
-0.17002 0.17227 0.01858
-0.20048 0.22489 0.11207
-0.24283 0.32186 0.26391
-0.13132 0.06341 0.28578
-0.14251 0.13939 -0.01531
-0.14926 0.12688 -0.01878
-0.18465 0.21997 0.14185
-0.13377 0.13142 -0.01575
-0.13347 0.12649 0.01710
0.06631 -0.02611 0.09595
-0.19423 0.18651 0.05827
-0.19332 0.19432 0.05753
-0.19286 0.22255 0.13798
0.23942 0.10379 0.23071
-0.01149 -0.01677 0.02558
-0.17254 0.22061 0.16022
0.07883 -0.03543 0.09501
-0.16243 0.21730 0.15180
-0.17869 0.21667 0.15449
-0.21056 0.21588 0.16272
0.03664 -0.06647 0.18771
-0.18114 0.22588 0.11245
-0.14086 0.14077 -0.02643
-0.12577 0.14173 -0.02115
0.03877 -0.03981 0.29996
-0.19449 0.21517 0.15237
-0.17200 0.21963 0.17290
-0.13826 0.13987 -0.03163
-0.17358 0.16960 0.00791
-0.16683 0.12132 0.04858
-0.11688 0.08180 0.00249
-0.17012 0.16709 0.01932
-0.20035 0.21611 0.16619
-0.18771 0.21729 0.15473
0.09850 0.02563 -0.04349
-0.17340 0.17114 0.01522
0.00159 -0.03441 0.17743
-0.21146 0.23048 0.13041
-0.15723 0.12317 0.02944
-0.00414 -0.00999 -0.01120
0.05164 -0.02343 0.04361
0.06434 -0.02226 -0.00078
-0.21827 0.20037 0.13745
-0.28379 0.46011 0.46639
0.03791 -0.04859 0.12241
-0.06069 -0.01402 0.04364
0.03468 -0.04792 0.10713
0.07103 -0.00579 0.54599
-0.03166 -0.07689 0.02950
-0.05057 -0.08656 -0.11241
-0.08171 -0.02061 0.03642
-0.00141 -0.03642 0.32031
0.06215 -0.02417 0.10325
-0.03961 -0.05503 0.18124
0.07975 -0.00707 0.01348
0.07925 -0.01512 0.03756
-0.02706 -0.02269 0.02923
-0.04041 -0.04099 0.08604
0.00098 -0.04215 0.24286
-0.06487 -0.02107 0.07414
-0.04202 -0.04948 0.22657
-0.08757 0.01338 -0.05363
0.07130 -0.00552 -0.01461
-0.08895 0.04249 -0.14151
-0.08568 -0.01016 0.01929
-0.06019 -0.00674 0.02679
-0.02231 -0.01015 0.11310
-0.07780 -0.00619 -0.01569
0.04884 -0.04117 0.42790
0.00000 -0.03055 0.32803
-0.00176 -0.01972 0.08253
-0.20366 0.12129 0.03374
0.08254 -0.05751 0.15628
0.08288 -0.05297 0.16019
0.00539 -0.02769 0.22364
0.24963 0.07619 0.26313
0.24493 0.07568 0.26426
0.24887 0.08899 0.22319
0.24589 0.11326 0.15598
-0.21718 0.21603 0.17905
0.23246 0.09224 0.24558
0.00565 -0.02082 0.20975
0.23945 0.13437 0.13505
0.23908 0.12502 0.15716
0.24278 0.09258 0.19294
0.21401 0.09097 0.24424
0.00355 -0.02136 0.07623
0.23896 0.11607 0.17897
0.24689 0.08489 0.23883
0.23977 0.09088 0.24004
0.01260 -0.03543 0.25352
0.23932 0.09943 0.19783
-0.00227 -0.01819 0.06915
0.00693 -0.07333 0.07397
0.23912 0.09133 0.25897
-0.20107 0.11909 0.03875
-0.08182 -0.03480 0.05665
0.26533 0.07455 0.25233
0.23757 0.09387 0.22358
0.02102 -0.00710 0.03368
-0.00222 -0.03473 0.23823
0.24287 0.12242 0.14045
0.03802 0.01464 -0.07273
0.23767 0.10643 0.19909
0.24995 0.10101 0.22549
0.07400 0.01160 -0.06652
0.25358 0.12563 0.18836
0.25517 0.08294 0.23481
0.25279 0.09763 0.22767
0.26017 0.09050 0.22900
0.23904 0.08571 0.24140
0.22268 0.08546 0.25298
-0.04218 -0.06017 0.15466
-0.20943 0.17793 0.02389
0.24127 0.10767 0.21169
-0.20512 0.12816 0.02152
-0.16343 0.20273 0.08033
0.25658 0.08760 0.23604
0.08036 -0.01422 0.01922
0.24722 0.10945 0.23710
0.03530 -0.04948 0.15732
-0.00252 -0.03752 0.24618
-0.18735 0.14437 0.03454
0.04138 0.01492 -0.07417
-0.00304 -0.07023 0.02991
0.13496 0.06645 -0.07107
-0.20763 0.13326 0.01719
0.26027 0.08211 0.23200
-0.21579 0.19392 0.09503
0.08446 -0.04385 0.07523
0.00352 -0.01788 0.05809
0.25135 0.08808 0.23670
0.06119 -0.01466 0.05997
-0.04256 -0.04161 0.09466
0.24272 0.09286 0.21964
0.05854 -0.07239 0.26407
0.27882 0.08296 0.21984
0.26476 0.08099 0.22848
0.00406 -0.02403 0.13455
-0.16690 0.12340 -0.00416
0.24901 0.10892 0.17784
-0.00256 -0.01751 0.01103
-0.01830 -0.04490 0.25630
0.24071 0.09925 0.22187
0.00128 -0.02676 0.14448
0.20968 0.08783 0.28078
-0.03330 -0.05958 0.23679
0.24715 0.11609 0.17766
-0.24549 0.24376 0.16793
-0.00125 -0.03020 0.15179
0.24495 0.08121 0.24263
0.24919 0.12171 0.19150
0.00170 -0.07261 0.02553
0.24223 0.08856 0.23400
0.22454 0.08227 0.26366
0.25813 0.08510 0.22615
-0.04635 -0.01306 0.01463
0.27113 0.08577 0.22712
-0.08068 -0.03485 0.09062
0.24356 0.10558 0.18564
0.24361 0.11672 0.20038
0.07067 -0.04455 0.14720
-0.20015 0.17700 0.02351
0.00397 -0.04652 0.24651
0.02733 0.01344 -0.05908
0.26787 0.07914 0.22201
0.24301 0.10186 0.21417
-0.10885 0.03452 -0.15451
0.27405 0.08431 0.22123
0.03043 0.01330 -0.06797
0.03361 0.01458 -0.07270
0.02222 -0.05015 0.23698
-0.18152 0.20825 0.11442
0.03065 0.01528 -0.07020
-0.08403 -0.02183 0.03291
0.07426 -0.05299 0.17672
-0.18019 0.13493 -0.01048
0.24200 0.08113 0.27343
0.00766 0.00173 -0.28984
0.03713 0.01979 -0.08635
-0.15930 0.19757 0.09025
0.03425 0.02368 -0.09851
-0.12567 0.02884 0.37946
0.25022 0.09104 0.27123
0.23890 0.10730 0.22729
-0.19021 0.14176 0.03086
0.02835 0.01701 -0.07082
-0.18400 0.21099 0.10698
