# .PCD v.7 - Point Cloud Data file format
VERSION .7
FIELDS x y z
SIZE 4 4 4
TYPE F F F
COUNT 1 1 1
WIDTH 1872
HEIGHT 1
VIEWPOINT 0 0 0 1 0 0 0
POINTS 1872
DATA ascii
-0.00360 0.04447 -0.03863
-0.03651 0.05783 -0.05249
0.03065 0.05968 -0.05113
0.01948 -0.02235 0.01210
-0.03779 -0.00609 0.00175
0.01677 0.00844 -0.00687
-0.04256 -0.00720 0.00009
-0.01466 0.05598 -0.05159
0.01037 0.02070 -0.01207
0.00207 0.02768 -0.03151
-0.00150 0.04009 -0.03347
-0.01808 0.05752 -0.05176
-0.01983 0.00537 -0.00665
-0.01981 0.00549 -0.00689
0.01726 0.04192 -0.03017
-0.00421 0.04401 -0.03759
-0.00847 0.04892 -0.04078
-0.00878 0.05445 -0.04449
-0.02550 -0.00621 0.00082
-0.00228 -0.01704 -0.00064
-0.02407 0.04479 -0.03789
-0.00906 0.04162 -0.03999
-0.03892 -0.01196 0.00425
-0.02170 0.06053 -0.05636
-0.04433 -0.05344 0.03238
0.03719 0.00693 -0.00563
0.02434 0.01661 -0.01165
-0.01703 0.06090 -0.05332
-0.02315 0.04890 -0.03995
-0.01431 -0.04434 0.02777
0.02734 0.01807 -0.01142
-0.01785 -0.01956 0.01067
0.03430 -0.00779 0.00599
0.02168 0.03647 -0.03035
-0.01272 0.01482 -0.00756
0.03456 0.00797 -0.00343
-0.02090 0.02691 -0.02265
0.01687 0.00823 -0.00734
0.02750 -0.03499 0.01910
0.02900 -0.04020 0.02655
0.02826 0.00162 0.00035
-0.03105 -0.01416 0.00893
0.03886 -0.00475 0.00180
0.02770 0.00947 -0.00510
0.01731 0.02054 -0.01894
0.01117 0.05241 -0.04674
-0.02261 0.06309 -0.05891
0.00274 0.05561 -0.04565
0.00090 0.04749 -0.04347
-0.02338 0.03020 -0.02654
-0.04388 -0.01116 0.00484
-0.03794 0.05826 -0.05237
0.03838 -0.00753 0.00461
0.03019 0.04921 -0.04669
-0.02622 0.02115 -0.01898
0.02062 -0.06756 0.04344
-0.00093 0.04824 -0.04427
-0.01257 0.04986 -0.04478
-0.00154 0.02441 -0.02958
0.01864 0.02438 -0.02105
-0.04028 -0.00979 0.00234
-0.02102 0.02481 -0.02221
-0.01119 0.06072 -0.04871
-0.01550 0.00748 -0.00498
-0.01240 0.04357 -0.04251
-0.03940 -0.00876 0.00298
0.01891 0.00834 -0.00713
-0.04235 0.00031 -0.00366
-0.02244 0.02159 -0.02052
0.01384 0.01433 -0.00984
-0.00442 0.01211 -0.02042
-0.01707 -0.02101 0.01083
0.01006 0.06281 -0.05181
-0.01591 -0.13884 0.09807
-0.04782 -0.02554 0.01286
-0.01071 -0.04352 0.03654
-0.00464 -0.02642 0.01066
-0.00506 -0.02138 0.00690
0.04684 -0.12250 0.08573
0.02312 0.06326 -0.05820
-0.04418 -0.12366 0.08298
-0.04365 -0.00608 -0.00075
0.00512 0.04522 -0.04128
-0.03182 0.06184 -0.05401
0.01664 -0.02975 0.01752
0.01322 0.05799 -0.05026
0.01762 0.02500 -0.01972
0.01896 0.02401 -0.02151
-0.01838 0.00603 -0.00652
0.02903 0.03721 -0.03402
-0.02434 0.03261 -0.02708
0.00889 0.03791 -0.03316
-0.01887 0.03784 -0.02685
0.02654 0.01942 -0.01242
-0.03867 -0.01748 0.00915
0.00920 0.02128 -0.01370
-0.00695 0.03607 -0.03646
0.01758 -0.03449 0.01982
-0.05029 -0.03535 0.02175
0.02355 0.00354 -0.00402
-0.01963 -0.04042 0.02112
0.00121 0.04477 -0.03723
0.04244 -0.10187 0.07345
0.01484 -0.03179 0.02034
-0.00202 0.03898 -0.05072
0.03056 0.04057 -0.00393
-0.00265 -0.14565 0.12231
-0.03368 0.04947 -0.04105
0.02475 0.05950 -0.04982
0.04156 -0.06923 0.04699
-0.01020 -0.00643 0.01064
0.03278 -0.05629 0.03726
0.01471 -0.06081 0.04233
-0.03510 0.06225 -0.04983
-0.02992 0.06102 -0.06309
-0.03158 0.06739 -0.05419
-0.02612 0.06469 -0.06014
-0.00264 -0.02382 0.00318
-0.03398 0.06730 -0.05374
-0.02193 0.06342 -0.05837
-0.05360 0.00067 0.00099
-0.01899 0.08404 -0.06218
0.00153 -0.03209 0.01329
-0.04956 -0.03756 0.02470
-0.03590 0.06565 -0.05150
-0.04064 0.04649 -0.03840
0.01415 -0.04285 0.03599
-0.02813 0.06570 -0.05706
0.01900 -0.08544 0.05649
-0.03411 0.06445 -0.04862
-0.05165 0.01520 -0.00991
0.01426 -0.05664 0.03939
-0.03500 0.06598 -0.05156
-0.03282 0.06600 -0.05684
-0.02445 0.06867 -0.05772
0.00512 0.00056 -0.00870
-0.03163 0.05807 -0.05394
0.00397 -0.02020 0.00251
-0.03558 0.06528 -0.05471
-0.02566 0.07076 -0.06311
-0.02839 0.06282 -0.05555
-0.00280 0.06632 -0.04130
-0.00288 0.09277 -0.06077
-0.00678 0.00671 -0.01339
-0.03041 0.07161 -0.05516
0.00042 0.08633 -0.05346
-0.00111 0.09775 -0.05995
-0.02374 -0.06691 0.04412
-0.03423 0.06510 -0.05382
-0.00914 0.08231 -0.05128
0.01090 0.04389 -0.03497
0.01090 0.04389 -0.03497
-0.00370 -0.01952 0.00169
-0.01426 0.07627 -0.05920
-0.00842 0.03012 -0.03239
-0.01012 0.00242 -0.01099
-0.00168 0.02634 -0.02799
-0.00837 0.03482 -0.03649
-0.00552 0.08790 -0.05463
0.01101 0.04648 -0.04013
-0.01946 0.09539 -0.06462
-0.00027 -0.01580 -0.00110
0.02478 -0.02865 0.00042
-0.04152 -0.06528 0.03343
-0.04018 0.02478 -0.01843
-0.00931 0.07777 -0.04594
-0.02726 0.06921 -0.06361
0.00059 0.06516 -0.03940
-0.00380 0.09447 -0.06135
-0.04187 0.00700 -0.00848
-0.02550 0.07034 -0.06310
-0.03051 0.07483 -0.05808
-0.04752 0.03324 -0.02850
0.02952 0.01468 -0.00662
-0.03092 0.05076 -0.04565
-0.00315 0.09437 -0.05900
-0.00205 0.06806 -0.04020
0.00646 0.07771 -0.06697
-0.00132 -0.14103 0.12368
-0.02868 -0.07314 0.05738
0.01375 -0.03725 0.02552
0.01410 -0.04133 0.02838
-0.00065 0.00913 -0.02119
-0.00515 0.09607 -0.06217
-0.03315 0.06496 -0.05359
0.01947 0.04048 -0.03306
-0.02079 -0.04422 0.02510
-0.04953 0.01453 -0.00996
-0.00100 0.07880 -0.04506
-0.02753 0.06396 -0.05785
0.00539 0.09715 -0.05928
-0.04764 -0.05882 0.03793
0.00279 0.03800 -0.03786
-0.04588 0.03630 -0.03216
-0.00780 0.08663 -0.05399
-0.03345 0.06650 -0.05337
-0.03344 0.06648 -0.05334
-0.00508 -0.01474 0.01755
-0.02290 0.07035 -0.06291
-0.03786 0.05740 -0.05130
0.00372 -0.04085 0.02757
-0.04277 0.03756 -0.02637
-0.05152 0.02560 -0.01891
-0.00020 0.04671 -0.04231
0.01242 0.05595 -0.04735
-0.01699 0.08336 -0.06097
-0.03798 0.00910 -0.00630
-0.00998 0.08813 -0.05453
-0.03340 0.00554 0.00192
0.01828 0.00776 -0.00553
0.00364 0.08337 -0.05014
0.00100 0.02822 -0.05591
0.01154 0.05876 -0.05036
-0.01060 -0.00155 0.00888
-0.00101 -0.04889 0.01597
0.03965 -0.04587 0.02958
-0.00406 0.09612 -0.06323
0.00760 0.02452 -0.01558
-0.02729 0.00997 -0.00912
0.00416 0.08701 -0.05318
-0.02958 0.05031 -0.04393
-0.03853 -0.02973 0.01662
-0.03887 -0.12474 0.08325
0.00535 -0.01481 0.00256
-0.02456 0.03985 -0.03506
-0.01739 0.05685 -0.05141
0.00159 0.02471 -0.03151
0.03333 -0.03018 0.02305
0.01125 -0.02823 0.02496
-0.01707 0.05381 -0.04906
0.03723 -0.04188 0.02729
0.01161 -0.04339 0.03750
-0.00374 -0.00886 -0.00091
-0.01890 0.05227 -0.04239
-0.04762 -0.05832 0.03884
-0.01268 -0.08847 0.06217
0.00226 -0.04144 0.02380
0.00436 -0.10896 0.08619
-0.00453 0.02767 -0.05916
-0.02202 0.06127 -0.05747
0.01455 -0.06597 0.03216
-0.00575 0.08654 -0.05262
0.00385 0.03237 -0.03434
-0.05239 0.02206 -0.01503
0.03058 -0.12427 0.11460
0.05106 -0.09366 0.11485
0.13684 -0.00257 0.13161
-0.05187 0.03693 -0.02599
-0.05066 0.02616 -0.02360
0.04699 -0.03345 0.02268
-0.00007 -0.03826 0.02223
0.00735 -0.02854 0.02385
0.14111 -0.07297 0.17824
-0.05243 0.03098 -0.02046
0.05008 -0.03347 0.02615
-0.05173 0.01681 -0.01200
-0.05345 0.00219 -0.00075
-0.05717 0.01164 0.00027
-0.05100 0.03867 -0.02862
-0.05104 0.02423 -0.01848
0.04930 -0.02746 0.02052
-0.00007 -0.02149 -0.01209
0.01606 -0.08668 0.06429
-0.03818 -0.10248 0.07147
0.04943 0.00878 -0.00193
0.07441 0.00837 0.01825
0.00284 -0.03136 -0.01010
0.02768 -0.09580 0.06600
0.01826 -0.10896 0.07605
-0.04712 -0.07018 0.04580
0.04705 -0.06836 0.04744
-0.02338 -0.11312 0.07851
0.14641 -0.05003 0.16729
-0.05573 0.02623 -0.01515
-0.01854 -0.06241 0.03836
0.04803 -0.12035 0.08432
-0.04304 -0.11596 0.09377
0.04704 -0.07859 0.05736
0.01802 -0.09062 0.06197
-0.05296 0.05875 -0.04453
0.00870 0.00271 0.00052
-0.04461 -0.08178 0.05561
-0.00328 0.03084 -0.03413
-0.04335 0.06546 -0.06303
0.01947 0.00969 -0.01272
0.01874 0.01164 -0.01712
0.04139 -0.02669 0.01599
0.04306 0.03605 -0.02674
0.04220 -0.06904 0.04605
0.04408 -0.06501 0.04374
-0.04555 -0.07112 0.04822
0.04802 -0.01582 0.01146
0.04141 -0.02280 0.01360
-0.03697 0.06523 -0.05296
0.04422 -0.04874 0.03519
-0.04047 -0.03776 0.02104
-0.01782 -0.05957 0.04830
0.02260 -0.06332 0.03936
0.01074 0.05722 -0.04982
-0.04465 0.02006 -0.01763
-0.03828 0.01559 -0.01594
-0.04060 0.03169 -0.02846
-0.04469 0.05158 -0.04294
-0.04822 0.05720 -0.05084
-0.04938 0.06151 -0.04430
-0.03659 -0.00945 0.00463
-0.04028 0.06251 -0.05452
-0.03717 0.05778 -0.05265
0.00648 0.01093 -0.02198
0.01573 -0.05319 0.03497
0.02885 -0.05021 0.03325
0.03214 0.04156 -0.02737
-0.02448 0.07034 -0.06908
-0.02674 0.06340 -0.05927
-0.03109 0.05899 -0.05905
-0.03291 -0.01235 0.00824
-0.04110 -0.04790 0.02801
-0.03420 0.03482 -0.03432
-0.03492 -0.02578 0.01816
-0.04560 0.04602 -0.03755
0.03740 -0.04409 0.02926
0.01360 0.06194 -0.05261
-0.02334 0.06951 -0.07387
0.00398 0.00325 -0.01172
-0.04235 0.01796 -0.01527
-0.00629 0.03265 -0.03492
-0.01899 -0.13374 0.09197
0.04375 0.01464 -0.01009
-0.04906 0.00769 -0.00563
-0.01997 -0.05982 0.03566
-0.05268 0.05756 -0.04735
-0.01070 0.04528 -0.04414
-0.02554 0.06981 -0.06283
0.01720 0.06797 -0.05961
-0.04271 0.02754 -0.02162
-0.02196 -0.12024 0.08388
-0.01067 -0.03905 0.03334
-0.00923 0.03923 -0.03780
0.04567 -0.05099 0.03384
0.02112 -0.13366 0.09546
-0.02398 -0.08423 0.05513
0.01173 -0.04884 0.03972
0.01817 0.01057 -0.00924
0.02717 -0.12423 0.08678
0.03121 0.02822 -0.02499
0.04050 -0.11750 0.08685
-0.00157 0.03219 -0.03405
-0.03262 0.05907 -0.05278
0.01187 0.05758 -0.04949
-0.04611 0.00728 -0.00880
-0.04211 0.03091 -0.02681
0.02071 0.03609 -0.02920
0.00936 0.04852 -0.04597
-0.04300 0.03413 -0.02853
0.01713 -0.03207 0.01926
-0.02711 -0.01020 0.00497
-0.02207 -0.08895 0.05790
0.01574 0.01839 -0.01309
-0.02998 0.05577 -0.04825
0.00237 -0.00987 -0.00024
0.00555 0.01999 -0.02220
0.01736 0.07109 -0.06177
0.05564 -0.15692 0.13650
-0.03331 -0.04784 0.03834
-0.00469 0.02428 -0.03264
-0.01822 -0.08817 0.05669
0.02935 -0.14055 0.09781
0.01956 -0.14045 0.09737
-0.05050 0.06762 -0.05241
-0.03549 0.06649 -0.05686
-0.04462 0.06904 -0.06298
-0.05722 0.06669 -0.04184
0.00308 -0.03698 0.02379
0.04963 -0.00582 0.00626
-0.00919 -0.00420 0.00395
0.04169 -0.11526 0.08380
0.04242 -0.09045 0.06420
-0.00890 0.02769 -0.03203
0.04189 -0.04887 0.03170
-0.05273 -0.02879 0.02092
0.00905 -0.02637 0.01555
0.03697 -0.06858 0.04966
0.02180 0.02315 -0.02191
0.01297 0.06247 -0.04997
-0.01740 0.05409 -0.04868
0.04488 -0.10511 0.07358
0.02000 -0.07465 0.04873
0.01922 0.01823 -0.01344
-0.01748 0.05584 -0.05194
-0.01006 0.02542 -0.02425
-0.00992 0.02408 -0.02097
-0.04163 -0.07198 0.04590
-0.01998 -0.14586 0.09768
-0.00907 0.01455 -0.01909
0.04010 -0.10013 0.07240
-0.00900 0.01882 -0.01643
-0.02826 -0.01714 0.00939
0.03486 -0.08663 0.05069
-0.02862 -0.06718 0.04704
0.00582 -0.01487 0.00155
-0.02544 -0.08137 0.05617
-0.00901 0.01683 -0.02276
0.04087 -0.08739 0.07271
-0.01605 0.05866 -0.06531
-0.00635 0.02344 -0.03043
-0.02842 -0.02153 0.02127
-0.02230 0.06310 -0.05971
0.02101 -0.08751 0.05799
-0.03376 0.02862 -0.03134
-0.00174 0.01376 -0.02428
-0.00059 -0.02122 0.00332
-0.02590 -0.01857 0.00778
-0.02643 -0.02131 0.01190
0.01782 0.02387 -0.02067
0.03797 -0.00293 0.00271
0.04802 -0.12021 0.08416
-0.03108 -0.05949 0.04157
0.02254 -0.14422 0.09744
-0.01081 0.03892 -0.03938
-0.04636 -0.06646 0.04352
-0.00348 -0.02236 0.00567
-0.02746 -0.07121 0.04508
0.01546 0.05273 -0.04030
0.02301 -0.12535 0.08518
0.01526 -0.04056 0.03955
-0.01241 0.04515 -0.03932
-0.01001 0.01311 -0.01791
-0.01583 -0.12462 0.08563
-0.01531 -0.12523 0.08728
0.00501 -0.19257 0.17223
0.01616 -0.07530 0.05167
0.01030 0.05804 -0.05566
-0.03824 -0.08479 0.05751
-0.01476 -0.09973 0.06406
-0.02578 -0.02664 0.01317
-0.02443 -0.02097 0.00942
0.04059 -0.10390 0.07709
0.00481 0.01327 -0.02043
-0.01285 -0.08552 0.06170
-0.03299 0.02011 -0.02095
-0.02212 -0.02134 0.00909
-0.01484 -0.13921 0.09882
0.05178 -0.01381 0.03031
-0.04517 -0.04684 0.02406
-0.04332 -0.11476 0.07658
-0.02544 0.00667 -0.00780
-0.02966 -0.05628 0.03969
-0.02659 -0.00314 0.00106
0.02334 -0.13571 0.09406
-0.01086 0.02032 -0.01204
-0.02106 0.06237 -0.06404
0.00564 0.06520 -0.04825
-0.01790 -0.06008 0.03583
-0.01580 0.04964 -0.04474
0.01426 0.07018 -0.05775
0.03878 -0.04549 0.03015
-0.02458 -0.00550 -0.00079
0.04087 -0.08320 0.07238
0.04350 -0.06990 0.04831
-0.00800 0.03271 -0.03485
0.03944 0.01688 -0.01152
-0.01030 0.04257 -0.04800
0.03586 0.02795 -0.01473
-0.02440 -0.06316 0.04327
-0.02368 -0.00912 -0.00439
0.01588 -0.02061 0.01209
0.02143 -0.04792 0.02883
0.02126 -0.04669 0.02706
0.02924 -0.14354 0.09861
-0.01898 0.05488 -0.04727
-0.02500 -0.01802 0.00712
-0.03158 0.01764 -0.01084
-0.02928 -0.00667 0.00274
0.03756 0.02192 -0.01553
0.01794 -0.00224 -0.00146
0.01802 -0.00230 -0.00153
-0.00003 -0.14741 0.12911
0.01785 -0.03213 0.01998
-0.03702 -0.12486 0.08479
-0.04756 -0.06290 0.04164
-0.03771 -0.12346 0.08319
-0.02145 -0.14488 0.09764
-0.00078 0.04409 -0.04091
-0.04279 -0.12338 0.08246
0.00592 0.02158 -0.02181
-0.01296 0.04597 -0.04308
-0.00461 -0.02711 0.00999
-0.00377 0.06899 -0.04267
0.02328 0.03690 -0.02714
0.01722 0.03488 -0.02565
0.00578 0.00312 -0.00834
0.01177 -0.04479 0.03751
-0.05138 -0.02894 0.01923
0.02465 -0.13512 0.09297
-0.01190 0.02217 -0.01241
-0.02185 -0.13240 0.09118
0.01134 -0.03908 0.03457
-0.00451 0.01449 -0.02089
-0.00745 0.02165 -0.02365
0.00320 -0.02734 0.00769
-0.05054 -0.04547 0.02985
0.00511 -0.14891 0.13237
0.02148 0.00571 -0.03632
-0.02380 -0.03436 0.01737
0.04638 -0.09411 0.06749
0.00462 -0.08557 0.05204
0.01208 0.09768 -0.06477
-0.01782 0.09735 -0.06609
-0.02124 0.09608 -0.06760
-0.00740 -0.12010 0.08572
-0.02076 0.06071 -0.04997
-0.03154 0.06758 -0.05410
-0.05007 0.06141 -0.04303
-0.05241 0.04991 -0.03369
0.01301 0.09645 -0.06737
0.01697 0.08766 -0.06649
0.00464 0.08297 -0.05140
0.04529 0.06461 -0.03913
0.03546 0.01864 -0.01356
-0.04731 0.04416 -0.03536
0.02804 0.09133 -0.06411
0.03123 0.05372 -0.04738
0.00408 -0.14847 0.12886
-0.05388 0.04919 -0.04625
-0.02312 0.08686 -0.06656
0.01552 0.09597 -0.06909
-0.00452 0.09637 -0.06177
-0.00526 -0.11490 0.07883
0.02491 0.08468 -0.06205
0.04414 0.06261 -0.03992
0.00660 0.08914 -0.05588
0.01094 0.09757 -0.06432
-0.04656 0.04305 -0.03604
0.00455 -0.13613 0.11114
0.04591 0.06659 -0.03917
-0.02514 0.02312 -0.02165
0.00342 0.06493 -0.12325
0.03004 0.04331 -0.03493
-0.00264 0.09340 -0.06163
-0.02876 0.06001 -0.05147
0.01200 0.09665 -0.06365
0.01200 0.09665 -0.06365
-0.02531 -0.05565 0.04961
0.03149 0.06997 -0.05380
-0.02134 -0.03163 0.01628
-0.08395 0.06011 0.00774
0.00710 0.07880 -0.05444
0.01781 0.09313 -0.07047
0.01273 -0.03129 0.02243
0.00319 -0.19036 0.17661
-0.01775 0.09465 -0.06356
-0.00559 0.09920 -0.05631
-0.00475 0.08800 -0.05362
0.01245 -0.03107 0.02209
0.00864 0.07233 -0.05403
-0.04611 -0.05702 0.03580
-0.00036 -0.01729 -0.01379
0.03999 -0.01639 0.00815
-0.00692 0.04688 -0.03895
0.01350 -0.04996 0.03494
-0.01261 0.00947 -0.00431
-0.01364 0.07778 -0.05642
-0.01364 0.07778 -0.05642
0.00260 0.00129 -0.01151
0.03689 -0.02824 0.01851
0.01814 -0.00691 -0.00080
0.00756 -0.15708 0.14041
0.01903 0.04527 -0.03549
0.00922 0.08524 -0.05728
0.01249 0.08280 -0.06207
0.01360 -0.04445 0.03140
-0.02019 0.03697 -0.02796
-0.04316 0.03593 -0.02945
0.01305 0.09691 -0.07032
-0.01828 0.05250 -0.04508
-0.00376 0.09581 -0.06280
-0.03870 -0.02209 0.01246
0.03921 0.05689 -0.04519
0.03194 0.06914 -0.05419
-0.02459 0.02147 -0.02076
-0.04116 -0.02378 0.01217
-0.01834 -0.05477 0.03234
0.02255 -0.06304 0.03898
0.03588 0.01633 -0.01093
0.02799 0.07679 -0.05885
-0.04312 -0.02850 0.01452
-0.01974 0.04650 -0.03256
0.01682 0.06872 -0.05712
-0.02581 0.05887 -0.04303
-0.00195 0.09699 -0.05515
-0.01018 0.08511 -0.05239
-0.02038 0.05051 -0.03768
-0.02007 0.00518 -0.00584
-0.02081 -0.05571 0.03269
-0.01660 0.05512 -0.04917
0.01080 0.05093 -0.04616
-0.00142 0.08786 -0.05547
-0.00414 0.09862 -0.06239
-0.00614 -0.01274 0.00678
0.04487 0.00393 -0.00343
0.01116 0.00852 -0.00048
-0.01450 0.05242 -0.04880
0.03917 -0.02779 0.01673
0.01168 0.09404 -0.06477
0.02038 0.01681 -0.01857
-0.01498 0.09745 -0.06241
0.00022 0.09626 -0.05378
0.00520 0.08811 -0.05501
0.03115 0.06971 -0.05113
0.01190 0.06817 -0.05479
-0.00296 0.09301 -0.06015
-0.00152 0.09767 -0.06138
0.01555 0.08928 -0.06588
0.01469 0.08009 -0.06237
0.01475 0.07946 -0.06322
-0.01339 0.06995 -0.05948
0.00920 0.07947 -0.05675
0.01391 0.09655 -0.07074
0.00253 0.09386 -0.06006
0.02610 0.03989 -0.03520
-0.03838 -0.02193 0.01160
-0.02558 0.02350 -0.01951
0.02057 0.04620 -0.03691
0.00656 0.01663 -0.02002
-0.02026 0.03226 -0.02515
0.02971 0.04125 -0.03412
-0.03729 0.05880 -0.05282
0.03100 0.06275 -0.05250
0.00112 0.08620 -0.05340
0.02057 0.02439 -0.02231
0.00284 0.05287 -0.04531
0.03215 0.04626 -0.04097
0.00942 0.06445 -0.05353
0.02388 0.07382 -0.05858
0.03933 -0.03987 0.02521
0.00268 -0.02053 0.00270
0.04994 -0.01590 0.01367
-0.00685 0.04518 -0.03877
-0.01335 0.04742 -0.04456
-0.03482 0.06586 -0.05392
0.02342 -0.08761 0.05888
0.04733 -0.00851 0.00535
0.01517 0.05465 -0.04159
0.01065 0.07658 -0.05653
0.01676 -0.01124 0.00702
0.00307 0.04610 -0.03734
0.01270 -0.02799 0.02066
0.00289 -0.13456 0.10399
0.03615 -0.02340 0.01449
-0.02916 -0.06543 0.04520
-0.00192 0.03383 -0.03446
-0.03650 -0.06718 0.04791
-0.03853 -0.02592 0.01471
0.03447 0.04361 -0.03717
-0.00066 0.00855 -0.01986
-0.03480 -0.02964 0.02062
-0.03805 -0.01879 0.00873
-0.00299 0.03073 -0.02898
0.03650 0.01346 -0.00606
0.02967 0.03385 -0.03047
0.04057 -0.01765 0.00951
0.03813 -0.02358 0.01363
0.03043 0.05368 -0.06844
-0.03918 -0.06898 0.04455
-0.03918 -0.06898 0.04455
0.02656 -0.04861 0.02955
0.00563 -0.01515 0.00251
0.03790 -0.04084 0.02630
-0.00023 -0.00436 -0.04056
-0.02009 -0.04808 0.01035
0.01741 -0.02890 0.01700
0.00434 -0.03076 0.00575
0.02750 0.05090 -0.04419
-0.04153 -0.06230 0.03875
-0.03583 -0.02105 0.01370
-0.03916 -0.03713 0.02172
-0.03916 -0.03713 0.02172
0.03134 0.04232 -0.03472
-0.04388 -0.06322 0.04653
0.01133 -0.02522 0.02017
-0.00779 0.01211 -0.03090
0.00522 0.06425 -0.04744
-0.03676 -0.02959 0.01800
0.03461 0.02151 -0.01530
-0.03840 0.00697 -0.00449
0.04354 -0.05088 0.04456
-0.01945 -0.02489 0.01197
-0.01731 -0.00374 0.00234
-0.04001 -0.06916 0.04309
-0.00572 0.04410 -0.03613
0.02992 0.06668 -0.05075
0.02083 0.07138 -0.06281
0.00655 -0.01671 0.00480
0.00668 0.01816 -0.01991
-0.03212 0.03714 -0.03422
0.03090 0.05594 -0.04870
-0.01747 -0.04163 0.02355
0.00342 0.01713 -0.02166
-0.02359 -0.01896 0.00787
-0.03705 -0.02951 0.01761
0.04233 0.03521 -0.02739
0.03669 -0.03005 0.01915
-0.00303 0.05917 -0.04180
-0.02042 -0.02163 0.01005
0.03033 0.03301 -0.02925
-0.03535 -0.02388 0.01547
0.02966 0.05236 -0.04821
-0.03610 -0.01260 0.00757
-0.00047 0.01143 -0.02243
-0.00047 0.01143 -0.02243
0.04498 0.03763 -0.02360
0.03670 0.01531 -0.00721
0.01915 0.05830 -0.04340
0.04389 0.03260 -0.02403
-0.02498 -0.00824 0.00188
-0.03577 -0.01308 0.00778
-0.02854 0.04791 -0.03922
-0.04377 -0.06762 0.04142
-0.03991 -0.02857 0.01336
0.03195 -0.00380 -0.01498
-0.00631 0.03628 -0.03686
0.02895 -0.01100 0.00770
0.02698 0.05020 -0.04378
0.04653 -0.02607 0.02577
-0.01892 -0.01483 0.00481
-0.04181 -0.01177 0.00266
0.02773 0.04247 -0.03588
0.02513 -0.05044 0.04209
0.00692 0.01515 -0.01923
0.02276 -0.04241 0.02589
0.04535 0.01594 -0.00239
0.01742 0.02179 -0.01868
0.00175 0.02375 -0.03104
-0.02029 -0.02242 0.01014
0.02568 -0.03696 0.02191
-0.03528 -0.03864 0.02622
-0.00013 0.04811 -0.04315
-0.04142 -0.05437 0.03266
-0.03796 -0.11481 0.08019
0.03404 -0.00680 0.00523
-0.02057 0.03258 -0.02587
-0.04083 -0.01145 0.00290
0.01807 0.02571 -0.02096
0.00322 0.03449 -0.03574
0.00679 0.03824 -0.03437
0.02001 -0.05924 0.04879
0.03324 0.04383 -0.03596
-0.00015 0.04618 -0.02673
0.00270 0.01824 -0.06837
0.03391 -0.04850 0.04410
0.13981 -0.07489 0.16518
0.13989 -0.07475 0.16508
0.03433 -0.05036 0.04748
0.03344 -0.04933 0.04455
0.01318 -0.14517 0.11916
0.01696 -0.04010 0.02436
0.14165 -0.09450 0.18417
0.14140 -0.09406 0.18340
0.05012 -0.04195 0.03255
0.04030 -0.05178 0.04235
0.12253 -0.09127 0.18447
0.01830 -0.04265 0.03236
0.14724 -0.07968 0.17531
-0.03033 -0.06325 0.04500
-0.00695 -0.14806 0.13597
0.04201 -0.04297 0.02779
0.14287 -0.09389 0.18237
0.12604 -0.08490 0.17933
-0.03940 -0.12294 0.13493
0.13567 -0.07576 0.17437
0.10058 -0.06891 0.13937
0.02041 -0.07165 0.05963
-0.04323 -0.02879 0.01524
0.04174 -0.00088 0.00113
0.13695 -0.08068 0.17290
0.06401 -0.02064 0.02677
-0.02084 -0.05576 0.03279
0.01933 -0.03145 0.10016
0.13722 -0.07028 0.17626
0.01124 -0.02818 0.00719
0.04782 -0.05030 0.03444
-0.02696 -0.06165 0.03962
0.02410 -0.07320 0.19829
-0.02561 0.02447 -0.02273
0.03421 -0.02460 0.01712
0.03426 -0.02463 0.01725
0.14108 -0.06742 0.16557
0.03271 -0.06299 0.04823
0.05277 -0.03466 0.03232
0.03338 0.09832 -0.06732
0.03259 0.09759 -0.06943
0.12701 -0.08482 0.17869
0.14555 -0.08072 0.17451
0.13762 -0.04701 0.15921
0.01996 -0.03296 0.10383
0.05379 -0.03350 0.03449
-0.02473 -0.01065 0.00317
-0.03648 -0.02938 0.01799
0.01410 -0.04923 0.03390
-0.01644 -0.03289 0.01926
0.01392 -0.01256 0.00885
0.01597 0.08127 -0.05755
0.03917 -0.02779 0.01673
0.00000 -0.14332 0.11962
0.01817 -0.03433 0.01986
-0.03967 -0.08286 0.05653
-0.01589 -0.11856 0.08307
0.04153 -0.05318 0.03465
0.03438 0.05337 -0.04498
0.01922 -0.06126 0.03844
0.02250 -0.08680 0.06040
0.02210 -0.08613 0.05970
-0.01826 -0.08527 0.05523
-0.01826 -0.08527 0.05523
0.00039 -0.08628 0.06148
0.00688 -0.03385 0.03742
0.13653 -0.08105 0.18082
-0.00060 0.00853 -0.02024
0.01631 -0.07186 0.05380
0.02670 -0.04673 0.02862
0.03788 0.09371 -0.06637
0.03776 0.09366 -0.06672
0.03391 0.09561 -0.06710
0.01198 0.08399 -0.06080
0.02237 -0.07255 0.04754
0.14102 -0.08105 0.17367
0.03399 0.09896 -0.06684
0.03334 0.09307 -0.06409
0.03731 -0.05293 0.04750
0.04087 -0.04351 0.03812
-0.00824 0.08554 -0.05264
0.13682 -0.06976 0.16660
0.02823 0.08725 -0.05867
0.14070 -0.06819 0.17495
0.02965 0.06417 -0.05236
0.04606 -0.03075 0.01966
-0.03701 -0.04120 0.02528
0.13887 -0.08327 0.17602
0.04117 -0.03575 0.02223
0.01675 -0.06967 0.04658
-0.03841 -0.03167 0.01781
0.01902 -0.06952 0.04780
0.04816 -0.04732 0.03182
0.03112 -0.06783 0.04886
0.12252 -0.08847 0.18189
-0.03337 -0.00436 0.00537
0.05247 -0.00856 0.01141
-0.01599 0.05100 -0.04742
0.02708 0.05755 -0.04714
0.01827 -0.08284 0.05696
0.02031 -0.08680 0.05923
0.01600 -0.01732 0.01010
0.00060 -0.14445 0.12277
0.01839 -0.04720 0.02910
0.01606 0.01488 -0.00960
-0.02694 0.07052 -0.06327
0.04109 -0.03673 0.02271
0.03797 -0.02085 0.01243
0.02665 -0.04499 0.02772
0.02167 -0.03463 0.01978
0.03100 -0.06306 0.04462
0.03567 0.02687 -0.01720
-0.03258 -0.08404 0.07808
0.04139 -0.09296 0.06356
0.03728 0.00649 -0.00555
-0.01626 -0.06505 0.04079
0.00859 -0.15758 0.13898
-0.03269 -0.03150 0.02808
-0.03363 -0.02018 0.01567
-0.03262 -0.04322 0.03327
0.00582 -0.01595 0.00238
0.03014 -0.04635 0.03334
-0.03410 -0.04402 0.03496
0.06845 0.03797 0.01372
-0.04523 -0.12066 0.08177
-0.04528 -0.12110 0.08239
0.05839 0.00818 -0.00560
-0.00088 -0.01534 -0.01598
0.02483 -0.12504 0.09054
0.01321 -0.06105 0.04734
0.00180 -0.03230 0.01386
-0.04896 -0.05379 0.03503
0.01386 -0.06527 0.05035
-0.03484 -0.04314 0.03045
0.01240 -0.05089 0.04151
0.05971 0.00751 -0.00557
0.01424 -0.06745 0.05213
-0.00261 -0.01743 0.00010
0.01215 -0.04874 0.03948
-0.05516 0.00788 -0.00051
0.02762 -0.14354 0.09845
0.02416 -0.13869 0.10970
-0.03861 -0.10814 0.07448
-0.05933 0.04457 -0.02155
0.05978 0.01090 -0.00671
0.00014 -0.14742 0.13129
0.00220 -0.04592 0.02558
0.01987 -0.11521 0.08157
0.06770 0.02912 0.01080
0.05163 -0.02427 0.02110
0.03933 0.00589 -0.00174
-0.04666 0.03240 -0.02872
0.04006 -0.09570 0.07212
0.03950 -0.09494 0.07050
-0.04930 -0.06271 0.04702
-0.03983 -0.10730 0.07274
-0.00430 -0.02156 0.00622
-0.03369 -0.05190 0.03829
-0.03672 0.06683 -0.05417
0.00948 -0.00688 0.01079
-0.05347 0.04745 -0.03002
0.01727 -0.04424 0.02743
0.02631 -0.13144 0.09146
-0.04504 -0.05814 0.03677
-0.04717 -0.04217 0.02531
-0.04715 -0.04216 0.02520
-0.05142 0.04855 -0.03186
0.02937 0.03649 -0.05320
-0.04250 -0.05241 0.03180
-0.05331 0.04571 -0.02845
-0.05331 0.04571 -0.02845
0.00128 -0.04640 0.02526
-0.04788 0.04214 -0.03274
0.03961 -0.12148 0.08551
-0.03707 0.05921 -0.05276
0.01716 -0.04041 0.02516
0.05041 -0.05547 0.04224
0.01694 -0.03612 0.02221
-0.02682 -0.05734 0.03619
-0.03856 -0.04990 0.03112
0.04637 -0.12564 0.08754
-0.01135 0.02200 -0.01338
-0.01169 0.02223 -0.01320
-0.00055 0.02873 -0.02471
-0.04682 -0.04617 0.02830
-0.04640 -0.03088 0.01668
-0.04789 0.04375 -0.03368
-0.04791 0.04378 -0.03353
0.03704 -0.06461 0.04785
-0.02297 -0.12430 0.08882
-0.02553 -0.05321 0.03231
-0.00464 -0.14744 0.12443
-0.02515 -0.06117 0.03770
-0.04065 -0.03381 0.01868
-0.02258 0.01273 -0.01603
-0.01359 0.04449 -0.03641
-0.03460 -0.03007 0.02162
0.03654 -0.02013 0.01326
-0.03519 0.06089 -0.05175
-0.03512 0.06114 -0.04970
-0.04463 0.02682 -0.01721
-0.00525 0.08707 -0.05280
0.01956 -0.07701 0.05026
-0.00730 -0.14959 0.12873
-0.01980 -0.06838 0.04159
0.01841 -0.13859 0.09552
-0.02429 -0.06730 0.04066
0.00013 -0.02761 0.00777
-0.04536 -0.06095 0.03939
0.00029 0.00276 -0.00859
0.01339 -0.04052 0.02914
-0.01591 -0.14500 0.09695
-0.01957 0.04839 -0.03356
0.04240 -0.10282 0.07409
-0.02318 -0.05972 0.03606
-0.02647 -0.00254 0.00155
-0.04961 0.06397 -0.04286
0.04204 -0.12349 0.08607
0.03703 -0.02845 0.01905
-0.02912 -0.02986 0.01874
-0.02014 -0.04646 0.02635
-0.02568 -0.08580 0.05828
0.05184 0.03131 -0.03098
0.03792 0.08041 -0.06311
-0.01700 -0.01533 0.00782
0.02451 -0.04604 0.02744
0.00851 -0.14817 0.12356
-0.02060 -0.07395 0.04253
-0.01977 -0.07605 0.04711
-0.04701 0.00268 -0.00531
-0.01445 -0.14367 0.09666
-0.02103 -0.07694 0.04994
-0.02167 -0.05242 0.03026
-0.04001 0.01140 -0.00917
-0.04007 0.01118 -0.00627
-0.04771 0.00841 -0.00937
-0.01749 -0.01267 -0.03825
-0.05049 0.02861 -0.02061
-0.03797 0.04538 -0.03791
0.03866 -0.08586 0.06342
0.01493 0.08129 -0.06379
-0.02766 0.06696 -0.05852
-0.02744 0.06693 -0.05701
-0.04805 0.05142 -0.03840
-0.03900 -0.06221 0.03997
-0.04798 0.04526 -0.03453
0.01293 -0.03249 0.02416
-0.01369 -0.14150 0.09679
-0.04385 -0.11502 0.07927
-0.01382 -0.14035 0.09882
-0.04404 -0.11643 0.07740
0.02452 -0.14511 0.09835
0.03953 -0.05554 0.03863
-0.00197 -0.15000 0.13126
0.04368 -0.10309 0.07675
0.01511 0.00935 -0.00739
0.00677 0.01585 -0.01973
0.01240 -0.06329 0.04881
-0.00216 -0.04393 0.02683
-0.02049 -0.00244 -0.00168
0.02931 -0.13988 0.10017
-0.02838 0.01786 -0.01370
-0.03450 -0.02248 0.01672
-0.03225 -0.03365 0.03564
0.03069 -0.06066 0.04225
0.13245 -0.40329 0.47807
-0.04292 -0.06425 0.04808
0.04231 -0.02808 0.01335
0.00875 -0.08118 0.05621
0.00019 -0.03132 0.02308
-0.00313 -0.02565 0.01178
0.04458 -0.02895 0.01660
-0.01558 -0.03048 0.01616
-0.00524 -0.00838 0.00055
0.04723 -0.02738 0.01727
0.04028 -0.05995 0.03494
0.02711 -0.09063 0.06117
0.05150 -0.05428 0.04336
-0.03117 -0.02097 0.01476
-0.02463 0.02074 -0.02022
-0.00962 0.03368 -0.03357
0.04942 -0.11545 0.08494
-0.03914 -0.09406 0.06658
-0.01897 0.05218 -0.04157
0.03417 0.01619 -0.00888
-0.00944 0.03979 -0.03778
-0.00263 -0.01734 -0.00016
0.01756 -0.08950 0.06251
0.02069 -0.12548 0.08732
0.01277 -0.07797 0.05168
-0.03100 -0.02546 0.01907
0.00283 -0.11087 0.08553
-0.03660 0.04546 -0.04149
-0.01420 0.04470 -0.03527
0.04479 -0.09770 0.07048
-0.01157 0.02046 -0.05039
0.04024 -0.09181 0.06739
0.01672 -0.08127 0.06461
0.01664 -0.08105 0.06427
-0.01393 0.07611 -0.05593
0.00979 -0.14474 0.12590
-0.04761 0.03349 -0.02728
-0.02661 0.00460 -0.00294
0.04392 -0.07087 0.04702
-0.02543 0.02184 -0.01926
0.00091 0.04733 -0.04300
-0.01016 0.02010 -0.01353
-0.05219 0.01940 -0.01329
0.02185 -0.03878 0.02225
-0.00714 0.02922 -0.03327
-0.02724 0.06999 -0.06150
0.04631 -0.08615 0.06108
0.01492 -0.07344 0.05559
0.03160 -0.02233 0.01626
-0.03420 0.06570 -0.06020
-0.01048 0.02763 -0.01929
0.03692 -0.06857 0.04961
-0.00349 -0.02737 0.00934
-0.04736 0.03679 -0.02905
-0.04951 0.02863 -0.02088
-0.00717 0.02061 -0.02402
0.02848 -0.11799 0.08546
-0.01222 0.02038 -0.01289
0.03939 -0.02577 0.01230
0.02183 -0.03072 0.01742
-0.03752 0.03218 -0.02978
-0.02257 0.07009 -0.06292
-0.00745 0.02482 -0.02587
0.03862 -0.08737 0.06376
0.03862 -0.07929 0.05657
-0.03372 0.06446 -0.05179
-0.01367 0.05440 -0.04781
-0.03099 0.06818 -0.05404
0.03823 0.03517 -0.02663
0.03124 0.03928 -0.03407
0.01555 0.01801 -0.01120
-0.00786 0.08717 -0.05472
0.00329 0.02706 -0.03262
0.03912 -0.08214 0.05882
0.13837 -0.45719 0.51004
-0.00627 0.03621 -0.03680
-0.02560 0.00936 -0.00972
-0.02824 0.06787 -0.05807
-0.01990 0.02355 -0.02012
-0.01995 0.02363 -0.02019
-0.02482 0.06321 -0.05787
-0.02490 0.02066 -0.02068
0.01650 -0.09164 0.06310
-0.04565 -0.07076 0.04913
-0.02774 0.06448 -0.05550
-0.00461 0.01141 -0.02206
-0.00029 -0.15756 0.13577
0.02953 0.01132 -0.00714
-0.00221 0.01514 -0.02392
0.00718 0.05225 -0.04603
0.04512 -0.12285 0.08530
-0.04681 0.00693 -0.00734
0.00323 0.02936 -0.03161
-0.01129 0.01909 -0.01308
0.02539 -0.06845 0.04703
0.02449 -0.04599 0.02736
0.03485 -0.00421 0.00277
-0.00922 0.02482 -0.02309
0.03613 -0.00218 0.00612
-0.00348 0.01878 -0.02854
-0.03194 0.06186 -0.05399
-0.00363 0.00855 -0.01628
-0.03576 0.05439 -0.05027
-0.00432 0.05923 -0.04305
0.02356 -0.09398 0.06333
0.01327 0.06577 -0.05476
-0.04796 0.04697 -0.03553
-0.01681 0.05426 -0.04400
0.14779 -0.47647 0.53998
0.02183 -0.08521 0.05376
0.01515 -0.04507 0.02966
-0.04247 -0.07187 0.04580
0.00302 -0.06483 0.03418
-0.02202 -0.12188 0.08437
-0.01225 0.04612 -0.04358
-0.04272 -0.10763 0.07303
-0.01327 0.05044 -0.04622
-0.00675 0.01868 -0.01297
-0.02214 0.04377 -0.03474
-0.00323 0.04885 -0.04394
-0.00323 0.04885 -0.04394
0.03557 -0.03102 0.02088
-0.00574 0.05858 -0.04281
-0.02242 0.02515 -0.02500
-0.05047 -0.01949 0.01125
0.04041 -0.08790 0.06182
-0.02255 -0.12012 0.08565
-0.00373 0.04090 -0.03509
-0.02546 0.06398 -0.05936
0.00019 -0.04411 0.02582
0.04407 -0.12411 0.08594
0.02153 -0.12346 0.08824
-0.01831 -0.14625 0.09773
-0.00669 0.02539 -0.03177
-0.00269 0.04062 -0.03474
-0.00291 0.04312 -0.03769
-0.02014 0.02204 -0.02076
-0.00261 0.03219 -0.03319
-0.03449 0.05421 -0.04934
-0.01273 0.04954 -0.04569
-0.02641 0.06588 -0.06032
-0.03449 0.05367 -0.04915
-0.00716 0.03629 -0.03609
-0.04595 -0.02556 0.01239
0.00698 0.05061 -0.04698
0.01307 -0.07793 0.05053
-0.01156 -0.07992 0.04878
-0.00485 0.02019 -0.02911
-0.00707 0.02316 -0.03697
0.03805 0.00987 -0.00778
-0.02050 0.03402 -0.02695
0.01998 -0.04416 0.02611
0.01672 -0.02756 0.01644
0.03027 0.04312 -0.03624
-0.02669 -0.08488 0.06381
0.04177 0.02627 -0.02169
0.02253 -0.13671 0.09715
0.00475 0.08743 -0.05464
-0.00162 -0.04339 0.02453
0.00450 -0.02193 0.00444
-0.00444 -0.05082 0.02729
-0.00448 -0.02196 0.00589
-0.01113 -0.02839 0.02154
-0.05714 0.02158 0.00529
-0.03485 -0.04346 0.03071
-0.00132 -0.04194 0.02392
-0.05449 -0.00625 0.01198
-0.05216 -0.02293 0.01553
-0.00840 -0.01896 0.02403
0.03312 -0.06281 0.04750
-0.02679 -0.08286 0.06210
-0.05410 -0.01441 0.01686
-0.02907 -0.06669 0.05044
0.01519 -0.07711 0.05712
0.04640 -0.02479 0.01595
0.00271 -0.05088 0.06136
0.00205 -0.03104 0.01526
-0.05271 -0.02456 0.02064
0.01151 -0.05860 0.04160
0.00940 -0.05256 0.03491
-0.00871 0.02522 -0.02466
-0.00844 -0.01871 0.01419
-0.00448 -0.02789 0.01026
0.03150 -0.07585 0.05658
0.04980 -0.03320 0.02605
0.00740 -0.14375 0.11965
0.00483 -0.03773 0.01779
-0.00304 -0.03052 0.01366
0.01349 -0.06830 0.05014
-0.00984 -0.04250 0.03441
-0.02117 -0.06844 0.04171
-0.03570 -0.06312 0.04703
-0.00210 -0.04464 0.02338
-0.01705 -0.12866 0.08811
-0.00264 0.00925 -0.02062
-0.04307 -0.11807 0.08400
-0.03627 0.04576 -0.03917
0.02664 -0.07286 0.04709
-0.00115 -0.02947 0.00992
-0.05471 0.00002 0.00655
-0.03144 -0.06192 0.04547
-0.04531 -0.12084 0.08366
-0.05977 0.04387 -0.02051
-0.05977 0.04385 -0.02060
-0.02755 -0.08068 0.06074
-0.04323 -0.11717 0.08139
-0.04887 -0.06769 0.05163
-0.02423 -0.15071 0.13393
-0.00391 -0.02947 0.01476
-0.04437 -0.12021 0.08534
-0.02111 -0.04384 0.02510
-0.04163 -0.07295 0.04791
-0.02935 -0.04788 0.03857
-0.04306 -0.10910 0.07523
0.05602 -0.00012 0.01127
-0.01250 -0.06331 0.04156
-0.05403 0.00477 -0.00440
-0.02673 0.00472 -0.00389
-0.05274 -0.03783 0.03251
0.00179 -0.05405 0.06776
-0.05198 0.04505 -0.02955
0.02050 -0.06908 0.03691
0.00502 -0.28676 0.37535
-0.00038 -0.13501 0.12997
0.03318 -0.07417 0.07285
0.00793 -0.13672 0.11865
0.00793 -0.13672 0.11865
-0.01298 -0.06675 0.05031
0.00054 0.00013 -0.00629
-0.01575 0.05186 -0.04738
-0.04242 -0.11523 0.08037
-0.02749 0.01791 -0.01330
-0.02754 0.01792 -0.01347
0.02080 -0.11293 0.07995
-0.01741 -0.09682 0.06805
-0.00445 -0.02643 0.00940
-0.00762 0.04238 -0.03072
-0.00314 -0.00884 -0.00147
-0.03266 -0.04146 0.03319
-0.00591 -0.04143 0.03766
-0.01352 0.04616 -0.04554
-0.04431 -0.09585 0.06374
-0.03742 0.05914 -0.05245
-0.05753 0.07595 -0.05210
-0.04448 -0.10274 0.07503
-0.00426 0.00031 -0.01220
-0.04832 -0.02200 0.01136
0.00249 0.04919 -0.06744
-0.01565 0.05110 -0.04215
-0.01566 0.05109 -0.04214
-0.02350 -0.04547 0.02571
-0.04891 -0.00015 -0.00202
-0.04268 -0.11358 0.07992
0.00140 -0.09065 0.08941
-0.04077 -0.05175 0.03093
-0.04867 -0.06366 0.04669
0.02555 -0.06826 0.04671
-0.06660 0.02631 -0.02348
0.02961 -0.13975 0.09848
0.02591 -0.10907 0.07517
-0.04913 -0.04635 0.03106
0.01520 -0.05157 0.10711
-0.00135 -0.14126 0.12952
-0.05456 -0.01707 0.01987
0.03740 -0.04409 0.02927
-0.01846 -0.03442 0.01309
0.02755 -0.11864 0.08575
-0.04423 -0.11895 0.08465
-0.01866 -0.13409 0.09136
0.03231 -0.06092 0.04457
-0.05785 0.03831 0.01378
-0.02405 -0.06832 0.04293
0.02439 -0.02920 0.01667
-0.05421 -0.00537 -0.00070
0.02912 -0.14171 0.09750
-0.01618 -0.04508 0.02685
-0.04238 -0.03542 0.02559
0.02650 -0.11609 0.08198
-0.02648 0.02078 -0.01965
-0.04612 0.03303 -0.02870
-0.02724 -0.05312 0.03312
0.00337 -0.02552 0.00675
0.00338 -0.16126 0.13760
-0.03690 0.06765 -0.05344
-0.00028 -0.13294 0.11488
-0.00138 -0.14033 0.12617
-0.03207 0.07431 -0.05752
-0.01987 -0.08833 0.05773
-0.02527 -0.05720 0.03523
0.04657 0.01125 -0.01096
0.01651 -0.01379 0.00846
0.02336 -0.04570 0.02966
-0.08084 -0.11248 0.13672
-0.04275 -0.04503 0.02710
-0.04618 -0.01981 0.00927
-0.03526 -0.06193 0.04807
0.00040 -0.08073 0.07920
-0.02327 -0.05559 0.03291
0.04974 0.02927 -0.01587
0.02005 -0.06196 0.03873
-0.02425 -0.06968 0.04296
-0.03274 0.07410 -0.05835
-0.05411 -0.01807 0.02120
-0.00520 0.00214 -0.01382
-0.04711 -0.05757 0.03738
0.04414 -0.10339 0.07026
-0.02136 -0.14042 0.08967
0.00185 -0.05186 0.06183
0.03936 -0.06379 0.03993
0.00123 -0.08801 0.08753
0.06405 -0.37575 0.73450
-0.02209 -0.15134 0.13515
-0.01780 -0.05503 0.03268
-0.04931 -0.06534 0.04873
-0.04321 -0.10756 0.07395
0.00231 0.00650 -0.01494
-0.02615 -0.04085 0.02356
-0.02524 0.02406 -0.02176
-0.04259 -0.06341 0.04097
-0.00302 0.04161 -0.03683
-0.02582 0.00353 -0.00537
0.02416 -0.07672 0.04957
0.01897 -0.10780 0.07562
-0.00657 -0.04420 0.04148
-0.04065 -0.03381 0.01868
-0.02662 0.07210 -0.06140
0.04172 -0.07851 0.05382
0.01652 -0.04674 0.02963
0.05066 -0.00473 0.00630
-0.02300 -0.04202 0.02315
0.03824 -0.05924 0.03979
0.02220 0.02628 -0.02224
0.02148 -0.04750 0.02806
-0.02748 -0.09011 0.06407
-0.03409 0.07316 -0.05901
-0.02445 -0.02662 0.01330
-0.04400 -0.10713 0.07420
-0.00783 0.02729 -0.03533
0.01342 -0.03667 0.02711
-0.00358 -0.00925 0.00228
0.01412 -0.04936 0.03414
0.00462 0.01311 -0.02038
-0.03002 -0.03770 0.02614
-0.01878 -0.03775 0.02070
-0.02702 0.01885 -0.01055
-0.03437 0.05786 -0.05183
-0.05300 0.00259 -0.00068
-0.04693 -0.02808 0.01473
-0.06026 0.04354 -0.02073
0.02028 -0.06624 0.04156
-0.03366 0.05305 -0.04971
0.00384 0.08271 -0.05175
-0.02416 0.06846 -0.06013
-0.02903 -0.02998 0.01907
-0.00619 0.01125 -0.01766
0.04242 -0.12430 0.08604
-0.02125 -0.06641 0.04007
0.03499 -0.04258 0.02881
0.01776 0.02213 -0.01997
-0.02511 -0.01799 0.00784
-0.01253 0.04597 -0.04470
0.00242 0.00742 -0.01426
-0.04031 -0.12706 0.08716
-0.05335 -0.00671 0.00622
-0.03361 0.06686 -0.05368
-0.03903 0.06716 -0.05439
-0.01896 -0.07998 0.05051
-0.04538 -0.03420 0.01915
-0.03443 -0.06176 0.06685
-0.03031 0.01010 -0.00614
-0.05047 0.06134 -0.04203
-0.04483 -0.10654 0.07354
0.04195 -0.07673 0.05218
-0.04904 -0.04136 0.02564
-0.02416 -0.04500 0.02548
-0.02508 0.02578 -0.02244
-0.04679 0.03664 -0.03006
0.04215 -0.08139 0.05601
-0.01839 0.05813 -0.04619
-0.04908 0.06102 -0.04203
-0.03253 0.05789 -0.05166
0.02514 -0.09108 0.05838
0.03810 -0.05683 0.03924
0.01072 0.05731 -0.04977
-0.04875 0.04186 -0.03105
-0.04172 -0.06109 0.03859
-0.04136 -0.00154 -0.00245
-0.00668 0.02617 -0.03193
0.00106 0.01203 -0.01304
0.03006 -0.06991 0.04301
-0.04222 -0.03726 0.02030
-0.00083 0.01833 -0.02670
0.02843 -0.11696 0.08399
-0.00007 0.04727 -0.04316
-0.04768 0.01652 -0.01443
-0.05265 0.05495 -0.03548
-0.02308 0.01725 -0.01911
0.02017 -0.03806 0.02174
-0.02659 -0.03044 0.01606
-0.04368 -0.03744 0.02069
0.03469 -0.07433 0.05308
-0.01292 0.04216 -0.03392
0.01390 -0.01224 0.00793
-0.05244 0.04910 -0.03141
-0.02028 0.07671 -0.06213
0.01910 -0.00507 0.00084
0.04404 -0.08922 0.06209
0.00987 0.01527 -0.00731
-0.03835 -0.00788 0.01594
-0.00771 0.02692 -0.03130
-0.01814 -0.01971 0.00933
-0.00278 0.02388 -0.02977
-0.02622 0.06973 -0.06180
-0.03286 0.06672 -0.05783
-0.01023 0.06134 -0.04573
-0.03675 -0.04354 0.03560
-0.04721 0.03178 -0.02830
-0.04734 -0.02028 0.00965
-0.00266 -0.00995 -0.00122
-0.03597 0.04983 -0.04622
0.03868 -0.11934 0.08474
-0.01412 0.07545 -0.05518
0.04106 -0.11036 0.07907
0.00267 -0.04493 0.02443
-0.04089 0.04984 -0.03998
-0.01858 -0.14055 0.09675
-0.00020 -0.01516 -0.00115
0.00347 0.02935 -0.03185
0.04119 -0.10795 0.07773
0.00365 -0.03366 0.02055
-0.01538 -0.14307 0.09583
0.03108 -0.00279 0.00528
0.00891 -0.05305 0.04003
0.04202 -0.05479 0.03484
-0.04749 -0.06491 0.05962
0.04364 0.02901 -0.01650
-0.07892 -0.11197 0.13585
0.02880 -0.07720 0.05254
0.01936 -0.11906 0.08084
-0.04866 0.01441 -0.00976
0.02001 0.01843 -0.01381
-0.02447 -0.02687 0.01354
-0.05912 0.06923 -0.04891
-0.02653 -0.14875 0.12831
0.01228 -0.04308 0.03429
0.02004 -0.12290 0.09025
-0.03624 -0.04863 0.04009
-0.03250 -0.06070 0.03682
-0.02327 -0.14030 0.09803
-0.03484 -0.06860 0.05497
-0.04462 -0.06653 0.04227
-0.00478 -0.01075 0.00409
-0.04835 -0.05427 0.03421
-0.05567 0.00409 0.00596
-0.00442 -0.02537 0.01148
-0.05244 -0.01880 0.01410
0.04618 -0.02044 0.01275
0.04069 0.05598 -0.04201
0.03263 -0.06437 0.04763
-0.04864 -0.01374 0.00638
-0.04866 -0.01390 0.00692
-0.04897 0.06864 -0.04763
0.00527 -0.12978 0.10377
0.00528 -0.14891 0.12778
-0.04260 -0.06976 0.05904
0.02249 -0.08612 0.06359
-0.05251 -0.01374 0.00967
0.04962 -0.04947 0.03706
0.00221 -0.03313 0.01227
0.00169 -0.05237 0.05292
-0.04450 0.01215 -0.00464
-0.00856 -0.01835 0.01776
-0.06110 0.02377 0.04342
-0.01508 -0.03028 0.01346
-0.00296 -0.02108 0.02419
0.03850 -0.16698 0.14527
-0.04916 -0.00341 -0.00101
-0.03115 0.07376 -0.05903
-0.04838 -0.02188 0.01121
-0.04525 -0.06569 0.04223
-0.03648 0.05781 -0.05207
-0.03130 0.07562 -0.05970
-0.03121 0.07569 -0.05906
-0.07307 -0.02563 0.13321
-0.02767 0.06944 -0.06178
-0.04952 0.02865 -0.02099
-0.03563 0.08759 -0.06077
0.00419 0.08760 -0.04648
-0.00011 -0.01989 0.03719
-0.01558 -0.04550 0.02153
-0.00975 -0.06336 0.05006
-0.05863 0.02568 0.03890
-0.05049 0.06136 -0.04203
-0.00515 -0.01214 0.00741
-0.02004 -0.00941 0.00272
-0.04977 0.07620 -0.05697
0.04482 0.03102 -0.02182
-0.04961 -0.04704 0.02783
0.04792 -0.02078 0.01522
0.02695 -0.06700 0.04322
0.00211 -0.05975 0.01707
0.00396 -0.14993 0.12393
-0.01810 0.05755 -0.05077
-0.00873 0.01148 -0.01812
-0.02710 0.07115 -0.06187
-0.05884 0.02286 0.01107
-0.07863 0.00699 0.09233
-0.04807 0.04836 -0.03702
0.02348 0.06336 -0.05859
-0.01020 -0.05344 0.04368
0.00233 -0.14864 0.12949
0.05324 0.04381 -0.01929
-0.03013 0.08785 -0.06615
-0.04518 -0.04367 0.02547
0.00689 0.08079 -0.05737
-0.04757 0.03100 -0.02740
-0.02392 0.01685 -0.01586
0.00756 -0.01095 0.01319
-0.05729 0.00445 0.01436
-0.02422 0.07734 -0.06492
-0.04614 0.03997 -0.03379
-0.01873 0.05792 -0.04775
-0.04151 0.05960 -0.04748
-0.04203 0.08901 -0.06718
-0.07380 0.00280 0.12661
-0.05906 0.04506 -0.02272
-0.05968 0.02842 0.02476
-0.03680 0.07493 -0.05749
-0.02155 0.01558 -0.01698
-0.03107 0.08149 -0.06591
-0.05121 0.00221 -0.00307
0.00440 0.06142 -0.08845
-0.02505 0.02664 -0.02290
-0.02505 0.02664 -0.02290
-0.00659 0.00460 -0.01144
0.00300 -0.15160 0.13062
-0.02639 -0.03283 0.01863
0.03854 -0.09157 0.07716
-0.01610 -0.12450 0.08573
0.04988 -0.00166 0.00393
0.03253 0.09558 -0.06452
-0.04010 0.07491 -0.05916
-0.06176 0.02481 0.04796
0.03230 0.08716 -0.06015
0.00617 -0.14412 0.12695
-0.05084 0.04920 -0.03447
0.00780 0.08030 -0.05908
-0.01517 -0.07642 0.04878
0.01752 0.08866 -0.06654
-0.05553 0.03338 -0.03325
-0.07397 -0.02725 0.13459
-0.02904 0.04783 -0.05692
-0.03598 0.04646 -0.04193
0.03776 -0.04801 0.03242
-0.03043 -0.02545 0.01868
0.01436 -0.06948 0.05339
0.03995 0.05859 -0.04413
-0.03558 0.03777 -0.03768
0.00684 0.08051 -0.05842
-0.04657 -0.00048 -0.00369
0.04452 -0.00724 0.00335
0.02254 -0.05922 0.03679
-0.04944 0.08728 -0.07013
-0.04872 0.00826 -0.00440
0.04063 0.05681 -0.04281
-0.04558 0.04610 -0.03727
0.05352 0.04405 -0.01984
-0.03156 0.06730 -0.05391
-0.00111 -0.02179 0.04222
0.02243 -0.06299 0.03906
-0.05418 0.04924 -0.02938
-0.02809 0.05034 -0.03868
-0.00982 0.01690 -0.01959
0.04174 0.05030 -0.03753
-0.07526 -0.13527 0.20541
-0.05045 0.08577 -0.06578
0.04042 0.05549 -0.04254
-0.00088 -0.02799 0.04988
-0.04021 0.05217 -0.04304
-0.01226 -0.07319 0.05169
-0.02979 0.07757 -0.04189
-0.02081 -0.06375 0.03810
0.01969 -0.11623 0.08149
0.02248 -0.12329 0.09208
-0.02536 0.00648 -0.00745
0.02417 -0.14034 0.09617
0.02151 -0.12735 0.08272
-0.03601 0.04598 -0.04078
0.04338 0.02422 -0.01884
0.02300 -0.00481 0.00558
-0.03249 -0.03738 0.03184
-0.03539 0.04257 -0.04042
0.00788 0.06518 -0.05083
0.01476 -0.05690 0.04037
-0.01069 -0.05096 0.03005
0.12920 -0.10672 0.16521
-0.05499 0.06007 -0.09368
-0.05263 0.04752 -0.03142
-0.04138 0.05815 -0.04776
-0.03973 0.06235 -0.05418
-0.02638 0.07071 -0.06248
-0.05240 -0.04161 0.03383
-0.03885 -0.08979 0.05660
-0.06157 0.03921 -0.03647
-0.04020 -0.05095 0.03056
0.03587 0.05260 -0.04543
-0.00246 0.04072 -0.03580
-0.03552 0.08316 -0.05696
-0.03543 0.08326 -0.05634
-0.00671 0.08714 -0.05246
0.04479 -0.01958 0.00873
-0.04186 -0.11044 0.07486
-0.05354 -0.06758 0.09342
0.02228 0.06262 -0.05904
-0.00791 0.02848 -0.03230
0.01199 0.09455 -0.06334
-0.01207 0.04316 -0.04488
-0.02603 0.06992 -0.06278
-0.03941 -0.07412 0.03960
0.03503 0.09234 -0.06599
-0.01245 -0.02709 0.01122
-0.05069 -0.02280 0.01398
-0.01977 -0.03865 0.00284
-0.05069 0.08550 -0.06459
0.03324 -0.00641 0.01053
0.00533 0.04524 -0.04071
0.04325 -0.08671 0.07281
-0.03580 0.03174 -0.03251
-0.07513 0.00130 0.12674
-0.00382 0.05855 -0.09834
-0.06378 0.02526 -0.01352
-0.04089 0.04876 -0.03889
-0.00410 0.00017 -0.01167
0.03911 0.05303 -0.04316
-0.04027 0.07245 -0.05774
-0.00489 0.03505 -0.03524
0.03923 0.03161 -0.02827
0.01854 0.04460 -0.03519
0.01116 0.07780 -0.05849
0.04569 -0.01469 0.00727
-0.03633 0.06903 -0.05626
-0.03748 -0.07608 0.05135
0.01900 0.05032 -0.03942
0.02070 -0.07839 0.04613
0.00151 -0.03516 0.01504
-0.03257 -0.02589 0.02802
-0.00376 0.09551 -0.06264
0.01430 0.08080 -0.06173
-0.03713 0.06601 -0.05503
-0.05640 0.05875 -0.04156
0.05018 -0.00433 0.00552
-0.04372 -0.03540 0.01916
-0.04059 -0.12096 0.08376
-0.01999 -0.12466 0.08413
-0.03276 -0.05578 0.04151
-0.00298 -0.00895 -0.00084
-0.00225 0.04137 -0.03729
0.03909 -0.09948 0.07476
-0.02470 0.02496 -0.02259
-0.04422 0.00516 -0.00580
0.04521 -0.06388 0.04396
-0.02186 -0.13407 0.09049
0.00085 0.06112 -0.04458
0.00754 0.04814 -0.04448
-0.00612 0.01201 -0.01839
-0.00700 0.08611 -0.05296
-0.02622 0.06308 -0.05813
0.02123 -0.08701 0.05717
-0.02399 0.07669 -0.06448
-0.02285 -0.13288 0.09272
-0.03746 -0.06537 0.04344
-0.04729 0.03501 -0.02851
-0.04424 0.00511 -0.00529
-0.02585 0.02338 -0.02084
-0.05522 -0.00165 0.00899
0.00773 -0.04669 0.02873
-0.04471 0.09943 -0.05449
-0.02340 -0.02129 0.00906
-0.04749 0.01140 -0.00701
-0.01154 -0.03635 0.02665
-0.01798 -0.01947 -0.00359
-0.04657 0.03080 -0.02766
-0.03242 -0.03383 0.03200
0.02169 -0.06075 0.03715
0.01870 -0.05108 0.03214
-0.03452 -0.06262 0.04618
-0.00213 0.03666 -0.03457
0.03401 -0.12200 0.15456
0.05985 -0.07005 0.06519
0.02794 -0.06410 0.04896
-0.01708 -0.14661 0.09774
0.04245 -0.06620 0.04562
0.00872 -0.14072 0.12000
-0.02442 -0.03013 0.01584
-0.00892 -0.00996 0.01080
-0.03255 -0.04998 0.03914
-0.03251 -0.04345 0.03482
0.00710 -0.02154 0.00572
-0.09447 0.00597 0.08199
-0.02061 -0.13794 0.11216
-0.01867 -0.12443 0.08558
0.14389 -0.07486 0.18204
0.13670 0.01764 0.11606
0.11302 -0.08550 0.19045
0.07361 -0.04421 0.05018
0.14117 0.01604 0.16199
-0.02269 -0.13643 0.09122
-0.02239 -0.13684 0.09145
0.01537 0.00622 -0.00460
-0.03159 -0.04878 0.04001
0.01491 -0.16154 0.14386
-0.03003 -0.04464 0.03152
0.14302 -0.09539 0.18755
-0.00248 -0.04099 0.02311
-0.02221 -0.13779 0.09798
0.02962 -0.08387 0.06136
0.05079 -0.00668 0.00753
0.04100 -0.11535 0.08407
0.02994 -0.15137 0.11852
-0.00003 -0.54360 1.00000
0.04921 -0.04733 0.03535
-0.01409 -0.12086 0.08988
-0.00084 -0.15263 0.17369
0.10348 0.03710 0.06258
-0.02955 -0.05023 0.03558
-0.02584 -0.06972 0.04421
0.00917 -0.01946 0.02512
0.16341 0.01017 0.24366
-0.01282 -0.06092 0.04540
-0.04973 -0.04971 0.03879
0.11692 0.01395 0.12034
0.01958 -0.13087 0.09302
0.05086 -0.05183 0.04166
-0.01862 -0.13943 0.12992
-0.03361 -0.03033 0.02852
-0.02804 -0.07328 0.05410
-0.03443 -0.06436 0.04438
0.02932 -0.08646 0.06638
-0.00210 0.07137 -0.12208
0.00078 -0.15316 0.13429
0.04894 -0.05203 0.03672
-0.03419 -0.04282 0.03330
0.12048 0.01708 0.10771
-0.01187 -0.07167 0.05429
0.13728 -0.07439 0.15795
-0.00109 -0.09073 0.07573
-0.05105 -0.04159 0.02768
-0.01004 -0.04375 0.01533
0.01570 -0.07409 0.04589
0.10321 0.03458 0.06480
-0.02089 -0.14569 0.09955
0.03291 -0.06045 0.03656
0.18781 0.00225 0.33846
0.04768 -0.05838 0.04048
0.00751 -0.14175 0.13294
0.01700 -0.08161 0.06770
0.02707 -0.01263 0.00706
0.14339 -0.07005 0.17614
-0.04548 -0.11958 0.08205
0.12407 -0.05326 0.12616
0.02590 0.00613 -0.00466
-0.06287 0.02097 0.00542
-0.00832 -0.13275 0.10856
0.14104 0.01064 0.11563
-0.04709 -0.08224 0.05391
0.01536 -0.07890 0.06259
-0.02266 -0.10755 0.07488
0.00242 -0.08709 0.08726
0.00254 -0.03379 0.01535
0.00208 -0.01678 -0.03390
0.13563 0.01394 0.11442
0.14135 -0.00194 0.13050
0.01522 -0.01069 0.00543
0.01975 -0.17083 0.15718
0.13938 0.01886 0.11563
0.13328 0.02069 0.11825
-0.00284 -0.02849 0.00963
0.13768 -0.07277 0.17388
0.02834 -0.00738 0.00651
0.00252 -0.09574 0.08227
0.00003 -0.09144 0.09688
0.02768 -0.14721 0.10506
0.03062 -0.14199 0.10217
0.02994 0.08892 -0.05336
0.14019 -0.01780 0.13333
-0.02202 0.01659 -0.01410
0.00151 -0.09777 0.06574
0.14128 -0.02340 0.13685
-0.09336 0.00845 0.08162
0.14195 -0.05519 0.16612
-0.02049 -0.01060 0.00912
0.01245 0.09999 -0.06023
0.13991 -0.00557 0.12543
0.13812 -0.02255 0.14316
-0.03699 -0.10302 0.07548
0.03051 -0.00231 0.00406
-0.02120 -0.04367 0.02464
0.00298 -0.16141 0.16785
0.02878 -0.14249 0.09878
0.00295 -0.11218 0.10987
-0.01373 -0.14396 0.09717
-0.09682 0.00827 0.08176
0.02763 0.09221 -0.06133
-0.01905 0.05218 -0.04130
0.02804 -0.00349 0.00304
-0.03694 -0.08017 0.05658
0.00709 0.09645 -0.07528
-0.05772 0.06718 -0.05415
0.14118 -0.01194 0.13177
0.13901 -0.00267 0.13266
0.13656 -0.05443 0.16126
0.13970 -0.05784 0.16117
-0.00359 -0.03527 -0.01158
0.14039 -0.03128 0.14204
0.00215 -0.10075 0.09588
0.00234 -0.07525 0.08517
-0.07583 0.04889 0.00758
0.13961 -0.04617 0.15419
0.00178 -0.08709 0.08280
0.13640 -0.00075 0.12772
0.13704 -0.06957 0.17489
0.01615 -0.01082 0.00270
0.13886 0.00644 0.12191
0.00231 -0.07892 0.03304
0.00106 -0.05575 0.03039
-0.00017 0.00294 -0.00827
0.02650 -0.06890 0.06091
0.00044 -0.02754 0.01048
-0.02388 0.06809 -0.06150
0.03849 0.07977 -0.06281
-0.02064 -0.05987 0.03605
0.04735 0.05042 -0.03111
0.01899 -0.01425 0.00647
0.00054 -0.14441 0.13075
0.02956 0.04562 -0.03701
-0.03497 0.06221 -0.05009
0.02740 0.07946 -0.05750
-0.00163 0.07390 -0.11851
0.03327 0.05252 -0.04445
-0.05616 0.07536 -0.05491
0.04272 -0.07146 0.04852
-0.03016 0.05787 -0.04625
0.13800 -0.06377 0.16792
-0.00521 -0.04028 0.03784
-0.04781 -0.00301 -0.00292
0.02361 -0.03073 0.01713
-0.08940 0.02470 0.07134
-0.04238 -0.04817 0.02784
-0.00446 -0.00185 0.00205
-0.00220 -0.08424 0.05013
-0.02934 0.05856 -0.05131
0.03777 0.08034 -0.06383
-0.02533 -0.04992 0.02976
-0.01797 -0.02841 0.01487
0.03794 0.02022 -0.01341
-0.00001 -0.08557 0.06978
-0.03769 0.06488 -0.05143
