# .PCD v.7 - Point Cloud Data file format
VERSION .7
FIELDS x y z
SIZE 4 4 4
TYPE F F F
COUNT 1 1 1
WIDTH 1232
HEIGHT 1
VIEWPOINT 0 0 0 1 0 0 0
POINTS 1232
DATA ascii
-0.21202 -0.20050 -0.00664
-0.07968 -0.15228 -0.00818
-0.03094 0.04192 -0.00582
0.03026 -0.13489 -0.01146
0.13373 -0.19866 -0.00882
-0.18688 -0.25601 -0.02646
0.27413 -0.05685 0.00536
-0.09814 0.18813 0.01318
-0.11241 0.09693 -0.00773
-0.02898 0.09829 -0.00446
0.03108 -0.15822 -0.00600
-0.08827 -0.11062 -0.00255
0.11114 -0.21557 -0.01046
-0.07849 -0.33862 -0.02692
-0.09627 -0.14435 -0.00737
-0.04667 0.18568 0.00491
-0.12528 0.11007 0.00691
-0.05699 0.08102 -0.00891
0.06258 -0.31584 -0.02491
0.06249 -0.31600 -0.02528
-0.16979 -0.32375 -0.02937
-0.08691 0.09702 -0.00855
0.13783 -0.11757 -0.00227
0.28204 0.17447 0.01482
0.28195 0.17379 0.01509
-0.11223 -0.34330 -0.02873
-0.11209 -0.34235 -0.03128
-0.01425 0.10859 -0.00091
0.14510 -0.10636 -0.00164
-0.24499 0.12839 0.00673
-0.00480 -0.18368 -0.02010
-0.00480 -0.18368 -0.02010
-0.10327 0.10836 -0.00673
-0.26158 -0.02564 -0.01109
-0.10182 -0.03110 -0.01982
-0.06586 0.09197 -0.00264
0.13455 -0.13101 -0.00382
-0.07790 0.09789 -0.01100
0.20730 0.06158 0.01028
0.17761 0.03796 0.00973
-0.19488 -0.18049 -0.01809
0.11623 0.06620 0.01155
-0.16883 -0.33435 -0.03010
-0.00016 -0.14567 -0.02910
-0.07731 -0.34692 -0.02819
-0.26658 0.03937 -0.00346
0.11759 -0.19998 -0.00773
0.23521 0.01784 0.01118
0.12187 -0.28747 -0.01800
0.09563 -0.25015 -0.01546
-0.23439 0.09452 0.00336
-0.17061 -0.32875 -0.03019
-0.17011 -0.32998 -0.03010
-0.04626 0.18872 0.01082
-0.09236 -0.26715 -0.02091
-0.20398 -0.05333 -0.00691
-0.20475 -0.05365 -0.00727
0.00216 0.03387 -0.01018
0.24326 -0.09102 0.00300
0.09677 -0.13589 -0.00464
0.16320 -0.11919 0.00091
0.16301 -0.11750 0.00227
0.01330 0.03339 -0.00546
-0.02957 -0.18697 -0.01164
0.19366 -0.17879 -0.00646
0.11405 -0.07759 0.00009
0.07508 -0.15326 -0.00564
-0.11105 0.19438 0.01282
0.07318 -0.10582 -0.00291
0.07336 -0.10555 -0.00300
0.01930 0.17606 0.00555
-0.18211 -0.12371 -0.01346
0.00548 0.05319 -0.00818
0.12178 -0.01066 0.00982
-0.10082 0.05056 -0.00546
0.26217 0.12405 0.01519
-0.18506 -0.20248 -0.01910
0.11555 0.31509 0.01982
0.09536 0.05315 0.01709
0.09723 0.05238 0.00973
0.13114 -0.14328 -0.00464
0.21607 0.01230 0.01791
0.20393 0.39893 0.04728
0.08454 -0.22775 -0.01309
0.28240 0.06458 0.00982
-0.10377 -0.00902 -0.01337
-0.16865 -0.11107 -0.01282
-0.03944 0.18484 0.01100
0.08518 -0.05399 0.00291
-0.21857 -0.11425 -0.01309
-0.11200 -0.35271 -0.02919
0.08154 -0.07911 0.00055
-0.26631 0.02623 -0.00373
-0.22794 -0.22721 -0.02237
-0.02562 -0.14080 -0.02664
-0.08095 -0.12876 -0.01173
0.25790 0.10373 0.01318
-0.10159 0.22128 0.01873
0.20057 0.39581 0.04628
-0.00280 -0.03999 -0.01519
0.12491 0.07029 0.01182
0.26008 -0.01282 0.01164
-0.11196 -0.00120 -0.00473
-0.03949 -0.03710 -0.01800
-0.15788 0.06451 0.00446
-0.01548 -0.18625 -0.01255
-0.00257 0.04183 0.00682
0.04881 0.09211 0.03510
-0.01093 0.18868 0.02719
-0.00457 -0.14042 -0.02337
0.33492 0.17558 0.02382
0.06249 0.08479 0.00727
-0.28540 -0.15067 -0.02137
-0.02107 -0.28399 0.00327
-0.26549 0.12471 0.00491
-0.26549 0.12471 0.00491
0.19802 -0.17040 -0.00627
-0.13110 -0.17247 -0.01418
0.16492 -0.16151 -0.00564
-0.26044 0.03021 -0.00373
0.09241 0.04885 0.00846
0.11259 0.30068 0.01400
-0.04244 0.08622 -0.00927
-0.16883 0.34112 0.02237
-0.17974 -0.15456 -0.01555
-0.00675 0.12091 0.00000
0.21307 -0.11853 -0.00227
0.32409 0.15672 0.02019
0.19234 0.24260 0.02391
0.19234 0.24260 0.02391
0.12805 0.08970 0.01364
0.12801 0.08957 0.01337
0.07313 -0.16465 -0.00727
-0.23739 0.11023 0.00737
-0.23585 0.10964 0.00291
-0.16724 0.21955 0.00091
0.00802 -0.14826 -0.00882
0.21262 -0.10980 -0.00091
0.09486 0.30407 0.01864
0.13392 0.10691 0.01573
0.03826 0.23398 0.01746
0.00461 0.00755 -0.02346
0.00461 0.00755 -0.02346
0.04317 0.06792 0.01018
0.26785 0.16590 0.01746
-0.08736 -0.20273 -0.01155
-0.05058 -0.16861 -0.02728
-0.09354 -0.32107 -0.02628
-0.05872 -0.12105 -0.00964
-0.09882 0.09954 -0.00546
-0.26126 0.12537 0.00282
-0.00025 0.05413 -0.01109
-0.12269 -0.25390 -0.02091
0.14101 0.20771 0.02910
-0.14851 -0.20932 -0.01991
0.27263 0.03112 0.00673
-0.08727 -0.21307 -0.01228
0.20189 -0.13353 -0.00373
0.11678 -0.04776 0.00255
-0.22976 0.04012 -0.00136
-0.23026 0.04015 -0.00055
0.12978 0.15665 0.01564
-0.08700 -0.25967 -0.01728
0.33660 0.17879 0.01509
0.28413 0.39506 0.02673
-0.00548 0.02253 -0.02000
-0.00325 0.21978 0.02237
-0.15297 0.04690 0.01364
0.00107 0.10277 -0.00436
-0.00225 0.10007 0.00773
0.20466 -0.04033 0.00473
-0.22762 0.02296 -0.00191
-0.19366 -0.30348 -0.03583
0.12782 0.09895 0.01500
-0.28427 0.34701 0.00937
-0.10941 0.19970 0.01264
0.14442 0.39281 0.02892
-0.16451 -0.03178 -0.00382
-0.03180 0.38879 0.04437
0.18306 -0.08997 -0.00236
-0.22366 0.01814 -0.00373
-0.09141 -0.18179 -0.02255
0.06240 0.09823 0.02291
-0.01316 0.02398 -0.01209
0.22771 -0.08152 0.00136
0.01462 0.06349 0.00727
-0.30268 -0.17579 -0.02191
0.17138 0.16113 0.01800
-0.24894 -0.24364 -0.02510
0.24230 0.15460 0.01282
0.24235 0.15467 0.01309
0.12860 0.35810 0.02373
0.31096 0.22728 0.02382
0.05567 -0.15913 -0.00709
0.00639 0.04808 0.01073
-0.21939 0.04062 0.00036
-0.12305 0.09914 0.00546
-0.23662 0.10573 0.00491
0.03121 0.24644 0.01846
0.13273 -0.18395 -0.00737
0.05294 -0.21214 -0.01128
-0.20975 -0.17097 -0.01782
-0.38534 0.20439 0.00164
-0.01193 -0.10937 -0.00564
0.00516 0.12598 -0.00309
-0.21257 0.02135 -0.00227
0.16065 -0.18300 -0.00827
0.16060 -0.18309 -0.00791
0.21416 -0.07697 0.00000
0.15278 0.35419 0.01755
0.29945 0.31314 0.02673
0.06681 -0.11848 -0.00327
0.06690 -0.11850 -0.00355
-0.10527 0.22507 0.01864
-0.08550 -0.34044 -0.02710
0.10486 -0.20500 -0.00637
-0.28554 0.36749 0.00627
-0.11719 0.29497 0.02410
0.17270 -0.17693 -0.00527
-0.34478 -0.12496 -0.01955
0.13805 0.22487 0.02946
0.19443 0.20050 0.03283
-0.29186 0.13307 0.00000
-0.21625 -0.18202 -0.01955
-0.10205 0.20527 0.01391
0.08509 -0.11832 -0.00373
0.08504 -0.11898 -0.00382
0.19216 0.25358 0.04483
-0.00239 0.22246 0.02064
0.03499 0.19372 0.01619
0.10018 0.25903 0.00827
0.12382 0.38240 0.02910
0.00852 0.04262 -0.02401
0.14583 0.35190 0.02119
-0.30004 0.10721 0.00573
0.07713 -0.11557 -0.00309
0.07727 -0.11523 -0.00364
0.06226 0.23301 0.00646
0.06249 0.23292 0.00627
0.06249 0.23219 0.00646
-0.00852 0.27990 0.02428
0.13955 0.41373 0.02455
-0.10473 0.10716 0.00318
-0.13332 0.25142 0.01446
0.05999 0.41018 0.03646
-0.04080 0.17479 0.00791
0.13455 -0.16006 -0.00555
0.13414 -0.15999 -0.00655
0.15797 0.37565 0.02200
0.30404 -0.01998 0.00427
-0.19770 -0.15924 -0.01700
0.13346 0.09093 0.02946
0.13119 0.08675 0.01473
0.18675 0.16515 0.02464
-0.12428 0.04037 0.00264
0.04753 -0.24583 -0.01455
-0.18820 -0.31853 -0.03073
0.08031 0.24776 0.00491
-0.16247 -0.22498 -0.02028
-0.18247 -0.16106 -0.01555
-0.14028 -0.09288 -0.00746
-0.17674 -0.14485 -0.01500
-0.22489 0.03455 -0.00082
-0.08631 -0.21371 -0.01400
-0.02985 -0.28879 -0.00246
0.27404 0.07013 0.01100
-0.11350 0.21421 0.01791
-0.07313 0.25290 0.01573
0.18529 0.15722 0.01400
0.30113 0.20716 0.02046
0.13228 0.08684 0.01391
-0.02580 0.19620 -0.00400
0.29559 -0.03596 0.00673
0.07872 -0.16149 -0.00709
-0.31268 -0.14126 -0.02019
-0.31218 -0.14108 -0.02110
-0.20993 -0.32432 -0.03246
0.08227 -0.04176 0.00864
0.13619 0.06367 0.01182
-0.20866 -0.15965 -0.01764
0.13896 0.34117 0.02428
0.09900 0.40857 0.03183
0.27958 0.32273 0.02673
0.27958 0.32325 0.02755
-0.30395 -0.08388 -0.01819
-0.20543 -0.33987 -0.03264
-0.20511 -0.34001 -0.03255
0.32114 0.16392 0.02910
-0.14010 -0.09159 -0.00773
-0.06886 0.09770 -0.00591
-0.26940 -0.19075 -0.02191
0.08286 0.00318 0.01128
0.25258 -0.00323 0.01209
0.17370 0.16956 0.01882
0.05413 -0.18390 -0.00927
-0.26976 -0.00732 -0.00455
0.18202 -0.09320 0.00255
-0.03403 -0.29131 -0.00136
0.17165 0.00145 0.00691
-0.27226 -0.23926 -0.02719
0.18238 -0.01732 0.00300
0.18243 0.38083 0.03855
-0.04822 0.19509 0.01109
0.04426 0.22407 0.00864
-0.02635 0.28404 0.02246
-0.14837 -0.17558 -0.01500
0.10650 0.41418 0.03155
-0.06126 0.22053 0.00518
0.09977 -0.21982 -0.01073
0.13442 0.41114 0.02637
0.00230 0.09079 -0.00300
0.13705 -0.09591 -0.00200
-0.26131 0.29006 0.00782
0.15056 -0.28847 -0.02019
-0.03276 0.21266 0.00527
0.05826 -0.14853 -0.00491
0.08109 -0.14642 -0.00518
0.11682 -0.13342 -0.00436
-0.22907 -0.22948 -0.02410
-0.22907 -0.22948 -0.02410
-0.21807 0.01155 -0.00500
0.00889 0.25765 0.01882
0.32741 0.10864 0.01700
-0.18606 -0.30466 -0.02701
-0.22057 0.04849 0.00027
-0.22057 0.04858 0.00236
-0.25517 0.16672 0.01255
0.13978 0.18206 0.07511
-0.14419 -0.21314 -0.01846
-0.01935 0.21057 0.00982
-0.17474 -0.16333 -0.01555
-0.00216 -0.17217 -0.02337
-0.04758 -0.11762 -0.00909
0.10900 0.32109 0.01837
0.03239 -0.17738 -0.00837
-0.24753 -0.19075 -0.02173
-0.24762 -0.19125 -0.02091
-0.09186 0.10239 -0.00846
-0.01903 -0.13958 -0.02255
-0.17229 0.00095 -0.00482
0.25776 0.01898 0.01628
-0.12955 -0.14865 -0.01173
-0.12951 -0.14871 -0.01164
-0.17438 0.22510 0.00946
-0.25299 0.01216 -0.00373
-0.23098 0.09463 0.01037
0.06049 0.39525 0.03419
-0.07777 0.17804 0.01173
0.04053 0.26292 0.01937
0.13919 0.05831 0.01100
0.19875 0.38950 0.04119
0.12891 0.33237 0.01910
0.08986 -0.16495 -0.00764
-0.19584 -0.15294 -0.01537
0.20866 -0.04942 0.00827
0.12660 0.34571 0.02246
-0.18956 0.21768 0.00473
-0.28413 0.17833 0.00873
0.03294 -0.20536 -0.00600
0.26731 -0.05581 0.00555
0.12178 0.33426 0.02382
-0.04008 0.22437 0.00473
-0.12319 0.23016 0.01655
0.16974 -0.01464 0.01600
0.19338 0.39363 0.04692
-0.27777 -0.14267 -0.01910
0.12673 -0.13298 -0.00627
0.03726 0.26444 0.01564
0.31841 0.12653 0.02373
0.06613 0.21746 0.00336
-0.19866 0.26469 0.00364
-0.32150 -0.18847 -0.02401
-0.39625 -0.02455 -0.00891
-0.26385 0.04228 -0.00182
0.19338 -0.15485 -0.00527
-0.09777 -0.06897 -0.00309
0.01989 -0.13673 -0.00646
0.02721 -0.11934 -0.00209
0.02562 -0.11859 -0.00782
-0.09323 -0.13862 -0.00909
-0.03571 -0.20630 -0.00818
0.30650 -0.00596 0.00555
0.22348 -0.15760 0.00909
0.21757 -0.16686 -0.00455
-0.08982 -0.04087 -0.01064
0.35128 0.12678 0.01264
0.26749 -0.07127 0.00309
0.26135 -0.08536 -0.00036
-0.09282 -0.16849 -0.09848
0.03117 -0.14610 -0.00673
0.31846 0.16197 0.01755
0.25322 -0.10007 -0.00400
0.23971 -0.07418 0.00091
0.06231 -0.25890 -0.01509
0.28449 -0.04187 0.00573
0.15524 -0.26276 -0.01555
0.26986 0.14862 0.01700
0.23221 0.01764 0.00427
-0.13751 0.06022 0.00182
-0.08172 -0.06365 0.02246
0.30327 0.36626 0.01255
0.25899 0.55985 0.04619
0.13573 0.28252 0.01128
0.01330 -0.05447 0.00555
-0.20548 -0.19338 -0.01991
0.11268 -0.20582 -0.00918
0.11287 -0.20586 -0.00782
-0.06090 0.15228 0.01282
0.04681 -0.22198 -0.00837
0.20279 -0.08086 0.00227
0.20352 -0.08097 -0.00055
0.20357 -0.08072 -0.00100
0.36338 0.40227 0.02055
0.24494 0.19688 0.01837
0.24780 0.05363 0.01300
0.24690 0.05403 0.00991
-0.29195 -0.23669 -0.02437
0.07140 -0.18561 -0.00946
-0.09473 -0.22560 -0.01564
0.10627 -0.13539 -0.00355
0.23339 -0.08959 -0.00091
-0.08691 0.09645 -0.00400
0.23621 -0.13367 -0.00518
0.21107 -0.10461 -0.00091
0.00839 -0.12594 0.00255
0.05244 0.16197 0.01355
-0.30045 -0.22896 -0.02355
-0.08722 -0.10777 -0.02210
0.22212 -0.11632 -0.00227
-0.17984 -0.23901 -0.02255
-0.05590 -0.15847 -0.01273
-0.09491 -0.15101 -0.00127
0.23517 -0.08281 0.00109
0.01862 -0.09195 -0.00955
0.24640 0.50775 0.13658
0.07759 -0.26117 -0.01809
0.07754 -0.26124 -0.01437
0.33260 0.33646 0.02628
0.10605 -0.22719 -0.01209
0.04862 0.08163 0.00509
-0.26790 0.03030 -0.00491
-0.03676 0.08345 -0.00255
-0.10373 0.04155 0.00309
0.12269 -0.01034 0.00682
0.12219 0.29331 0.02019
0.07167 -0.14692 -0.00518
0.04558 -0.17643 -0.00464
0.22721 -0.10307 -0.00091
-0.14465 0.07186 0.00255
0.33305 0.31427 0.02819
0.04517 -0.12967 -0.00827
0.17970 0.14112 -0.01418
0.17870 -0.20670 -0.00909
0.21703 -0.12835 -0.00300
0.07204 -0.13967 -0.00591
0.30695 0.00207 0.00727
0.00852 0.14169 0.00009
0.27718 0.24780 0.02246
0.00884 -0.05560 0.00900
0.27122 0.22955 0.02010
-0.16606 -0.17574 -0.01637
0.32146 0.17306 0.01273
0.20984 -0.09868 -0.00100
-0.02707 -0.14587 0.00791
-0.26349 0.60106 0.00264
0.28363 0.17390 0.02155
0.14110 0.31223 0.02464
0.04403 -0.14114 -0.00873
0.24353 0.49522 0.04574
0.25062 0.50538 0.13539
0.33151 0.32298 0.02619
-0.06854 0.00705 0.03764
-0.32541 -0.20007 -0.02319
0.00984 0.25012 0.01982
0.03344 -0.05417 -0.03683
-0.20020 -0.23898 -0.02200
-0.00461 -0.16520 -0.01173
0.24367 0.56406 0.04728
0.24367 0.56406 0.04728
-0.20275 -0.19920 -0.02055
0.17733 -0.17347 -0.00618
-0.18443 0.01141 -0.00282
-0.05558 -0.11032 -0.00718
0.25212 0.46251 0.00737
0.04371 -0.15362 -0.00946
0.17452 0.09025 0.01364
0.33282 0.58192 0.19823
0.20398 -0.16090 -0.00373
0.20393 -0.16074 -0.00364
0.31764 0.18509 0.01309
-0.06936 0.16756 0.01073
0.31896 0.40202 0.03792
0.08195 -0.07829 -0.00400
-0.09773 0.48433 -0.00282
-0.09773 0.48433 -0.00282
-0.09241 0.20777 0.01273
0.12796 -0.15606 -0.00582
0.33810 0.29388 0.03483
0.24658 0.50109 0.13376
-0.26444 0.25481 0.00837
-0.08950 -0.19752 -0.02273
0.06013 0.27747 0.02355
-0.00457 -0.08963 -0.00582
-0.30418 0.13301 -0.00100
-0.19975 -0.16799 -0.01737
-0.19952 -0.16808 -0.01719
-0.02094 0.11353 0.00909
0.16510 -0.24517 -0.01128
0.12446 -0.16701 -0.00627
0.08127 -0.18400 -0.00718
0.08140 -0.18422 -0.00855
-0.18866 -0.09402 -0.01300
0.08654 -0.21850 -0.01337
0.20821 -0.18129 -0.00818
-0.18961 -0.19227 -0.01709
0.13837 0.08013 0.01209
0.09918 0.32223 0.04055
0.27195 -0.08177 0.00246
-0.19579 -0.05006 -0.00664
-0.00616 -0.15844 -0.02064
0.35137 0.31091 0.03146
0.30723 0.23146 0.01091
0.25381 0.07795 0.01209
-0.31246 0.15774 -0.00418
-0.31205 0.15767 -0.00491
0.12214 0.08691 0.01100
0.07331 -0.20120 -0.01046
0.13774 0.09275 0.01309
0.19479 -0.16358 -0.00555
0.19488 -0.16349 -0.00618
-0.26635 0.00918 -0.00664
-0.05863 -0.11059 -0.00164
0.26867 0.23564 0.01128
0.17424 -0.18163 -0.00727
-0.20320 -0.24183 -0.02200
0.20580 -0.10907 -0.00336
0.17079 0.09263 0.01173
0.24099 0.50334 0.13257
-0.25917 0.25963 0.02291
0.20984 -0.07695 0.00055
0.34455 0.49947 0.01428
0.28550 -0.05144 0.00091
0.27890 -0.06679 0.00264
0.00016 0.23858 0.01519
0.00930 -0.05028 0.00300
0.29786 -0.00109 -0.00291
0.09282 -0.18195 -0.00500
0.08800 -0.09018 -0.00182
0.30636 -0.00271 -0.00400
0.04690 0.09638 0.00555
0.14296 0.32216 0.00764
0.27681 0.31039 0.01673
-0.16210 -0.24821 -0.01864
-0.16210 -0.24755 -0.02146
0.16892 -0.18024 -0.01109
-0.08563 0.45919 0.00473
-0.28509 -0.15099 -0.02291
-0.28622 -0.15072 -0.01982
0.20380 -0.15356 -0.00427
-0.02730 -0.18518 0.00100
-0.25585 0.26731 0.02601
-0.00743 0.11603 0.01128
-0.00216 -0.04787 0.00009
0.21521 0.01332 -0.00500
0.25117 -0.11994 -0.00855
-0.10959 0.02967 0.00091
0.08513 -0.16040 -0.00655
-0.05253 -0.17431 0.00255
-0.05144 -0.17472 -0.00264
0.01525 -0.04894 0.00418
0.29200 0.22498 0.03364
-0.00157 -0.15276 0.00082
-0.24162 -0.04569 -0.00873
-0.12378 0.01935 0.00418
0.06881 -0.21348 -0.01164
0.17656 -0.16435 -0.00573
-0.15478 -0.17658 -0.01537
-0.20802 -0.20775 -0.02255
0.24062 0.57722 0.03655
-0.00484 -0.15772 -0.01173
0.17852 -0.16019 -0.00500
-0.33051 0.30832 0.00946
0.14542 0.29577 0.00409
0.34760 0.50052 0.00400
0.32419 0.19641 0.00391
0.19379 0.52889 0.03301
0.19129 0.18825 0.01328
0.00684 -0.13830 -0.00918
0.10814 -0.17140 -0.00655
-0.13542 -0.25867 -0.01919
-0.13428 -0.25769 -0.02010
0.29318 -0.01664 -0.00573
0.06349 -0.18370 -0.00846
0.31787 0.57522 0.19132
0.35510 0.31934 0.02910
0.02207 0.04722 0.00546
0.34583 0.35912 0.02728
0.28218 0.22621 0.01619
-0.13214 -0.16081 -0.01246
0.10905 -0.12682 -0.00346
0.16092 0.21377 0.02046
0.31864 0.17502 0.00837
0.31864 0.17502 0.00837
-0.26322 0.24842 0.00964
-0.26322 0.24842 0.00964
0.07777 -0.21402 -0.00755
0.16901 -0.08554 -0.00164
0.06786 0.24319 0.01428
0.00702 -0.14276 -0.00709
-0.24599 0.14089 0.00318
-0.24640 0.14055 -0.00045
-0.00662 -0.14576 0.00082
-0.16670 -0.24019 -0.02046
0.16801 -0.08422 0.00091
-0.23912 -0.12923 -0.02228
0.25208 0.05383 0.01682
-0.14660 0.10370 0.00627
-0.01203 -0.18159 -0.01137
-0.05463 0.17199 0.01100
0.03108 -0.02439 -0.02119
0.35060 0.42205 0.02391
-0.11382 -0.07770 -0.00755
0.24735 -0.09995 -0.00064
0.17884 -0.10848 -0.00273
0.17897 -0.10857 -0.00273
0.21048 -0.13710 -0.00291
-0.24476 0.20000 -0.00364
0.20611 -0.16679 -0.00837
-0.21775 -0.26008 -0.02437
-0.18015 -0.21312 -0.01919
-0.30118 0.12014 -0.00082
0.22016 0.50493 0.04065
0.08781 -0.22844 -0.00727
-0.24712 -0.24185 -0.02546
0.16429 -0.11130 -0.00273
0.16838 -0.09282 -0.00737
0.24499 -0.13335 -0.00209
0.28440 0.21521 0.02246
-0.25094 -0.15613 -0.02764
-0.26635 0.02069 -0.00682
0.05804 0.04728 -0.00618
0.30509 0.17008 0.01682
0.27276 -0.07495 0.01037
-0.11691 0.04571 0.00127
0.33637 0.19220 0.00709
0.16633 -0.09900 -0.00200
-0.12014 0.02776 0.00346
0.35446 0.12012 0.00637
0.23371 0.57576 0.03383
0.23371 0.57576 0.03383
-0.00984 -0.09402 0.00727
-0.09350 0.07834 0.02746
0.14787 0.07620 0.01428
-0.09100 0.00750 0.01128
-0.26531 0.13553 0.00191
0.13032 0.15674 0.01509
0.21534 -0.17711 -0.00582
0.09009 -0.21207 -0.01009
-0.13646 -0.24510 -0.02000
0.21889 -0.17211 -0.00837
0.25376 -0.08620 0.00218
0.14224 -0.17877 -0.01046
0.12528 0.06201 0.01182
-0.12919 -0.17754 -0.01346
-0.12919 -0.17754 -0.01346
0.27263 0.14039 0.01446
0.24685 -0.06513 0.00182
-0.05690 0.16836 0.03146
-0.15256 -0.15676 -0.01409
0.27599 0.14651 0.01800
-0.21212 -0.02582 -0.00782
0.16115 -0.25512 -0.01600
0.01694 -0.00966 0.00536
0.29236 0.21434 0.01228
0.09350 0.03687 0.00027
0.09427 0.03935 0.00691
-0.13992 -0.20332 -0.01664
-0.05372 -0.16833 -0.01200
-0.02266 -0.09575 -0.00418
0.33014 0.26801 0.03901
-0.27081 -0.18525 -0.02119
-0.27013 -0.18486 -0.02182
-0.29722 0.13098 -0.00055
0.14774 -0.06170 -0.00009
0.13837 -0.14787 -0.00546
0.24071 -0.04703 0.00409
-0.08877 -0.17236 -0.01537
0.01112 0.01546 0.03028
0.02839 -0.15372 -0.00573
0.26549 0.51116 0.03892
-0.05735 -0.17674 -0.01309
0.27995 -0.06924 -0.00764
-0.26226 0.57563 0.00164
0.07104 -0.22323 -0.01328
0.00571 0.05106 0.03055
-0.10673 0.10968 0.02519
-0.09013 0.19077 0.01218
0.26576 0.14612 0.01991
0.09004 0.42464 0.03246
0.15515 -0.16483 -0.00882
0.06899 -0.17063 -0.00673
0.00152 0.09007 0.00045
0.00207 0.08986 0.03128
0.33114 0.46940 0.02882
-0.12232 -0.25367 -0.02064
0.32764 0.27388 0.03674
0.32764 0.27388 0.03674
-0.17697 -0.09734 -0.01182
-0.15356 -0.22087 -0.01964
-0.34510 0.22141 -0.01173
0.31955 0.60261 0.02355
0.32287 0.14756 0.00882
0.16256 -0.12441 -0.00573
0.10405 -0.12500 -0.00427
0.20157 -0.19213 -0.00809
-0.29054 -0.20520 -0.02446
0.26899 0.21118 0.01173
0.23503 -0.11541 -0.00264
0.17524 -0.18579 -0.00846
0.22194 -0.07649 0.00100
-0.02635 0.18956 0.00491
-0.02194 0.24205 0.02301
-0.11478 -0.24987 -0.01991
-0.01103 -0.19436 -0.00673
0.31346 0.04371 0.00164
-0.29491 0.09843 -0.00145
0.33978 0.12560 0.01082
0.22362 0.34062 0.01309
-0.20389 -0.22132 -0.02637
0.11528 0.60111 0.02355
0.15315 -0.17477 -0.00991
-0.22785 0.04851 -0.00091
0.19029 -0.01378 -0.00373
-0.00402 -0.16949 -0.00927
-0.29254 -0.10157 -0.01809
0.05035 -0.21903 -0.01364
0.33569 0.11180 0.01118
-0.05413 -0.03846 0.03010
0.34583 0.25110 0.02482
-0.13496 -0.23623 -0.01318
-0.13587 -0.23653 -0.01664
-0.04162 0.17245 0.02673
-0.35474 0.18352 0.00027
0.12178 0.56242 0.03619
0.09468 -0.14874 -0.00291
-0.01507 -0.17220 -0.00891
-0.26049 0.00364 -0.00327
-0.15133 -0.16029 -0.01464
0.13714 0.19152 0.00837
0.13101 0.16672 0.00018
0.00552 0.06849 0.00718
-0.02562 0.21380 0.02555
0.28577 0.24585 0.01473
-0.12805 -0.21759 -0.01719
-0.13232 -0.00821 -0.01064
-0.05344 -0.11832 -0.00200
0.11537 -0.16083 -0.00673
0.24330 0.22603 0.02328
0.24289 0.22773 0.02773
-0.11291 0.04587 0.00246
-0.00434 0.04358 -0.00946
0.12623 -0.20145 -0.00982
0.19520 0.21189 0.00064
0.26431 0.56344 0.16795
0.06754 -0.22928 -0.01046
-0.06417 0.16733 0.02119
0.16915 0.23510 0.01728
0.15078 0.03308 0.00973
0.24035 0.50909 0.04419
-0.03817 -0.03924 -0.01273
0.32555 0.27472 0.03828
0.23971 -0.14485 -0.00527
0.18893 -0.18829 -0.00718
-0.24321 -0.23755 -0.02391
0.12414 0.61811 0.02437
-0.05881 -0.10145 -0.00600
-0.13110 -0.18397 -0.01591
0.17061 -0.13942 -0.00591
-0.10032 0.19727 0.01555
-0.10032 0.19727 0.01555
0.13601 0.08825 0.01409
-0.18443 -0.07304 -0.00909
-0.34333 0.29247 0.00527
-0.03267 0.22657 0.02455
-0.06526 -0.04976 0.01937
-0.19793 -0.17479 -0.01746
-0.28309 -0.16740 -0.02391
-0.25967 -0.24833 -0.02301
-0.25976 -0.24846 -0.02328
0.13242 0.09207 0.01282
0.04399 0.06833 0.00691
0.20961 -0.18477 -0.00891
-0.18056 -0.00018 -0.00436
0.30814 0.18004 0.02537
0.35715 0.12857 0.00236
0.11346 0.07356 0.00527
0.19352 -0.20821 -0.00927
0.19343 -0.20821 -0.00927
-0.30873 0.17172 0.00155
0.07077 -0.15924 -0.00591
0.24108 -0.11316 -0.00182
-0.24940 0.24924 0.03119
-0.05103 -0.10782 -0.00482
-0.25240 -0.15117 -0.02601
0.04080 -0.11734 -0.01064
-0.25958 -0.13992 -0.01964
0.29145 0.40509 0.03128
-0.26513 0.06886 0.00036
-0.22525 0.02744 -0.00036
-0.15942 0.14603 0.02628
-0.15942 0.14603 0.02628
-0.26490 -0.19663 -0.01964
0.22766 0.58672 0.04801
-0.10832 -0.20907 -0.01728
-0.03294 0.21230 0.03010
0.13796 0.20345 0.00082
-0.22612 0.28700 0.02537
0.10186 -0.18211 -0.00737
0.33128 0.28065 0.03110
0.33132 0.28065 0.03028
-0.22803 -0.07549 -0.01037
-0.20061 0.55087 -0.00145
0.30350 0.09318 0.01500
-0.29195 -0.00748 -0.02373
-0.29336 0.09691 0.00164
0.12919 -0.12805 -0.00382
0.17415 0.25231 0.01664
-0.23953 -0.24112 -0.02291
-0.20866 -0.15949 -0.01746
-0.08872 0.18229 0.00291
-0.13296 -0.25258 -0.02210
0.18415 -0.05078 -0.00236
0.18415 -0.05078 -0.00236
0.13323 0.19154 0.00318
-0.05631 -0.17097 -0.00855
-0.12614 -0.22714 -0.01591
-0.16897 -0.16826 -0.01564
-0.22926 -0.14419 -0.02646
-0.23071 -0.06979 -0.01437
-0.27567 0.27420 0.00946
0.08836 0.25131 0.02482
0.18011 -0.06513 0.00136
-0.16820 0.45449 0.00118
0.05981 0.25576 0.03537
0.34055 0.17613 0.01364
-0.21521 -0.02944 -0.00737
-0.10923 0.18727 0.01273
-0.18147 0.18534 0.01500
0.12410 -0.10750 -0.00382
0.17324 0.14517 0.01719
-0.27477 -0.20536 -0.02355
-0.20821 0.22719 0.02601
0.09568 -0.13567 -0.00236
-0.24185 0.25158 0.02855
-0.24239 0.25272 0.04201
-0.31477 -0.06820 -0.01619
0.05008 0.15617 0.01628
0.30632 0.42218 0.04628
0.17065 0.06397 0.01155
0.17015 0.06408 0.01418
0.14760 0.02321 0.01655
0.01639 -0.01273 0.02055
0.14219 0.41959 0.03692
0.02680 -0.15960 -0.01546
0.15719 0.05751 0.00737
0.27504 0.20739 0.01882
-0.11841 0.18575 0.01655
0.03344 0.08429 0.00200
0.14401 -0.13242 -0.00655
0.33396 0.11337 0.01591
-0.26217 0.58522 -0.00346
0.26981 0.27631 0.03064
0.06717 0.39584 0.03601
0.18720 -0.06158 -0.00282
0.13196 0.17936 0.00300
-0.04853 0.08784 0.01891
-0.29432 -0.17556 -0.02064
-0.08741 0.50200 -0.00055
-0.21548 0.23867 0.03228
-0.06217 -0.15756 -0.00755
0.19893 -0.04671 0.00718
-0.21061 -0.19834 -0.01746
0.31773 0.43055 0.04901
0.30868 0.38684 0.08929
0.33746 0.40666 0.04983
0.12973 0.26185 0.00236
0.13001 0.26113 -0.00036
0.12951 0.26251 0.00727
0.35037 0.37213 0.02855
0.31423 0.31464 0.02546
-0.20439 0.02078 -0.00164
0.24085 -0.04706 0.00300
0.25653 -0.03535 0.00246
0.15056 -0.19245 -0.00964
0.07199 -0.13055 -0.00536
-0.08982 -0.16065 -0.01100
0.21171 -0.17556 -0.00682
-0.11628 0.09313 0.01500
-0.03385 0.03646 0.01046
0.09018 -0.01700 0.00527
0.13519 -0.19729 -0.00791
-0.01848 0.10516 0.01309
-0.04367 0.83062 0.12821
-0.04367 0.83062 0.12821
-0.08231 0.09513 0.01500
-0.18011 0.75435 0.02846
0.36688 0.42114 0.03592
0.36419 0.44980 0.02973
-0.03248 0.09229 0.01109
0.36379 0.18854 0.00900
0.22989 -0.14687 -0.00364
0.14656 -0.05849 0.00255
0.12073 0.62337 0.01318
-0.15983 0.77190 0.03410
-0.04326 -0.04390 0.00718
-0.04326 -0.04390 0.00718
0.05303 0.68447 -0.02100
-0.15856 -0.09052 -0.00536
-0.15856 -0.09052 -0.00536
-0.20293 0.70479 0.02173
0.04467 -0.20414 -0.00964
0.24940 0.00989 0.00018
0.04617 -0.22094 -0.01028
-0.09095 0.09248 0.01364
-0.05667 -0.15897 -0.00355
0.38574 0.43264 0.03564
0.03148 0.51618 0.00336
0.16397 -0.09147 0.00064
0.06099 0.64569 -0.00664
0.07827 0.61625 0.01128
-0.05494 0.19259 0.01700
-0.16229 -0.25558 -0.01882
0.19316 0.19650 -0.00073
-0.10250 0.09600 0.01655
-0.13824 0.74135 0.03737
-0.12678 0.81113 0.03701
-0.12678 0.81113 0.03701
0.13278 0.01071 0.00691
0.25367 -0.03026 -0.00827
-0.12960 0.82921 0.03937
-0.12960 0.82921 0.03937
-0.14160 0.78211 0.03664
-0.20370 0.73414 0.02601
0.09764 -0.17711 -0.01246
0.39161 0.40968 0.03255
0.22794 -0.08127 -0.00155
-0.17024 0.75708 0.02164
0.06863 -0.17833 -0.00473
0.36288 0.19995 0.01100
-0.18161 -0.22769 -0.02064
-0.18152 -0.22766 -0.02110
-0.02457 0.86890 0.22196
0.17365 0.36460 0.00309
0.23676 0.33637 -0.00264
0.21489 0.28925 -0.00627
-0.03167 0.84187 0.15340
0.18761 -0.16981 -0.00436
0.04394 -0.18934 -0.00873
0.11655 -0.19623 -0.00637
-0.12582 0.78883 0.04928
-0.15242 0.79693 0.02701
-0.18716 0.71743 0.02110
0.39561 0.43853 0.03937
-0.13423 0.80900 0.03574
-0.06863 0.01162 0.00573
0.30591 0.56683 0.06565
-0.00852 -0.16279 -0.00045
-0.27681 -0.24542 -0.02537
-0.17042 0.81943 0.04474
0.19802 0.22189 -0.00036
0.10441 -0.01614 -0.00382
0.13119 0.09179 -0.01655
-0.02244 -0.18829 -0.00500
0.30473 0.09516 0.00291
0.01662 0.16983 0.00882
-0.20798 0.74989 0.02519
0.33155 0.16445 0.00536
0.04690 0.01621 -0.00937
0.08763 -0.22794 -0.00691
-0.03967 -0.10193 -0.00200
-0.07331 0.83557 0.06965
0.18415 0.02496 -0.00591
0.08891 0.57556 0.02573
0.00102 0.12075 0.01182
0.19375 -0.15492 -0.00482
-0.00825 -0.17204 -0.00346
-0.28099 0.32139 0.01073
-0.04644 0.08234 0.01028
-0.04312 0.81263 0.12185
0.33401 0.45883 0.03419
0.24867 -0.08561 -0.00209
0.05390 -0.20198 -0.00855
0.05390 -0.20198 -0.00855
0.18047 -0.20430 -0.00655
0.18047 -0.20430 -0.00655
0.29227 0.38368 0.02946
0.19893 -0.04542 -0.00427
0.19888 -0.04640 -0.00418
0.22162 -0.07734 -0.00236
-0.06940 0.85319 0.06765
0.05631 -0.13608 -0.00446
-0.05453 0.81548 0.10593
0.02566 0.16590 0.00900
0.09809 0.62439 0.01600
0.10000 0.61245 0.01982
0.05340 -0.25674 -0.00809
-0.23989 -0.27081 -0.02737
0.02012 -0.13401 -0.01209
-0.00411 0.23742 0.01609
-0.35101 -0.05181 -0.04574
-0.57224 0.04885 0.02391
-0.02889 -0.20514 -0.00518
-0.02889 -0.20514 -0.00518
-0.11127 -0.11230 0.05910
0.03062 -0.12726 -0.00100
-0.21789 -0.25283 0.00136
-0.12987 0.09061 0.00927
-0.10727 0.18097 0.02910
-0.10727 0.18097 0.02910
-0.09259 -0.16717 0.00109
-0.03485 0.03926 0.01173
-0.01193 -0.19416 -0.01028
-0.09495 -0.18615 0.00637
-0.19520 -0.34821 -0.00473
-0.68072 0.34430 0.24751
-0.34237 -0.17647 -0.02482
-0.09327 -0.18197 0.00737
-0.15128 0.12635 0.01555
-0.08481 -0.14003 0.00982
-0.09782 -0.15999 0.01337
-0.01053 -0.18834 -0.01046
-0.85089 0.36701 0.40027
-0.08995 -0.21371 -0.00473
-0.01539 -0.18750 -0.01137
-0.09359 -0.20809 0.00364
0.21871 -0.15824 -0.02064
-0.02185 -0.14778 0.00027
-0.01553 0.88122 0.24178
-0.27008 0.28893 0.01364
-0.06108 0.15133 0.01328
-0.15074 -0.29959 -0.00336
0.01971 -0.10323 0.01582
-0.09145 -0.23176 0.00145
-0.57201 0.31602 0.17913
-0.04017 -0.16658 -0.02119
-0.33337 -0.18652 -0.02564
-0.09818 -0.26317 -0.00564
-0.09568 -0.12537 0.01519
-0.09504 -0.19195 0.00546
-0.02326 -0.18579 -0.01173
0.10309 -0.24951 -0.00246
-0.26595 -0.26497 -0.03955
-0.09473 -0.19798 0.00518
-0.02648 0.09400 0.00964
-0.04021 0.08631 0.01155
0.04844 0.07613 0.00800
-0.56287 0.29804 0.16904
-0.30700 -0.22171 -0.02428
-0.42198 0.05767 -0.05465
-0.42198 0.05767 -0.05465
-0.09313 -0.19006 0.00873
-0.69213 0.22562 0.09766
0.07740 -0.13853 -0.00837
-0.35142 -0.16179 0.00109
-0.10045 0.08347 0.00491
-0.13664 0.07745 -0.01837
-0.05181 0.03167 0.01100
-0.15747 0.11450 0.00637
0.02412 -0.14283 0.02046
-0.24358 0.12896 0.00309
-0.24358 0.12896 0.00309
-0.37433 -0.01393 -0.01209
-0.09104 -0.20502 0.00609
-0.13846 -0.17495 -0.00455
-0.17429 -0.17820 -0.00546
-0.33728 -0.14190 -0.08684
-0.42598 0.07149 -0.05056
-0.10750 0.16645 0.02537
-0.17124 -0.11375 -0.01128
-0.12332 0.00461 0.00646
-0.07913 -0.31505 -0.01200
0.04862 -0.25351 -0.01309
-0.45708 0.65048 -0.32644
0.12100 -0.20748 -0.00373
0.00425 0.05704 0.01091
-0.15547 0.99847 0.06001
-0.58383 0.31271 0.17404
0.20734 -0.17708 -0.02155
-0.00384 -0.15090 -0.00600
-0.76619 0.37233 0.32716
0.02607 -0.15385 0.01764
-0.13451 0.22914 0.01655
-0.13373 0.22730 0.00973
-0.17001 -0.05378 -0.00364
-0.16897 -0.05390 -0.00091
0.00057 0.00018 0.00500
-0.46985 0.04174 -0.06420
0.18147 0.02980 -0.00455
-0.26067 -0.00346 -0.02928
-0.31650 -0.20170 -0.02310
-0.00257 0.22271 0.02000
-0.24117 0.96033 0.01910
-0.10718 0.19088 0.02864
-0.15724 0.02714 0.04583
-0.35019 -0.05131 -0.04783
-0.18393 -0.34403 -0.03810
-0.56969 0.17345 0.06092
-0.16138 -0.21450 -0.00336
-0.15256 -0.20918 -0.01982
-0.19566 -0.23357 -0.01218
-0.24408 -0.28645 -0.05792
0.07849 -0.25358 -0.01128
-0.01798 0.02821 0.02237
-0.34510 -0.08338 -0.05647
-0.23344 0.09554 0.00009
-0.02953 -0.31325 0.03746
0.19211 0.05017 -0.00436
0.14187 -0.01989 0.00891
0.09523 -0.17245 -0.00964
-0.46181 0.16986 0.04919
-0.30782 -0.01325 0.01000
-0.41080 0.23012 -0.01046
-0.17833 -0.26906 -0.00155
0.05085 -0.16092 -0.00473
0.07563 0.01869 0.02091
-0.38097 -0.01644 -0.05019
-0.11759 0.01164 0.00009
0.08650 -0.15931 -0.00782
-0.05540 0.19054 0.01473
0.15456 0.05331 -0.00518
0.07290 -0.17556 -0.00846
-0.18938 -0.14749 -0.01809
-0.41480 -0.02273 0.00818
0.09786 -0.17511 -0.00091
0.18243 -0.08816 -0.00764
0.18224 -0.06779 0.00318
0.18293 -0.06763 -0.00136
-0.25485 0.02817 -0.01591
0.16965 -0.14442 -0.00455
-0.32832 -0.08713 -0.04619
0.05576 -0.16520 -0.15385
0.17561 0.03355 -0.00455
-0.15810 -0.22530 -0.00309
-0.49195 0.15228 -0.05428
-0.27117 -0.02528 -0.01128
0.05485 -0.15710 -0.00327
0.05440 -0.15508 -0.00346
-0.22780 0.14128 0.02064
0.15588 0.23116 0.04437
0.16942 0.00055 -0.00136
-0.24039 -0.02598 -0.01519
-0.27718 -0.51664 0.55821
-0.21593 -0.23662 0.00191
0.19443 -0.10668 -0.00391
-0.32473 -0.08641 0.00155
-0.44403 0.16813 0.03137
-0.18152 -0.08620 -0.00773
0.17102 0.08318 -0.00364
-0.35228 -0.04217 0.00655
0.12841 0.25208 0.02064
0.15483 0.05344 -0.00536
0.19134 -0.11555 -0.00982
-0.31609 -0.07040 -0.00191
-0.73846 0.28856 0.19859
-0.71495 0.30432 0.25569
-0.28340 -0.16022 -0.01837
0.04876 0.14774 0.00891
-0.21793 -0.08993 -0.01146
0.12532 0.19552 -0.82264
0.03667 0.08522 0.01318
-0.05390 0.07847 0.00764
-0.17593 -0.04678 -0.00573
-0.31141 0.23032 0.00418
-0.31250 0.23066 0.00773
-0.17379 -0.33903 -0.03555
-0.21034 0.23621 -0.65387
0.13287 0.04665 -0.00364
0.16042 0.24985 -0.93293
-0.35897 0.01266 -0.03537
0.01007 -0.03935 -0.00127
0.10750 -0.05744 -0.00164
0.17952 -0.08427 0.00091
-0.09445 -0.16113 -0.00255
-0.01403 -0.20298 -0.00937
0.13101 0.28911 0.02337
0.08913 -0.01632 0.00746
-0.44335 -0.11564 0.00518
0.14042 -0.18706 -0.00773
-0.59670 0.24467 0.10475
-0.60220 0.25203 0.12366
-0.35101 -0.16076 -0.02746
-0.00307 -0.04049 -0.00827
-0.35328 -0.13492 -0.05610
-0.56015 0.26667 0.14394
-0.13987 0.13824 0.01418
-0.01243 -0.20923 -0.01100
-0.53564 0.27620 0.13639
-0.48440 0.16845 0.04119
-0.42939 0.07440 -0.05356
-0.60002 0.22932 0.09739
-0.23662 -0.27251 -0.00127
-0.41434 -0.11634 0.00018
-0.22303 -0.22100 0.00100
-0.36192 -0.06624 0.00536
-0.43471 -0.06467 -0.00127
-0.66831 0.27981 0.17768
-0.10109 -0.18140 0.11666
-0.22603 -0.00048 0.00355
-0.05831 0.08015 -0.00045
-0.20807 -0.25015 -0.03083
-0.44985 0.08677 -0.05574
-0.33837 -0.17274 -0.00500
-0.40857 -0.06395 0.00573
-0.02526 -0.14581 -0.01800
-0.26876 0.29438 0.00482
-0.54837 0.28193 -0.03419
-0.46144 0.05019 0.01137
-0.25081 -0.14474 -0.02391
-0.47426 0.23046 0.08975
-0.47426 0.23046 0.08975
-0.20730 0.22710 0.00164
-0.50882 0.08550 0.02455
-0.26099 -0.23248 -0.04556
-0.45180 0.07424 -0.03910
-0.23971 0.25140 -0.00055
-0.26795 -0.47317 0.51457
-0.42393 -0.08875 0.00264
-0.05740 -0.12032 -0.00846
0.18947 -0.20000 -0.01764
-0.10714 0.11093 0.00055
-0.29709 -0.24180 -0.00209
-0.07149 0.09018 0.00182
