# .PCD v.7 - Point Cloud Data file format
VERSION .7
FIELDS x y z
SIZE 4 4 4
TYPE F F F
COUNT 1 1 1
WIDTH 1675
HEIGHT 1
VIEWPOINT 0 0 0 1 0 0 0
POINTS 1675
DATA ascii
-0.01526 -0.00844 -0.08952
-0.00381 -0.00912 -0.06432
-0.00613 0.00011 -0.05488
0.02968 -0.03074 0.00204
0.03205 -0.04346 0.02082
0.00770 -0.07983 0.03712
0.04597 0.01624 0.00449
0.06929 0.03551 -0.02831
-0.00472 0.00734 -0.22272
0.05005 0.00012 0.08600
-0.01249 -0.00915 -0.16122
0.00473 0.01149 -0.13035
0.00218 -0.01734 -0.09727
0.00907 -0.00137 -0.09648
-0.00888 0.00224 -0.05330
-0.01867 0.00025 -0.26949
0.01466 0.02043 -0.10245
0.00133 0.01185 -0.18778
0.00172 0.02007 -0.19755
0.01991 -0.05353 0.09382
0.01425 -0.05949 0.04104
-0.01426 -0.01632 0.09970
-0.00365 -0.00078 -0.04336
0.00632 0.01320 -0.05042
0.00041 0.00989 -0.17999
0.04408 -0.00905 0.01171
0.00969 -0.08609 0.08876
0.04627 0.00680 0.02448
0.03249 -0.02841 0.02405
0.01464 -0.04259 0.04049
0.00585 -0.01277 -0.02024
0.04894 -0.00095 0.01866
0.00372 -0.07952 0.02386
0.00326 0.00725 -0.21124
0.02557 -0.00913 -0.05226
0.00592 0.00308 -0.09254
0.03086 -0.02311 0.04663
0.04551 0.01824 0.03004
0.01353 -0.02927 -0.04963
0.04312 -0.00273 0.03242
0.01017 -0.03889 0.01463
-0.03538 0.04484 -0.12670
-0.04753 0.02897 -0.13966
0.02120 -0.01372 0.00550
0.01924 -0.01174 -0.01698
0.02831 -0.00295 0.08420
0.01888 -0.00121 -0.01660
-0.06165 0.03244 -0.13158
0.01631 0.03847 -0.12875
0.03690 -0.02586 0.02190
0.00098 -0.08772 0.02373
0.01179 0.03481 -0.13611
0.01657 0.03984 -0.12882
0.02690 0.03117 -0.14037
0.03906 0.01398 -0.17096
0.03885 0.01910 -0.10096
-0.01234 0.00526 -0.24697
-0.00925 0.00479 -0.24383
0.03412 0.00480 -0.01729
0.03191 0.00476 -0.03695
0.01131 -0.03794 -0.01744
-0.05278 0.04015 -0.13649
0.01489 0.01064 -0.05225
-0.00184 0.00828 -0.22467
0.01472 0.00174 -0.03337
0.00846 -0.06512 0.00667
-0.00267 0.00776 -0.22315
-0.00189 0.00885 -0.22256
-0.00202 0.00879 -0.22614
-0.03586 0.02305 -0.14457
-0.04557 0.02311 -0.19422
-0.03663 -0.00167 0.06461
0.01911 0.03683 -0.12186
0.02473 -0.03421 -0.01828
0.01101 -0.04121 0.00997
0.00550 -0.10657 0.07766
-0.00984 -0.07627 0.04181
-0.00265 -0.04306 0.01006
0.00225 0.01008 -0.23036
-0.01080 0.00376 -0.25073
-0.00976 0.00450 -0.25004
0.00279 0.01013 -0.22906
-0.01645 -0.00911 -0.18788
0.03837 0.01056 -0.14450
-0.03511 0.02299 -0.13596
-0.00970 -0.00544 -0.20201
-0.00974 -0.00694 -0.19447
-0.04528 0.01950 -0.19167
-0.01535 -0.00156 -0.22786
-0.01528 -0.00166 -0.22240
-0.01097 -0.00292 -0.20706
-0.01626 -0.00023 -0.22964
-0.06512 0.02568 -0.07748
-0.00501 0.00762 -0.24393
0.02449 0.01380 -0.12589
0.01163 0.03532 -0.12957
-0.02383 0.04487 -0.11828
-0.01301 -0.02475 -0.08240
-0.00883 -0.11401 0.03731
0.00907 -0.01098 -0.05491
0.00637 0.01670 -0.14851
-0.05312 0.03245 -0.12213
0.00200 -0.01494 -0.06506
-0.05254 0.03357 -0.14120
-0.01819 0.03680 -0.13864
-0.00138 0.00495 -0.24063
-0.01556 0.04005 -0.14179
-0.00147 0.00507 -0.24071
-0.00144 0.00507 -0.24077
-0.00147 0.00507 -0.24083
-0.00146 0.00507 -0.24078
-0.03113 0.02234 -0.15612
-0.02792 0.02730 -0.16218
-0.00137 0.00494 -0.24058
-0.00144 0.00506 -0.24077
-0.00147 0.00506 -0.24088
-0.00154 0.00506 -0.24038
0.05073 -0.00266 0.01599
0.04096 0.01017 -0.16615
-0.02928 0.02260 -0.14326
-0.04720 0.01834 -0.18611
-0.05074 0.02991 -0.13450
0.01486 0.04394 -0.12705
0.06118 -0.06803 0.18583
0.01437 0.03572 -0.12767
-0.04946 0.04023 -0.15022
-0.01562 0.04266 -0.12878
0.03085 0.03321 -0.06047
0.00903 -0.04297 0.00307
-0.00298 0.01878 0.08327
0.00825 -0.06772 0.04110
-0.04178 0.00330 -0.13446
0.02664 -0.01024 -0.01082
0.04116 -0.01849 0.01705
-0.00962 -0.09188 0.04754
-0.00272 -0.13092 0.09344
-0.00760 0.00487 -0.23042
0.01268 -0.03282 -0.07858
-0.00445 0.01107 -0.14451
-0.05229 0.02516 -0.16432
-0.04844 0.03721 -0.14917
-0.01661 0.00854 -0.00715
-0.01739 0.03250 -0.15693
0.01199 -0.03289 -0.00216
0.03750 -0.02225 0.00851
0.02263 0.03352 -0.06828
-0.00329 0.01364 -0.14580
-0.05909 0.04213 -0.14193
0.00167 0.01059 -0.18313
0.00838 0.02642 -0.05054
-0.00786 0.00502 -0.23279
0.00696 -0.06311 0.01300
0.01453 0.03806 -0.10892
0.01660 -0.00461 0.01682
-0.01556 -0.03428 0.01062
0.01429 0.01054 -0.17277
0.01209 0.01504 -0.01755
-0.01777 -0.00954 0.00326
0.03659 0.03655 -0.12491
0.06142 -0.10213 0.26343
0.06093 0.01272 -0.10544
-0.06942 0.02142 -0.14892
0.02195 -0.05273 0.00240
-0.01621 -0.02371 -0.02769
0.03076 0.01289 -0.07235
0.01379 0.03869 -0.13755
0.02900 0.02493 -0.03452
0.00201 -0.03250 -0.00822
-0.03558 0.00221 -0.00894
0.00422 0.01309 -0.15753
0.00240 -0.10632 0.03871
-0.03481 -0.01547 -0.00287
0.06021 0.04421 -0.13045
-0.01913 0.00994 -0.14444
0.04975 -0.06168 0.12764
-0.01104 0.00530 -0.22964
-0.03255 0.03474 -0.15056
-0.02657 0.00683 -0.00800
0.00998 0.00128 -0.08323
-0.01203 0.01121 -0.21426
0.01514 -0.04862 -0.03465
0.02222 0.01160 -0.11648
0.04422 -0.01785 -0.00142
-0.07324 0.02631 -0.14222
-0.02156 -0.01717 0.00576
-0.05050 0.04084 -0.13405
-0.02080 0.00110 -0.26762
-0.02007 -0.01052 -0.00158
0.00362 -0.01436 0.00731
-0.01748 -0.00618 -0.00038
-0.07185 0.02794 -0.14656
-0.03637 0.01812 -0.00050
-0.01446 0.00551 -0.00148
-0.05832 0.02220 -0.08850
0.01523 -0.02655 -0.01227
-0.00142 -0.01820 0.09173
0.00767 -0.07647 0.03202
0.01897 -0.04146 0.00793
-0.02505 0.01226 -0.02185
0.02537 -0.02418 0.02906
0.00713 -0.04501 0.03131
-0.02354 0.04094 -0.14517
0.00396 0.00703 -0.13706
0.00978 -0.05276 -0.01063
-0.00330 0.00487 -0.22458
-0.01928 -0.00820 -0.01169
0.00048 -0.01132 -0.04316
0.00922 0.01962 -0.12275
-0.02264 0.03929 -0.13135
0.00502 -0.06848 0.05124
-0.04829 0.03338 -0.16297
-0.05320 0.03844 -0.16705
0.01110 -0.03893 0.00372
-0.00830 -0.07610 0.05854
0.03609 -0.00975 0.00856
-0.00765 -0.05191 0.00579
-0.01075 0.00612 0.03270
-0.00470 -0.09308 0.01167
0.02356 -0.03871 0.01332
-0.03149 0.00400 -0.01269
0.02802 0.02926 -0.04230
0.01355 0.00010 -0.14771
0.05536 0.12833 0.44336
0.02070 0.00000 -0.00010
0.02924 0.02208 -0.00470
0.04320 -0.00225 0.01229
-0.01265 0.00232 -0.21851
-0.06820 0.03191 -0.14877
0.03916 -0.02549 0.01107
0.00038 0.00646 -0.20881
-0.06957 0.02038 -0.14685
0.02765 0.03287 -0.04008
-0.03127 0.03037 -0.15408
-0.00900 -0.03370 -0.01581
-0.02423 0.02580 0.00934
-0.00662 -0.08079 0.00667
0.09185 0.04326 -0.08857
0.05349 0.01364 -0.08624
-0.01757 0.04208 -0.13965
0.02859 0.01105 -0.07275
-0.00387 -0.07389 0.06226
0.03145 0.01587 -0.11849
0.00728 -0.08727 0.05096
0.02475 -0.03815 0.00808
-0.01698 0.00888 -0.21573
0.01278 0.01386 -0.13942
0.01341 -0.03339 -0.03462
0.00311 -0.03804 0.03624
0.00933 -0.03746 -0.03031
-0.02707 -0.02245 -0.00421
-0.00768 0.00758 -0.22615
-0.01043 -0.01975 -0.01285
-0.01982 0.03586 -0.14096
-0.01269 -0.05653 0.00126
-0.00450 -0.07411 0.01596
-0.00981 0.00506 -0.22576
0.00606 -0.07054 0.04017
0.02808 0.00594 -0.07538
-0.00224 0.01295 -0.21376
-0.00646 -0.08473 0.03892
-0.02003 -0.00242 -0.00997
0.00491 -0.05552 0.00543
-0.03191 0.01420 -0.20831
-0.04234 0.01356 -0.18841
-0.04578 0.04228 -0.14129
0.00700 -0.00434 0.02248
-0.01544 0.01005 -0.22697
-0.01495 0.01042 -0.22570
-0.00969 -0.09633 0.04217
0.00054 0.00709 -0.21907
-0.00353 0.00652 -0.14022
0.00241 -0.03073 -0.02957
0.00376 -0.03492 0.00897
-0.00732 -0.13270 0.07978
-0.00289 -0.11073 0.08233
0.00735 0.03905 -0.13597
0.00166 -0.06025 0.02030
-0.00328 0.00571 -0.00699
0.01149 0.00030 -0.02162
0.00335 0.00889 -0.20995
0.01332 -0.04898 -0.02582
0.00480 0.02347 -0.18649
0.02029 0.01662 -0.15749
0.00474 0.02150 -0.19292
-0.03982 0.01797 -0.18936
-0.00084 -0.14583 0.10178
-0.00250 -0.06550 0.01374
-0.03526 -0.00434 0.01648
-0.00526 -0.03101 -0.03193
-0.02753 -0.01087 -0.00942
-0.02638 0.00640 -0.10073
-0.00235 -0.09078 0.12206
0.03156 -0.02931 0.00042
0.04320 0.00010 0.03905
-0.00320 0.01814 0.00202
-0.00004 -0.08740 0.08722
-0.03009 -0.01029 -0.00607
-0.01989 0.01226 -0.14982
0.01440 0.03741 -0.11509
0.03166 -0.02496 -0.00860
-0.01204 0.01096 -0.03930
-0.04723 0.03066 -0.13972
-0.00775 -0.02365 0.00922
0.00504 0.00291 -0.18062
-0.02561 0.00769 -0.01334
-0.00177 -0.06843 0.03715
0.02701 0.02742 -0.10483
-0.02788 -0.00785 -0.00103
0.00393 0.02366 -0.18759
0.00075 0.06265 0.10182
0.01104 -0.05128 0.03345
-0.03712 0.03261 -0.14354
0.01601 -0.04886 0.02234
0.04174 0.00378 0.04653
-0.00427 0.00986 0.08146
-0.00613 0.00660 -0.22472
0.00312 -0.08724 0.01492
0.07853 0.03308 -0.08786
-0.01545 -0.03592 0.01049
-0.00887 -0.03748 -0.00886
-0.00485 -0.09764 0.09654
0.00893 -0.06293 0.00875
0.00403 -0.07869 0.09676
-0.00379 -0.06102 0.01363
0.02998 -0.04298 0.05082
0.02559 -0.00636 -0.01401
0.01475 -0.00402 -0.02400
0.00318 -0.07256 0.03338
0.04126 -0.00397 0.00782
0.04874 -0.00111 0.00254
0.00605 -0.06195 0.05257
-0.01054 -0.06433 0.02018
-0.00274 0.00491 -0.21963
-0.00185 -0.03955 -0.00924
-0.00327 -0.04361 0.00567
-0.01114 -0.11584 0.11169
0.03200 -0.04511 0.00810
0.04171 -0.02016 0.06406
0.00486 -0.02371 -0.01788
-0.00416 -0.07338 0.01813
-0.00132 0.00503 -0.24048
-0.04574 0.07983 0.19067
-0.00513 -0.08041 0.07360
-0.01413 -0.03419 0.00424
-0.00741 -0.09080 0.01727
-0.00628 -0.07064 0.00905
-0.01426 0.00651 -0.06094
-0.01272 -0.06430 0.02747
-0.02924 0.02683 -0.01224
-0.01251 -0.05053 0.01075
-0.00044 -0.04660 0.02247
0.00808 -0.02197 0.00281
-0.00136 0.00494 -0.24052
-0.01080 -0.08675 0.13455
0.01616 -0.04314 0.00762
-0.03605 0.00618 -0.01648
-0.03148 -0.02252 0.00820
0.04777 -0.01126 0.02397
0.03006 -0.00091 -0.00662
-0.00320 -0.11115 0.07519
0.02396 0.01206 -0.07847
-0.03425 -0.01530 0.04240
-0.00463 -0.10963 0.11571
-0.02370 0.01999 -0.00376
0.01722 0.03884 -0.10593
0.00308 -0.07929 0.01647
0.00103 -0.08304 -0.02892
-0.02340 -0.02295 -0.00712
0.04585 -0.02771 0.04221
0.02807 0.01242 -0.07032
0.01116 -0.00084 -0.00106
-0.02393 0.03895 -0.14356
-0.01971 0.00434 0.00060
0.07379 0.02453 -0.10627
0.01104 -0.04273 0.02655
0.00713 -0.06417 0.01079
0.00608 -0.02509 0.00040
0.02540 -0.01941 -0.06170
0.03560 0.09890 0.73258
-0.03492 0.02678 0.01512
-0.03507 0.02910 -0.00191
0.01741 0.01337 -0.11403
0.00413 -0.02318 0.00896
0.01478 -0.01795 -0.05147
-0.00497 -0.08806 0.05644
0.00726 -0.06109 0.01615
-0.00645 -0.06982 0.07832
-0.00794 -0.03347 0.00838
0.06999 -0.03158 0.14240
-0.03993 0.00894 0.01430
0.05098 0.08487 0.49821
-0.01017 -0.01141 0.01929
-0.01969 0.01412 -0.16760
0.04432 0.02208 0.03164
-0.03659 0.01774 -0.18739
-0.00708 0.07684 0.13664
-0.00139 0.00495 -0.24068
-0.03915 0.00533 -0.01890
-0.02634 0.00768 -0.23083
-0.02674 0.00924 -0.00464
-0.00659 -0.09591 0.06500
-0.02994 0.00828 -0.00947
0.01292 -0.03343 0.02690
-0.00971 -0.02762 -0.00179
0.00717 -0.02233 -0.05164
0.00163 -0.02391 0.00289
0.02211 -0.02436 -0.00580
-0.00249 -0.02165 -0.00828
0.00200 -0.01658 0.00616
-0.03227 -0.01742 -0.00733
0.03138 -0.01728 -0.00346
0.00110 -0.01720 0.07787
0.00670 0.02368 -0.19085
-0.01503 -0.00936 -0.02336
-0.01563 -0.01101 0.01188
0.01942 -0.04377 0.02016
-0.00019 -0.00854 0.04232
0.03680 -0.00921 0.02774
-0.01342 -0.00175 -0.06523
-0.00137 -0.00171 -0.04093
0.00138 -0.00107 -0.04590
0.01184 -0.00365 0.01186
-0.00746 -0.00066 -0.04469
-0.02423 0.00408 -0.01001
0.02310 -0.00434 0.00742
-0.00214 -0.06231 0.05323
-0.00163 -0.11029 0.05818
-0.00062 0.01657 0.00119
0.03332 -0.03827 0.00772
-0.02679 0.01134 -0.19113
0.04188 -0.00826 0.00212
0.04275 -0.00738 0.00157
-0.03347 0.02865 -0.02134
0.02638 -0.05945 0.05086
0.03921 -0.02689 0.02971
0.04883 -0.02631 0.05592
-0.01059 -0.06372 0.03358
-0.02787 0.00192 -0.01747
0.02217 -0.02457 0.01164
-0.02820 0.01124 0.00699
0.00328 -0.09329 0.07961
0.00766 0.01286 -0.17790
-0.01440 -0.01773 0.00662
0.04305 -0.01976 0.01078
0.00329 -0.10895 0.02769
-0.01129 -0.07362 0.01584
0.04010 0.02076 -0.03400
0.04281 -0.01298 0.00307
0.04522 -0.03050 0.05281
0.00896 -0.02959 -0.02664
-0.02495 -0.00075 0.00210
0.00238 -0.02071 -0.00001
-0.01585 -0.00965 0.00226
0.04975 -0.00550 0.00847
0.03987 0.00215 0.01935
0.02720 -0.00255 0.00789
0.01607 -0.01062 -0.01109
0.05863 -0.02422 0.13081
-0.00573 -0.08720 0.01484
0.00188 -0.07843 0.02414
0.01732 0.01126 -0.08667
-0.00096 -0.03449 0.01951
0.03948 -0.03919 0.01616
0.04654 -0.00423 0.01323
0.00047 0.02574 -0.16366
0.01184 -0.00255 -0.00210
0.03564 -0.00276 0.00354
0.04706 0.00160 0.01126
-0.02702 0.01090 -0.02966
-0.00407 0.00191 0.02494
-0.01943 -0.03209 0.01257
-0.00519 -0.10124 0.06873
-0.02994 -0.03448 0.03926
0.02431 0.00871 -0.07249
-0.02975 -0.02435 0.00169
-0.03758 0.00086 -0.00257
-0.00556 -0.08331 0.02337
0.00955 0.03977 -0.13136
0.00880 0.00190 -0.04816
-0.03936 0.00359 0.00178
-0.02242 -0.05790 0.04054
0.02568 -0.00220 0.01705
-0.02232 0.00683 0.00005
0.00757 0.00108 0.13202
0.03331 0.00150 0.00782
-0.02371 0.00483 -0.01312
-0.00684 -0.07489 -0.01859
-0.01507 -0.03819 -0.00989
-0.01224 -0.02906 -0.06424
-0.00318 -0.02687 -0.03713
-0.01311 0.01094 -0.11044
-0.01986 -0.02744 0.00137
-0.00199 -0.08340 0.02258
-0.00048 0.00406 -0.00218
0.00344 -0.09594 0.01883
0.02507 0.00037 0.03339
-0.02600 -0.02431 0.00004
-0.00564 -0.10743 0.12936
-0.03828 0.01419 -0.20089
0.01011 0.00054 -0.09319
0.04605 0.00419 0.01394
0.00393 -0.07251 0.00767
0.00917 0.00253 0.00674
-0.00696 -0.06265 0.03926
0.00139 0.00076 0.00073
-0.03700 0.01492 -0.00139
-0.00047 -0.02287 -0.00061
-0.00266 -0.11398 0.05138
-0.03056 0.00633 0.00215
-0.02626 -0.02961 0.00869
-0.03228 -0.02196 0.02107
-0.00549 -0.08068 0.00702
-0.01930 0.01149 -0.20776
-0.01414 -0.01957 0.01359
-0.00119 -0.03205 -0.01866
0.00462 -0.03639 0.00572
-0.02897 0.02364 -0.02547
-0.00722 -0.09799 0.01682
0.01432 -0.00031 -0.06675
-0.02093 0.00270 -0.16883
-0.03232 -0.00389 0.01672
-0.00487 -0.09661 0.01516
-0.00145 -0.06781 0.06812
0.02454 0.00080 0.03340
-0.00467 -0.04068 0.02715
0.00826 -0.05258 -0.01118
-0.00709 -0.06115 0.01247
-0.03270 -0.01062 -0.00505
0.01692 -0.03546 0.00128
0.01903 -0.04714 -0.01989
-0.03743 0.01803 -0.19253
0.02911 -0.00670 -0.07739
-0.00779 -0.02316 -0.03378
-0.02456 0.00675 0.02037
-0.00152 -0.09431 0.04781
0.01077 -0.05946 0.06745
0.03719 -0.01423 0.00605
0.05077 0.01258 -0.01906
0.00195 0.00583 -0.01611
0.03582 0.01681 0.03048
-0.01139 -0.02890 -0.08987
0.00948 -0.02227 -0.00579
0.03313 0.01679 -0.06230
-0.00504 -0.05825 0.01549
-0.01961 0.01736 -0.08218
-0.03136 -0.03445 0.02089
-0.02540 -0.02530 0.00952
0.02162 0.01580 0.03052
-0.01929 -0.02170 -0.01962
0.02033 -0.02181 -0.04094
0.00974 0.01724 0.03543
0.01676 0.01017 -0.08381
-0.01810 -0.02144 0.05194
0.04085 0.00738 -0.01295
-0.02184 -0.00614 0.00162
-0.00111 0.00672 -0.02104
0.02051 -0.03604 0.03904
-0.03223 0.00957 -0.04728
-0.00138 -0.08444 0.01947
0.01400 -0.00146 -0.07624
0.00790 -0.02841 0.08729
-0.05432 0.09180 0.49459
-0.02104 -0.03343 0.00270
-0.02541 -0.01919 0.01076
0.01512 -0.05805 0.01247
-0.01154 0.00396 -0.23349
0.04370 -0.03217 0.01710
0.02837 0.01165 -0.04165
0.01105 -0.01330 -0.05875
-0.00316 -0.12460 0.10922
-0.00701 0.00491 -0.23136
-0.01808 -0.01476 -0.02952
-0.01239 0.00329 -0.12993
-0.00813 -0.07754 0.07420
-0.02665 -0.02589 -0.03696
-0.00657 0.01919 -0.05157
-0.01307 0.02164 -0.03084
-0.01307 -0.02785 -0.00694
0.00240 -0.01793 -0.02185
0.01338 -0.01666 -0.02727
0.00473 -0.01382 -0.00638
0.00585 -0.00145 0.01283
-0.00789 -0.03861 0.03687
-0.02347 -0.03144 -0.01948
-0.02694 0.02196 -0.01026
-0.06009 0.02831 -0.16253
-0.00714 -0.09337 0.06441
-0.02022 0.00520 -0.23711
-0.01089 0.00583 -0.03170
-0.05462 0.02570 -0.10136
-0.03082 -0.02498 0.01464
-0.01707 0.03604 -0.14137
0.00486 -0.07167 0.03600
-0.05900 0.03073 -0.14714
-0.00207 0.01106 -0.21476
0.03107 -0.03827 0.00047
0.02537 0.00892 -0.17680
-0.03966 0.04795 -0.03056
-0.01923 0.00456 -0.24414
-0.05639 0.02168 -0.17206
-0.01177 0.00344 -0.23531
-0.00938 -0.03198 -0.00774
-0.03236 -0.00513 0.00132
0.03250 0.03364 -0.03808
-0.01436 -0.00662 -0.00645
0.03612 0.03406 -0.03745
0.02652 0.01781 -0.01806
0.06408 0.04030 -0.02089
0.03154 -0.03294 0.01154
0.01827 -0.04668 0.01590
-0.01047 0.00435 -0.23331
0.06158 0.03538 -0.02274
0.03580 0.02981 -0.04190
0.06750 0.05952 0.16395
0.06430 0.06680 0.16500
0.02952 0.03178 -0.04105
0.06306 0.03674 -0.02204
-0.00734 -0.03530 -0.01042
0.02092 0.00314 0.00958
0.02508 -0.07329 0.06417
-0.00566 0.01759 0.03532
-0.02796 0.02020 0.01136
0.05791 0.03229 -0.02301
0.01680 0.00135 -0.01496
-0.01434 -0.03240 -0.01429
-0.02971 -0.01042 0.00198
0.03067 0.03336 -0.02792
0.06756 0.06690 0.17014
-0.02333 -0.02151 -0.00364
0.03648 0.01303 -0.01709
0.01623 -0.04002 -0.00437
-0.00063 -0.02516 -0.03207
0.00670 -0.02897 -0.00772
0.01981 -0.03161 0.01720
-0.01735 0.01480 -0.03281
0.02613 -0.01578 -0.00927
-0.01880 -0.01741 -0.00037
0.02849 -0.01332 0.01826
-0.01473 -0.00847 -0.00182
0.02918 -0.01108 0.01764
0.02306 -0.00831 0.01240
-0.02327 0.00321 0.00210
-0.02111 0.00415 -0.04557
-0.00759 0.02228 0.03763
0.04950 0.03360 -0.03230
0.01160 -0.03374 -0.00685
0.03485 0.03356 -0.03835
0.01941 0.01072 -0.01905
0.00526 -0.02784 0.12043
0.00846 0.02553 -0.03276
-0.00850 0.00563 -0.22991
0.04054 0.05508 0.07460
-0.01912 0.06934 0.13032
0.01515 -0.03935 0.01313
0.01535 -0.05108 0.00615
-0.00595 -0.03043 -0.01346
0.00168 -0.08572 0.00736
-0.00141 -0.03846 -0.00043
0.00353 -0.11634 0.05480
0.01358 -0.06215 0.01611
0.00141 -0.02762 -0.03981
-0.01415 0.00391 -0.12949
0.01366 -0.00024 0.04531
-0.01537 0.00717 -0.00641
-0.00951 0.01515 -0.05709
-0.00667 -0.04665 -0.01513
0.02411 0.04567 -0.07013
-0.01752 -0.01923 0.00151
0.01722 -0.03355 -0.03363
-0.01663 -0.01730 0.00615
0.00118 0.00094 -0.01980
0.00130 -0.08831 -0.02983
0.01205 0.00326 -0.01058
0.04693 -0.09819 0.24628
-0.00419 -0.00014 0.00251
0.00890 0.03421 -0.08276
-0.03080 -0.00118 -0.01230
0.00048 0.01306 -0.19532
0.00200 0.01238 -0.02888
0.01775 -0.03517 -0.00738
0.01408 0.01590 -0.00104
0.03902 -0.02164 -0.00232
-0.01237 0.00378 -0.23546
-0.00464 -0.03406 -0.01415
0.00535 -0.04063 0.01389
-0.00711 -0.03911 0.02103
-0.00064 0.01771 -0.19960
-0.02029 0.00204 -0.26317
0.00127 0.01447 -0.20264
-0.06547 0.04821 -0.11487
-0.02547 0.03744 -0.14812
0.01685 -0.00579 0.04869
0.01087 -0.11058 0.09358
-0.03743 0.06413 0.01738
0.04193 0.01572 0.01455
-0.00456 0.01228 -0.07919
0.05158 0.02202 0.01199
-0.00473 0.01299 -0.10923
-0.00830 0.00410 -0.23418
0.01789 -0.05221 0.04458
-0.01664 0.00398 -0.01521
-0.00697 -0.02659 -0.02585
0.01455 -0.01238 -0.06577
0.00888 0.02051 -0.17453
-0.01881 0.00319 -0.25001
-0.02891 -0.00522 0.01708
-0.01657 0.00472 -0.25017
0.00051 0.08747 0.19637
-0.02346 0.01719 -0.19685
-0.00132 -0.00068 -0.01706
0.00501 -0.00053 -0.04542
-0.03120 -0.03010 0.01303
0.00574 -0.00097 -0.07785
-0.03075 0.00347 -0.00593
-0.00038 0.00408 -0.21424
-0.01979 0.00174 -0.26445
0.04943 -0.00640 0.03163
-0.00364 -0.10741 0.02291
0.01040 -0.04875 0.01169
-0.00841 0.00548 -0.23388
0.04480 -0.01042 0.00093
0.03145 -0.00158 0.06047
-0.03209 0.00753 -0.00219
-0.02194 0.00483 -0.00665
-0.02409 -0.00950 -0.01880
-0.03820 0.00852 0.00733
-0.00174 -0.08246 0.04347
-0.00224 -0.10493 0.01892
-0.00056 -0.09113 0.01604
-0.00645 0.00410 -0.00845
0.00330 0.00255 -0.01546
0.04250 0.01837 0.01928
0.03777 0.01590 0.01814
0.01370 -0.03366 -0.01319
-0.01030 -0.05806 0.01811
-0.02273 -0.00767 0.01440
-0.01832 -0.01354 -0.01559
0.00537 -0.07893 0.03909
-0.02000 0.00203 -0.26116
0.02007 -0.01135 0.01689
0.00999 0.01509 0.00454
-0.01980 0.03467 -0.15401
0.02612 -0.01324 0.00960
0.00162 -0.08235 0.02289
-0.02109 0.00244 -0.26004
-0.00578 -0.07911 0.08374
-0.02154 0.03664 -0.14588
-0.02192 0.00457 -0.00865
-0.01861 -0.03345 0.00947
-0.00156 -0.02826 -0.01350
0.01702 -0.00315 0.02415
-0.01077 0.00082 -0.08622
0.03267 -0.00313 0.01114
0.03730 -0.00107 0.05779
-0.01184 0.01265 -0.19222
0.00004 0.00997 -0.20392
0.00554 -0.00029 -0.02263
-0.00993 0.01616 -0.03599
0.07580 0.03299 -0.11246
-0.01703 -0.00075 0.05789
-0.01004 -0.04789 0.02710
-0.01872 0.00302 -0.24941
0.04943 0.00566 -0.00314
-0.03059 0.02649 -0.03934
0.00107 0.01079 -0.20668
-0.01165 -0.05774 0.05309
0.00028 -0.01315 -0.00027
-0.00689 -0.07289 0.05217
-0.00423 -0.08081 0.01963
0.00520 -0.04703 0.00071
0.00234 -0.06778 0.00858
-0.02874 -0.00276 0.00460
-0.00492 0.00539 -0.19368
0.00390 -0.07347 -0.00372
-0.01725 -0.04330 0.00458
-0.00421 0.00115 -0.06068
-0.00784 0.00680 -0.22573
-0.00387 -0.08120 0.00828
0.00253 -0.03692 0.10083
-0.02034 -0.03817 0.00000
0.00660 -0.06270 0.00473
-0.00541 0.01281 -0.10653
0.05116 0.01800 0.00690
-0.02026 0.00208 -0.26283
0.01482 -0.09852 0.07916
0.00359 -0.13372 0.11729
-0.02168 -0.02329 0.00608
-0.00611 -0.06060 0.01894
-0.02180 0.00228 0.02911
-0.01854 0.00721 -0.20328
0.02251 0.01576 -0.01575
-0.01941 0.00325 -0.25774
-0.01075 0.00454 -0.23335
0.00776 0.00132 0.02339
0.01569 0.00006 0.00527
-0.01406 -0.07053 0.06307
-0.00703 -0.06137 0.08158
0.00101 -0.00980 -0.04308
0.03082 0.01810 0.04922
-0.02731 -0.00936 -0.01203
-0.00563 0.00630 0.06308
0.04183 0.00032 0.01383
-0.02254 0.00662 -0.01697
0.01046 -0.02009 -0.00800
0.00131 -0.07720 0.03818
0.00089 -0.02296 -0.01015
0.00557 -0.01482 -0.08908
-0.00096 -0.07559 0.03471
0.00434 -0.06942 0.01117
0.02933 -0.02460 0.00437
-0.00260 -0.01533 0.01133
-0.01682 -0.00283 -0.21129
0.00810 -0.05594 0.02153
0.00028 -0.04770 -0.00883
-0.00008 -0.01129 -0.03793
-0.00235 -0.00504 -0.09827
-0.00805 -0.00429 -0.09213
-0.00606 -0.00263 -0.13085
0.00030 -0.00546 -0.01780
-0.00152 -0.00297 -0.09772
-0.01562 0.00019 -0.00862
0.00286 -0.00230 -0.01400
-0.01484 0.00150 -0.00729
-0.00999 -0.00031 -0.01535
0.02354 -0.00385 0.02931
-0.01192 0.01631 -0.00145
-0.02485 0.02423 0.02962
-0.00815 0.00540 -0.23087
0.00961 0.02630 0.12228
-0.01417 0.00311 -0.00023
0.00514 0.01829 -0.15166
0.03723 -0.05282 0.07878
0.06253 -0.04087 0.16284
-0.04161 0.05585 0.01147
-0.02460 -0.01434 -0.00351
0.02380 0.03364 0.03421
-0.00288 0.02157 -0.10198
-0.03267 -0.01655 -0.00099
0.01422 -0.03166 -0.02523
0.03568 0.01545 0.02677
-0.03717 0.00680 0.00083
0.04408 -0.01318 0.17609
-0.00121 -0.10593 0.04100
0.00741 0.01228 -0.18409
0.02275 -0.03416 0.02014
-0.06340 0.03823 -0.14356
-0.01649 -0.03665 0.00956
0.00452 -0.05611 0.01992
0.01041 0.01126 -0.19379
0.01387 -0.01427 0.01021
0.01758 -0.01234 -0.02917
-0.00436 0.00198 -0.13239
-0.01229 -0.05774 0.03543
-0.00508 0.02104 -0.11375
-0.02530 0.00150 -0.01041
0.03153 -0.00827 -0.03270
-0.02545 0.00299 -0.00423
0.00473 0.01172 -0.18398
0.01079 0.01462 -0.11413
-0.02237 -0.01661 -0.00235
-0.02335 -0.01573 0.01304
-0.00887 0.02168 0.01506
0.04150 -0.03544 0.03151
0.01274 0.01292 -0.18210
-0.02014 0.00432 -0.24737
-0.00604 -0.06756 0.03667
-0.01343 -0.04515 -0.03188
-0.02029 -0.01264 -0.01335
0.03057 -0.03214 -0.00085
0.01105 -0.01797 -0.04126
0.01831 0.02856 0.05171
-0.01105 -0.02716 -0.00651
0.01555 0.01416 0.01028
-0.00120 -0.08459 0.01502
0.01904 -0.04264 0.00355
0.00308 -0.03932 0.02082
0.01998 -0.03662 -0.00220
-0.02927 -0.00844 -0.00831
0.00618 -0.05308 0.02318
0.03644 -0.02346 0.01225
-0.02889 -0.00672 -0.02883
0.00900 -0.03655 -0.01416
-0.05136 0.03122 0.04072
-0.03512 0.00805 0.00183
0.03058 -0.00563 -0.06751
-0.02444 -0.01933 -0.00771
-0.02831 0.00375 -0.00159
-0.03124 -0.01921 0.00691
0.01177 0.01077 -0.17508
-0.00909 0.00279 -0.20691
-0.02195 0.00858 -0.00847
-0.01110 -0.00094 -0.21218
0.01855 0.01052 -0.17220
0.01163 0.00989 -0.17863
0.00828 -0.09677 0.06497
0.00616 0.01347 -0.18181
-0.03489 0.04010 -0.13986
-0.00427 0.00630 -0.18994
-0.07837 0.18503 1.00000
-0.03124 -0.01564 0.00099
0.05397 0.04392 0.01001
-0.00450 -0.04455 -0.01242
-0.00618 0.01660 -0.05650
-0.01563 -0.03703 -0.00159
0.00261 -0.08190 0.07845
0.00305 -0.10960 0.05589
-0.03052 0.00391 -0.20822
0.00022 0.00938 -0.17419
-0.01791 0.02555 -0.13853
-0.00150 0.00508 -0.24096
0.01219 -0.02222 -0.05713
-0.00555 -0.01106 -0.10133
-0.00437 0.00054 -0.08236
-0.03839 0.02782 -0.12109
-0.00315 0.00645 -0.19299
0.05246 -0.00879 0.00829
0.00241 -0.04260 0.00642
-0.00201 0.04148 0.11488
-0.01646 0.00439 -0.24148
0.01803 0.01387 -0.12356
-0.01138 0.00336 -0.19913
0.00074 0.00894 -0.08213
0.01485 -0.04916 0.04641
-0.00165 0.00988 -0.21980
-0.01948 -0.04761 -0.00051
0.01914 -0.05869 0.08983
0.02994 0.09663 0.30171
-0.00083 -0.02153 0.02331
-0.01161 0.00024 -0.07319
0.00289 -0.06888 -0.01135
-0.02706 -0.02478 -0.10936
-0.02965 -0.01730 0.02208
-0.00069 -0.03298 -0.04731
0.01057 -0.09036 0.04802
0.02501 -0.01182 0.00454
-0.00305 0.06895 0.19728
0.02034 -0.00756 -0.06639
-0.00306 0.00625 0.04662
0.00491 0.05563 0.03517
0.01136 -0.03029 -0.01539
-0.04302 0.00216 0.01175
0.01508 0.00997 -0.16588
-0.00395 0.00215 -0.01826
0.00000 0.00143 0.02710
0.03565 0.00119 -0.00095
-0.00973 0.08649 0.22158
0.01402 0.00364 -0.04187
0.00202 -0.08231 0.01839
-0.01530 0.00356 -0.24563
-0.00119 -0.05420 0.04227
0.06246 0.04121 0.02565
0.01116 0.01658 -0.15462
0.01216 0.01639 -0.15532
0.06557 0.07738 0.22253
-0.01073 -0.03141 -0.00093
0.02067 -0.02319 0.05995
0.00999 0.01702 -0.15495
0.07964 0.02647 0.00520
-0.04040 0.06529 0.15951
0.00864 0.01052 -0.19613
-0.02085 0.00171 -0.26346
-0.01007 -0.03756 0.02098
0.02366 -0.01344 0.01283
0.01982 0.00215 0.01656
-0.00331 0.01693 -0.01808
0.02546 0.02789 0.01024
0.01726 0.03569 0.06113
0.03908 0.03300 0.05846
-0.00512 -0.03889 0.04488
0.00095 -0.08235 0.00650
0.01634 0.02172 0.04395
0.04509 0.05524 0.09958
-0.03713 0.01376 0.00203
-0.03193 0.00956 -0.01052
0.03939 -0.02104 0.01316
0.01751 0.01819 0.05700
-0.03212 -0.00579 -0.00766
0.02085 0.04187 0.07012
-0.04619 0.04995 0.07184
0.02821 0.01893 0.04483
0.05966 0.03746 0.03077
-0.00079 -0.02346 -0.03271
0.01513 0.06314 0.08612
0.01339 0.01260 -0.18240
-0.03210 0.01679 -0.00725
0.01330 0.02394 0.17430
0.01751 0.02920 0.25628
-0.00059 0.01982 -0.18329
-0.01295 -0.04754 0.03442
0.04161 -0.01554 -0.00734
0.06584 0.02986 -0.00233
0.06007 0.04371 0.03300
0.03594 0.01271 -0.01763
0.02102 0.01065 -0.12532
0.00711 0.01462 -0.16040
0.03942 -0.01020 0.00195
0.00202 0.03609 0.22966
-0.01691 0.02783 -0.10086
0.01476 -0.05419 0.01080
-0.02385 0.00707 -0.00606
0.03302 -0.01050 0.01270
0.00861 0.06106 0.09315
0.04113 0.05033 0.06310
-0.14573 0.06476 0.49365
0.01130 -0.05376 0.00353
-0.00264 -0.02012 0.01320
0.01324 0.01890 -0.15760
-0.00315 0.00904 -0.22659
-0.01839 -0.04401 0.01391
0.02702 -0.03267 0.01273
0.04175 0.01695 0.00283
-0.00270 -0.02803 0.00179
0.03821 -0.02909 0.00710
0.00760 -0.02555 0.03197
-0.00325 0.00359 -0.01740
0.00375 -0.06339 0.01835
-0.02997 0.01153 -0.18144
0.05917 0.03287 0.03301
0.02190 0.04402 0.07267
0.01171 0.05548 0.08461
-0.01637 0.00567 -0.04081
-0.00314 0.07166 0.10359
-0.03678 0.01212 0.00565
0.01133 -0.02483 0.00264
-0.01424 -0.05678 0.04761
0.02944 0.01121 -0.00149
0.02314 -0.02403 0.03661
0.07025 0.03112 0.02888
-0.00331 0.02986 -0.05863
0.01137 0.01284 -0.18062
-0.02608 -0.01705 0.01971
-0.03418 0.01303 -0.00440
-0.04407 0.07374 0.07518
0.06438 0.04309 0.10839
-0.00185 0.03153 -0.05845
0.01388 0.05514 0.08004
-0.07455 0.09041 0.20939
-0.04489 0.08038 0.16454
-0.05494 0.08853 0.17900
-0.01094 0.07229 0.11812
0.01881 -0.00313 0.01475
0.00643 0.01721 -0.14457
0.08324 0.02181 -0.00428
-0.00564 0.01457 0.04369
0.02280 0.05099 0.07030
-0.01446 0.06182 0.11133
-0.02848 0.01189 -0.18942
-0.02854 -0.01341 0.00202
-0.00671 -0.01871 0.00113
0.02956 0.00396 0.02957
-0.03060 0.00275 0.01085
-0.03552 -0.01432 0.02698
-0.04020 0.00378 0.01396
0.03137 -0.00112 0.10237
0.00778 -0.04829 -0.02050
-0.11206 0.03111 0.16277
0.00945 0.02700 0.02600
-0.01869 0.00290 -0.25524
-0.05563 0.06304 0.08303
-0.01029 0.07041 0.11761
-0.01076 0.03861 0.10390
0.02428 0.03667 0.06864
-0.04534 0.01474 0.00994
-0.01257 -0.01560 -0.01900
0.03938 -0.02711 -0.00296
-0.04953 0.06067 0.07330
0.08590 0.05252 0.06832
-0.03123 0.06097 0.14115
0.02116 -0.02342 0.01426
0.02683 0.04460 0.05885
-0.03228 0.06497 0.14367
-0.00630 0.07566 0.20378
-0.01071 0.00158 0.00386
0.01061 0.01302 0.36976
-0.00647 -0.01439 0.01461
0.02669 0.03681 0.06938
-0.02376 -0.02865 0.00374
-0.02599 -0.01880 -0.00426
-0.05306 0.07159 0.08111
-0.00720 -0.03150 -0.01398
0.03122 -0.03855 0.03092
-0.02514 -0.00719 0.01649
0.04861 -0.00417 -0.00476
0.03694 0.03108 0.06321
-0.01355 0.03187 -0.02801
0.06168 0.03956 0.03647
0.03296 -0.01663 -0.00854
-0.05371 0.07504 0.07836
-0.00662 0.00275 -0.04417
-0.05756 0.08399 0.18702
-0.00578 -0.03295 0.00268
0.02687 -0.02986 0.00491
0.04111 -0.01951 -0.00343
0.03202 -0.00012 0.02859
0.04985 -0.00123 0.00103
0.01391 -0.01611 -0.04883
-0.00593 0.01478 -0.07802
0.08291 0.02307 0.00170
0.06590 0.04702 0.14965
-0.01322 -0.05982 0.02451
-0.00695 -0.05577 0.01333
-0.01651 0.05964 0.12040
-0.03489 0.07278 0.14705
-0.00843 0.08351 0.21496
0.06337 0.04874 0.02771
-0.00750 0.02077 0.02294
0.03123 0.02456 0.02054
0.03891 0.03851 0.06285
0.02585 0.04181 0.06879
0.02656 0.04250 0.06426
-0.00474 -0.00158 -0.02336
-0.00034 0.01779 0.03205
0.00210 0.01777 0.02177
-0.02249 0.02186 0.02444
0.02600 -0.04231 0.00244
-0.01833 0.00235 -0.21811
0.04015 -0.00064 0.01941
0.02975 -0.01167 0.01433
0.02736 0.01532 0.00190
0.08957 0.06582 0.16584
0.08383 0.05323 0.05949
-0.02899 0.01479 -0.00417
-0.00720 -0.02631 0.00003
-0.01873 -0.02480 -0.00260
-0.03512 0.00437 0.00099
0.00432 -0.01648 0.03593
0.01895 -0.01457 0.02047
-0.01383 -0.00490 -0.00248
0.01639 0.01595 -0.17449
0.02402 -0.02546 0.02568
0.01383 0.02013 -0.15483
-0.01386 0.02091 0.01748
0.00694 0.01824 -0.00664
0.02396 0.03439 0.18429
0.00880 0.02038 -0.02758
-0.01545 0.02911 0.01506
0.01770 0.06950 0.30889
0.04756 0.01673 -0.10641
0.07490 0.02883 0.00732
0.05046 0.01552 -0.12548
0.04538 0.04563 0.05493
0.00907 0.06834 0.09891
0.03595 -0.02352 0.00192
0.05998 0.03709 0.03800
-0.02378 0.06223 0.12824
0.03284 -0.01177 0.01822
-0.05973 0.03262 -0.13949
-0.03259 0.00815 -0.19564
-0.01215 -0.09230 0.06833
0.03443 -0.01154 0.00251
0.01938 0.05525 0.08169
0.07813 0.02038 0.01013
-0.02478 -0.03611 0.00657
0.01637 -0.01290 0.01386
0.04651 -0.00169 0.00365
0.02237 0.04546 0.06967
-0.01982 0.02285 0.02445
-0.00348 0.03091 -0.05811
0.01604 0.05698 0.07857
-0.04339 0.08331 0.16624
-0.03324 -0.00984 0.00011
-0.00495 -0.00002 0.02121
0.03690 0.04921 0.06645
0.00083 0.00065 0.02034
0.05710 0.05217 0.07979
-0.00065 -0.03557 -0.01454
0.00365 0.02699 -0.01148
0.02306 -0.02159 0.02199
0.00089 0.00692 0.00049
0.01056 -0.02337 0.01817
0.01548 -0.02487 0.03090
0.03890 -0.01892 -0.00230
0.00265 -0.08573 0.04199
-0.04834 0.05234 0.07873
-0.01853 0.00177 0.02523
-0.01199 -0.01298 0.01451
0.04766 0.02369 0.00617
0.01069 -0.02945 0.00487
0.01332 -0.01482 0.02292
0.04956 0.01839 0.01172
-0.02788 -0.01825 0.00913
0.02382 -0.03649 0.01338
-0.00319 0.02785 0.03656
-0.00138 0.00498 -0.24066
0.01627 0.00040 0.02040
0.01889 -0.02464 0.00554
-0.07982 0.07709 0.22703
-0.02387 -0.01433 -0.01653
-0.03061 -0.01153 -0.00320
-0.00962 0.07564 0.22158
0.00129 -0.08141 0.04195
0.00994 0.00687 -0.18253
0.04610 -0.00523 -0.00333
0.03737 -0.00052 0.00653
-0.00078 0.01448 -0.10307
0.02367 0.04173 0.06904
-0.02119 -0.03342 0.02278
-0.03047 0.07875 0.14728
-0.00208 0.07111 0.10647
-0.00180 -0.03792 -0.00639
-0.00092 -0.10731 0.04848
-0.06075 0.03178 -0.12745
-0.02211 0.00149 -0.26566
-0.04878 0.03482 -0.12894
0.04348 0.04311 0.00564
0.00723 -0.06381 0.00452
-0.00314 -0.00008 -0.04726
0.05373 0.03731 -0.01051
-0.01275 0.00642 -0.00513
-0.05762 0.03470 -0.14179
0.00060 -0.10813 0.05873
-0.01931 0.06389 0.03861
0.05044 0.00421 -0.00520
0.00808 -0.03415 0.00083
0.04210 0.00104 0.00009
0.04464 0.04887 0.05610
0.01885 -0.00410 0.03557
-0.02692 -0.00983 0.00325
-0.03219 0.01014 0.00568
-0.06061 0.04836 -0.13861
-0.01154 0.02095 0.01564
-0.00871 -0.05933 0.01470
-0.00444 -0.06413 0.02327
-0.02327 -0.01392 0.00685
0.01729 0.00164 0.01640
0.01647 -0.01454 0.01671
0.00572 0.05849 0.03047
-0.02574 0.06477 0.12416
0.05783 0.04600 0.03983
0.02680 0.02559 0.14863
0.01556 -0.03584 0.02349
0.01375 0.05823 0.07348
-0.04317 0.08824 0.17451
0.05174 0.03590 -0.13552
-0.00155 -0.02054 0.01969
0.02141 0.03939 0.07685
-0.01242 0.00435 -0.23668
0.03621 -0.00039 0.01860
0.02062 0.00104 0.00931
0.06912 0.03818 0.03838
0.03366 0.04849 0.08317
0.02486 0.05436 0.07354
0.05079 0.01937 -0.00180
-0.00567 -0.08961 0.09191
0.03621 -0.01641 0.00383
-0.01086 -0.02550 -0.02108
0.05122 -0.01750 0.05968
0.00448 -0.02907 -0.01447
-0.00951 -0.02434 -0.02351
-0.01449 -0.02314 -0.02006
-0.01902 0.00318 -0.25758
0.00121 -0.07694 0.01382
0.04054 0.05361 0.06308
-0.00620 -0.01641 -0.01993
0.03859 -0.00917 0.00452
-0.01279 0.06515 0.11181
-0.02992 0.00021 -0.00207
-0.02462 -0.01207 -0.00592
-0.02060 0.07341 0.12700
-0.05831 0.08142 0.18665
-0.02786 -0.01990 -0.00525
-0.03333 0.02265 0.04354
0.01698 -0.03297 -0.00969
0.02198 -0.01103 -0.04226
0.07237 0.04217 -0.11206
0.00190 -0.03870 -0.01663
-0.04004 -0.06066 0.05806
0.02549 0.04532 0.06139
0.00090 -0.03900 0.01526
0.00044 0.07036 0.09296
-0.02735 0.05527 -0.00878
-0.01304 0.00218 -0.00336
0.02204 0.03845 -0.13658
0.03596 -0.01365 0.01409
-0.02490 -0.00323 -0.00651
0.00222 -0.02396 0.01251
0.04688 0.00017 0.00034
-0.01728 0.00577 -0.02796
0.04017 -0.02130 0.00779
0.02995 0.05384 0.06918
0.03024 0.00436 0.01898
0.02773 -0.03268 0.00331
0.02343 0.04637 0.06760
-0.01930 0.00092 -0.26613
-0.04989 0.04146 -0.15210
0.01768 0.01607 0.03091
-0.02606 -0.03040 0.00348
0.00323 -0.00646 -0.08198
-0.02038 -0.01920 -0.05814
-0.03881 0.03392 -0.14584
-0.00837 -0.01281 0.03408
-0.03430 0.02299 0.02259
0.04530 -0.01886 0.00854
0.12520 0.07097 0.13739
0.03351 -0.02569 0.00849
-0.00680 -0.00146 0.02643
-0.05906 0.03264 -0.13827
-0.00355 -0.01414 -0.01296
-0.02252 0.01225 0.00018
-0.00303 -0.04286 0.02048
-0.02755 -0.02636 -0.00058
-0.02365 -0.03858 0.00555
-0.02956 -0.02096 -0.00219
0.01402 0.01742 0.07533
-0.02915 -0.01742 -0.00267
0.01446 -0.00295 0.02264
-0.01787 -0.04077 0.01534
-0.01403 -0.04224 0.01378
0.02213 0.01680 -0.08135
-0.00434 0.02780 0.03614
0.05402 0.05740 0.08750
-0.01772 0.00386 -0.25376
0.06586 0.06448 0.31490
-0.02614 -0.01088 -0.00345
-0.02499 -0.00810 0.00133
0.02247 0.02041 0.12301
-0.03162 0.01098 -0.01505
0.01572 -0.07841 0.07180
0.00716 -0.03576 0.03619
0.00230 -0.10059 0.06592
0.02466 0.01458 -0.01305
-0.01685 0.00437 -0.25262
-0.06357 0.03157 -0.13880
0.08496 0.03164 -0.10182
-0.05451 0.04161 -0.14668
0.05542 0.04040 -0.13041
-0.02109 0.00173 -0.26425
-0.05687 0.05463 -0.11657
0.00313 0.01217 -0.19231
-0.01896 0.00196 -0.25959
-0.05328 0.04270 -0.14408
-0.00054 -0.08181 0.02979
0.03092 -0.02352 0.01895
0.03455 -0.06012 0.05417
-0.01065 0.00754 0.03633
0.07453 0.02882 -0.10651
-0.00113 -0.06747 0.00945
0.04632 -0.02301 0.12167
0.05270 0.00139 0.01352
0.04225 0.01319 0.00151
-0.02481 -0.00747 0.00307
0.04488 -0.00795 0.01692
-0.05484 0.03722 -0.14102
0.03101 0.04114 -0.11365
0.04509 -0.02360 0.01047
-0.01882 0.04592 -0.13187
-0.00259 -0.06784 0.02583
-0.03321 -0.01604 -0.00355
-0.01310 -0.05906 0.01585
-0.06053 0.03805 -0.14278
0.05454 0.02583 0.03346
-0.06529 0.03399 -0.14584
-0.03958 0.00510 0.00054
0.04066 -0.01718 0.00925
-0.00908 0.00419 0.02463
-0.00873 -0.06728 0.07725
-0.02049 0.00278 -0.24735
0.03835 -0.03072 0.00200
0.00551 -0.02330 -0.08467
0.00164 -0.02921 -0.02726
0.05394 0.00775 0.01683
0.01591 -0.04516 0.02477
0.06139 0.02753 -0.12026
0.05853 0.03120 -0.01581
0.00589 -0.05971 0.01528
-0.05617 0.03954 -0.14602
-0.00898 -0.06131 0.01182
-0.05141 0.04052 -0.14570
-0.00346 -0.09461 0.07033
0.01256 -0.03729 0.00543
-0.02668 -0.02036 -0.00278
-0.01481 0.01863 -0.15100
-0.00953 -0.07681 0.00857
-0.02300 0.00928 -0.22590
0.00487 -0.06317 0.02017
0.04610 0.02569 0.01080
-0.00633 -0.03519 0.03184
-0.02919 -0.02299 0.00622
0.01510 0.01761 -0.16139
0.06972 0.02311 0.14902
-0.06725 0.03289 -0.13014
0.08302 0.07920 0.51051
-0.00513 0.00587 -0.23219
-0.01542 0.00283 -0.00482
-0.03291 -0.02198 0.00796
0.01192 0.03724 -0.12921
0.04617 0.03595 -0.13772
0.06307 0.03846 -0.12841
-0.01353 0.01327 -0.19008
0.07417 0.04660 -0.10435
0.00752 -0.00451 -0.01487
0.04234 0.01483 0.01948
0.04811 -0.00472 0.01456
0.08558 -0.06144 -0.02094
-0.01527 -0.01097 -0.19014
0.01209 -0.05746 0.00521
0.00310 -0.03512 0.00607
-0.01754 -0.00557 -0.21914
0.06026 0.03586 -0.09789
-0.00095 -0.12637 0.06432
-0.00641 0.00073 0.38632
0.03766 -0.00102 0.01826
-0.00071 0.00544 -0.17184
0.00411 0.02173 0.06395
-0.00725 0.02122 0.02116
0.04062 0.02014 0.01393
0.00098 -0.02010 -0.06931
-0.02047 0.00257 -0.25621
-0.00997 -0.02085 0.01393
0.00282 -0.09764 0.03270
0.04104 -0.00884 0.03752
-0.00663 -0.07261 0.03500
0.02782 0.01511 0.01434
0.02301 -0.01319 0.00183
-0.00059 -0.02876 -0.01817
0.02586 0.02232 -0.13933
0.01860 -0.04745 -0.00535
-0.00044 -0.05827 -0.00219
0.00970 0.02076 -0.16633
0.03969 -0.02224 -0.00908
0.01913 0.03518 -0.12739
-0.01898 0.00311 -0.25752
-0.01808 0.00290 -0.25829
-0.01944 -0.01592 -0.17224
-0.01957 0.00180 -0.26348
0.05129 0.05056 0.03528
0.04472 0.04804 -0.14482
-0.05566 0.03122 -0.12662
0.06584 0.03253 -0.10631
-0.03289 0.04388 -0.13291
0.01889 0.00184 -0.02152
0.02539 0.03991 -0.11775
0.00573 -0.07933 0.01491
0.03327 -0.04141 0.04079
-0.00617 0.00243 0.00175
0.06765 0.04176 -0.12280
0.03323 -0.03934 0.03716
-0.02304 -0.01241 -0.00507
-0.00939 0.00300 0.03042
0.02061 0.01586 0.00884
-0.02865 0.00848 -0.00055
0.02328 0.00355 0.00761
0.02053 -0.01978 0.00729
-0.03555 -0.01214 0.00562
-0.03856 0.00513 0.00705
-0.03510 -0.00036 -0.01236
0.00576 0.02997 0.10078
-0.00942 -0.06822 0.07168
-0.01460 -0.02949 -0.02604
0.01408 -0.03497 0.03313
-0.03591 0.00850 0.00054
0.00486 -0.10160 0.09508
-0.05938 0.03730 -0.14747
-0.00710 -0.07358 0.01307
0.01006 0.01511 -0.02181
-0.02119 0.05061 -0.11327
-0.03646 0.02276 -0.14114
-0.00347 -0.10970 0.05863
-0.06256 0.02305 -0.08776
0.04834 -0.01850 0.03948
-0.08404 0.07321 0.05298
-0.00873 -0.05515 0.00832
0.00098 -0.08338 0.01857
0.00923 0.01526 -0.01213
0.02188 0.01353 0.01405
0.03279 0.04122 -0.12651
0.04246 -0.00673 -0.00988
-0.01581 0.00116 -0.22520
-0.02113 0.00138 -0.26469
0.00844 -0.08871 0.03812
0.00824 -0.09241 0.07218
0.00586 -0.03806 0.00174
0.02825 0.06406 -0.05498
0.00652 0.01494 -0.14873
0.00578 -0.07827 0.02050
0.01424 -0.04266 0.01542
0.02209 0.01867 -0.02050
0.08243 0.04342 -0.10295
-0.00542 -0.05838 0.02411
-0.05498 0.04222 -0.16416
0.00233 0.03527 0.08263
0.02327 0.02287 -0.01646
-0.02750 0.01715 -0.05580
-0.03052 0.01385 -0.19479
0.05989 0.02554 -0.11104
0.04076 0.01617 0.00045
0.04767 0.02610 -0.11935
-0.01745 -0.05646 0.03508
0.02175 -0.06933 0.08536
0.02041 -0.08504 0.09724
0.00990 -0.02242 -0.02838
0.03134 -0.02858 0.00093
-0.01523 -0.04088 -0.00804
0.02724 0.02004 -0.01405
0.01569 -0.07824 0.08841
0.01429 -0.02287 0.01128
0.00447 0.00107 -0.02959
0.01166 0.00058 -0.01958
-0.02616 -0.00815 0.03501
-0.02750 -0.00655 0.00276
0.04958 -0.01271 0.01586
-0.02949 0.01058 -0.01185
-0.01409 -0.01484 -0.01502
-0.00352 -0.02561 -0.02071
-0.01787 -0.03661 0.02917
0.02832 0.03272 -0.05443
-0.01115 -0.01476 -0.06004
-0.02761 0.00199 -0.05393
0.04547 0.02046 -0.00561
-0.00773 0.00285 0.00094
-0.01552 0.00454 -0.00027
-0.00825 -0.03461 0.00490
0.01443 -0.04167 -0.00420
-0.03402 0.00515 -0.01947
-0.02136 -0.01272 -0.00758
-0.02560 0.02133 -0.00485
-0.03197 0.03590 -0.14082
-0.00502 -0.10846 0.08083
0.04057 -0.00814 0.00935
-0.00631 -0.06600 0.01014
0.00374 -0.07185 0.01667
0.00316 0.00217 -0.01885
0.04305 0.02898 0.01452
-0.01731 -0.01315 -0.01928
0.00640 -0.06806 0.03585
0.00920 -0.05852 0.01687
0.02722 -0.04187 0.01243
-0.00826 -0.09767 0.07450
0.01780 -0.02114 -0.03051
0.05109 -0.00445 0.00637
0.00970 -0.04359 -0.00149
0.01035 0.01340 -0.16511
-0.00743 -0.05426 0.02870
-0.01045 -0.06820 -0.01112
0.04112 -0.01023 0.00513
-0.00517 -0.06007 0.04424
0.00080 0.01855 0.00980
0.03241 0.02507 -0.01478
0.03998 -0.00895 -0.00538
-0.02768 0.03186 0.02437
0.00445 -0.11710 0.03196
0.03842 0.00679 -0.02891
0.02698 0.00036 0.00945
0.01160 -0.04130 0.02333
0.04788 -0.00153 0.00297
0.01682 0.01434 0.03447
-0.01196 0.03709 -0.11992
-0.01461 0.03113 0.08652
0.01030 -0.01666 -0.03564
0.00664 -0.04933 0.03425
-0.01544 -0.00773 0.05500
0.02509 0.03479 -0.01435
-0.02868 -0.02468 0.00261
0.04745 -0.10639 0.16992
-0.02672 -0.02565 0.00757
-0.01804 -0.05823 0.02311
-0.00581 -0.09143 0.02602
0.00405 -0.06723 0.03873
-0.01780 -0.00575 0.00795
-0.00579 -0.01783 -0.01404
0.00130 -0.08964 0.04307
0.01991 -0.03344 0.01315
0.02172 0.01184 -0.08589
-0.03254 0.01587 -0.17566
0.05252 -0.00326 0.04381
0.03115 0.03108 -0.04247
0.03290 -0.00469 -0.04920
-0.00004 0.01108 -0.20752
-0.03038 -0.00265 -0.00957
-0.01522 -0.01154 -0.05513
-0.00166 -0.08081 0.05464
-0.02074 0.00157 -0.26378
0.03046 0.02234 -0.01623
-0.02103 0.00168 -0.26314
-0.01905 0.00178 -0.25744
-0.02706 0.00613 -0.13626
0.03074 0.02439 -0.01482
0.02139 -0.00651 -0.08704
-0.00122 -0.07394 0.00453
0.03097 0.02852 -0.04176
0.05043 0.01673 0.02641
-0.04797 0.07993 0.10688
-0.02599 -0.02552 -0.01941
-0.01291 0.01847 -0.20941
0.02842 -0.02379 0.01553
-0.02442 -0.02238 0.00454
0.05160 -0.02212 -0.03753
-0.02288 0.00718 -0.22818
-0.00409 0.01547 0.00329
0.02752 -0.03775 0.00995
-0.01471 -0.00996 0.00093
-0.00811 -0.12574 0.09286
0.00034 -0.09513 0.02128
-0.00733 -0.00797 -0.01630
-0.00356 -0.06802 0.00119
0.00879 0.01975 -0.17173
-0.00759 -0.09049 0.05929
0.01033 0.02831 -0.13780
0.01153 0.01378 -0.05072
0.01504 0.01239 -0.11436
0.03681 0.02881 -0.05600
0.04431 0.03119 -0.03665
0.03815 -0.05020 0.06291
0.01550 0.04354 0.00480
0.03959 0.02197 -0.03933
-0.00390 -0.02544 -0.02954
-0.01424 0.00153 -0.12033
0.00204 0.00993 -0.04998
-0.00108 -0.11499 0.04923
-0.02544 -0.03427 0.01398
-0.02032 0.00519 0.00836
-0.02703 -0.00396 -0.00057
0.00064 -0.11701 0.04579
-0.01603 -0.00427 -0.20040
-0.00846 -0.01450 -0.04275
-0.02708 -0.01879 -0.00588
-0.01144 0.00248 -0.24179
-0.01611 0.00099 -0.10010
0.00777 -0.03230 -0.02692
-0.01638 0.00010 -0.22092
0.02726 0.01450 -0.11053
-0.00444 0.00069 0.00473
0.03749 -0.02035 0.01495
-0.01742 0.00340 -0.00534
0.03822 -0.01361 0.01350
-0.00127 -0.07586 0.01567
0.00126 -0.05660 -0.00030
0.00001 -0.11302 0.05087
0.00116 -0.09545 0.03409
0.07079 0.03285 -0.09785
-0.01902 0.02568 0.00487
0.01014 -0.00380 -0.10754
0.01252 -0.04233 0.03367
-0.01066 0.01572 -0.07453
0.01920 -0.03920 0.01167
0.00150 -0.09361 0.06016
0.03670 -0.01056 0.02034
0.00513 -0.06134 0.01631
-0.00734 -0.06838 0.01062
0.00181 0.01690 -0.19747
-0.03047 -0.01884 -0.00021
-0.00151 -0.10551 0.05330
0.01902 -0.03322 -0.00379
0.01277 -0.08016 0.08947
-0.02088 -0.01653 -0.02540
-0.01472 -0.09659 0.14602
-0.01747 -0.05836 0.03501
-0.01137 -0.03474 -0.01459
0.00037 0.05146 0.19730
0.00581 -0.03713 -0.03504
-0.00257 -0.10326 0.09302
-0.02402 -0.03369 0.01482
-0.00894 -0.11238 0.06093
-0.00450 -0.02629 -0.02539
-0.01166 -0.02018 -0.05875
-0.00780 -0.02089 0.00792
-0.03762 0.02351 -0.01745
-0.00786 0.01039 -0.22979
0.00656 -0.08055 0.01531
-0.04479 0.05253 0.01552
0.00551 -0.01781 -0.05203
0.00891 -0.06139 0.04879
0.02153 -0.01506 -0.04652
0.00882 -0.07240 0.03395
0.02247 -0.02239 -0.02196
-0.02239 -0.02989 0.00589
-0.00825 0.00632 -0.22851
0.00698 -0.03908 -0.00636
0.00195 -0.02711 -0.08428
0.01302 -0.03283 -0.00140
0.02383 -0.03251 0.02625
0.01703 -0.04166 0.01204
0.01550 -0.02439 -0.02464
-0.02767 -0.00754 -0.00537
0.00925 -0.02198 0.00120
