# .PCD v.7 - Point Cloud Data file format
VERSION .7
FIELDS x y z
SIZE 4 4 4
TYPE F F F
COUNT 1 1 1
WIDTH 1869
HEIGHT 1
VIEWPOINT 0 0 0 1 0 0 0
POINTS 1869
DATA ascii
-0.02142 0.00452 -0.01459
-0.02589 0.00910 0.08084
0.00032 -0.00011 -0.06006
0.00161 0.00006 -0.04811
0.00003 -0.00014 -0.06090
-0.02385 0.00944 0.05766
-0.01499 -0.00524 -0.02117
0.03967 0.01412 0.13386
-0.01455 0.00178 -0.00418
0.00217 0.00034 -0.04756
-0.02690 0.00037 0.07714
-0.02659 -0.00036 0.05313
0.00753 0.00180 -0.03227
-0.01653 0.00287 -0.00321
0.05287 -0.02159 0.11629
-0.03101 0.00683 0.00098
0.00174 0.00074 -0.05278
-0.03009 0.00009 0.01088
-0.03452 0.00688 0.02475
0.00803 0.00149 -0.03120
-0.05728 0.01611 0.17804
-0.02907 0.00625 -0.00690
-0.06980 0.01376 0.06474
-0.01414 0.00380 -0.02607
0.06672 -0.02544 0.13498
0.00449 0.00117 -0.03622
0.04259 0.01118 0.15932
-0.03165 0.00609 0.00024
0.04478 0.01174 0.19483
0.06413 -0.02635 0.12067
-0.01202 0.00098 -0.03898
0.00006 -0.00014 -0.06077
0.00016 -0.00010 -0.06020
-0.02905 0.00135 -0.00404
-0.02254 -0.00672 -0.01031
0.01188 0.00092 -0.03006
-0.06522 0.01144 0.15837
-0.02107 -0.00665 -0.00335
-0.02362 -0.00075 0.05973
-0.00633 0.00050 -0.03863
-0.03094 0.00699 0.03118
-0.03698 0.00937 0.03307
0.07874 -0.01840 0.14030
-0.01460 0.00100 -0.03692
-0.00259 0.00029 -0.04856
-0.03241 0.00203 0.00303
-0.02868 0.00096 0.02983
0.00043 -0.00010 -0.05987
0.00000 -0.00013 -0.06076
0.00003 -0.00014 -0.06087
0.04271 -0.00042 0.16314
0.00444 0.00028 -0.05062
0.06081 -0.02753 0.12768
-0.01271 0.00165 -0.03743
-0.02317 -0.00675 0.04026
-0.02518 0.00260 0.04342
-0.04531 0.00886 0.16988
-0.01604 -0.01351 0.03486
0.00784 0.00123 -0.01849
-0.00113 0.00003 -0.05585
0.00031 -0.00003 -0.05989
-0.00000 -0.00016 -0.06081
-0.02965 0.00058 0.01325
-0.01656 0.00166 -0.01703
-0.00001 -0.00013 -0.06078
0.00927 0.00091 -0.04080
0.00047 -0.00012 -0.05950
-0.03176 0.00097 0.00569
-0.00024 0.00009 -0.05792
0.00014 -0.00009 -0.06045
-0.04308 -0.02319 0.16955
0.00253 0.00013 -0.04953
0.00149 0.00008 -0.05706
-0.00597 0.00133 -0.03766
-0.00821 0.00142 -0.04031
-0.02854 -0.00373 0.02117
0.00054 -0.00014 -0.05952
0.03246 0.00514 0.17151
0.04206 0.01742 0.19107
0.00236 0.00173 -0.03461
-0.00312 0.00085 -0.05081
-0.00001 -0.00013 -0.06083
-0.05037 0.00531 0.07872
0.03637 -0.00391 0.16363
0.07398 -0.03152 0.15500
-0.02480 -0.00258 0.00536
-0.02513 0.00339 0.00465
0.00138 -0.00028 -0.05700
-0.00068 0.00005 -0.05907
0.00017 -0.00007 -0.06011
-0.02936 0.00400 0.02125
-0.04685 0.01798 0.17123
0.00093 -0.00014 -0.05672
0.00804 0.00123 -0.04253
0.00043 -0.00008 -0.05987
-0.00003 -0.00014 -0.06078
0.00630 0.00051 -0.04586
0.00200 0.00036 -0.04578
-0.00002 -0.00012 -0.06077
-0.03300 0.00396 0.01465
0.00417 0.00017 -0.05112
-0.01601 0.00165 -0.03296
-0.02722 0.00991 0.03945
-0.03221 0.00622 0.00334
0.07095 -0.02179 0.12997
-0.00402 0.00014 -0.04897
0.00101 -0.00015 -0.05523
-0.00135 -0.01463 0.05282
-0.00375 0.00092 -0.04692
0.00225 0.00050 -0.05121
-0.01223 0.00121 -0.02279
0.03604 -0.00056 0.16361
-0.02721 -0.00391 0.03657
0.00053 -0.00003 -0.05951
-0.02882 0.00622 0.02117
-0.02536 -0.00620 -0.01056
-0.01992 0.01487 0.12871
-0.02944 -0.00398 0.00209
-0.00453 0.00088 -0.04570
-0.03225 0.00359 0.01476
0.00033 -0.00010 -0.06012
-0.03101 0.00107 0.01376
-0.00430 0.00084 -0.04570
-0.00328 0.00087 -0.04911
0.00481 0.00046 -0.04991
-0.02874 0.00548 0.00762
0.00006 -0.00014 -0.06077
-0.00709 0.00072 -0.04527
0.07601 -0.01846 0.13969
-0.00001 -0.00013 -0.06078
0.00040 -0.00009 -0.05958
-0.01590 0.00227 -0.00311
0.02404 -0.01341 0.13997
-0.03033 0.00111 0.01340
0.00029 -0.00013 -0.05942
-0.02783 -0.00763 0.01952
0.00009 -0.00014 -0.06066
0.00259 0.00164 -0.03693
0.00036 -0.00012 -0.05956
0.00607 0.00032 -0.04629
0.06532 -0.02173 0.12318
-0.02640 0.00346 0.05319
-0.00093 0.00001 -0.05655
-0.01531 -0.00437 -0.00574
0.08903 0.00705 0.28058
0.00000 -0.00014 -0.06079
-0.03578 0.00249 -0.00905
0.02104 -0.00869 0.13997
-0.06610 -0.00033 0.06436
-0.02983 0.00700 0.01003
0.08712 0.01257 0.15961
-0.02852 0.00326 -0.00843
0.00044 -0.00009 -0.05992
-0.01756 0.00238 -0.02900
-0.02547 0.00260 0.03019
-0.00001 -0.00012 -0.06078
-0.00002 -0.00013 -0.06080
0.00019 -0.00007 -0.06029
0.04471 0.04117 0.14823
0.02552 0.00111 -0.01416
0.00004 -0.00017 -0.06069
-0.03128 0.00675 0.00043
-0.00687 0.00031 -0.03919
0.15403 0.02191 0.22326
-0.03027 -0.00114 0.00429
0.00440 0.00046 -0.04816
-0.01318 0.00118 -0.03887
0.01659 0.00262 -0.02586
-0.03201 -0.00174 0.00239
-0.00002 -0.00014 -0.06078
-0.02960 0.00270 0.00197
-0.00497 0.00106 -0.04107
-0.00529 0.00099 -0.04275
0.07270 -0.02081 0.13427
-0.00062 0.00005 -0.05921
-0.02686 -0.00366 0.04165
-0.03052 -0.00200 0.00329
-0.03152 0.00454 0.00070
-0.00340 0.00096 -0.04585
-0.02839 0.00817 0.04219
0.00021 -0.00011 -0.05883
-0.01560 0.00030 0.00560
0.00008 -0.00013 -0.06065
-0.03377 0.00071 0.00651
0.00923 0.00112 -0.04011
-0.03095 -0.00156 0.00128
-0.02305 0.00090 0.04234
-0.02916 0.00546 0.01292
0.00012 -0.00008 -0.05990
-0.02830 0.00039 0.02059
0.04974 0.01261 0.14015
-0.02995 0.00459 0.02233
-0.04384 -0.00818 0.17229
-0.02832 0.00919 0.05628
-0.00002 -0.00014 -0.06080
0.00938 0.00394 -0.02100
-0.01167 0.00312 -0.01860
0.02647 0.01851 0.12607
-0.01676 0.00261 0.00559
-0.02848 -0.00086 -0.00689
-0.03114 0.00711 0.02143
-0.00172 0.00049 -0.05441
0.05590 -0.02637 0.12039
-0.03177 0.00611 0.00138
0.00271 0.00057 -0.04793
0.07657 -0.02072 0.14752
0.00068 -0.00012 -0.06037
-0.00001 -0.00012 -0.06075
0.00748 -0.00229 -0.01533
-0.02324 -0.00595 0.02940
0.00013 -0.00009 -0.06044
0.07297 -0.01076 0.13463
0.00078 0.00047 -0.05199
0.00045 -0.00007 -0.05987
0.00052 -0.00007 -0.05934
-0.03110 -0.00029 0.00132
0.00007 -0.00075 -0.05608
0.11648 0.01172 0.16796
-0.00017 -0.00018 -0.05852
0.00024 -0.00011 -0.06029
-0.02781 -0.00483 0.01468
-0.01958 0.00243 -0.00242
0.00018 -0.00009 -0.06035
-0.03106 0.00142 0.00744
0.00659 0.00103 -0.03539
0.00091 0.00006 -0.05846
0.00832 0.00124 -0.04293
0.05794 -0.02548 0.11459
-0.02664 -0.00156 -0.01009
-0.03158 0.00332 0.00275
0.00047 -0.00006 -0.05963
-0.02995 -0.00387 0.00017
0.00371 -0.00165 -0.04675
-0.03081 -0.00380 0.03501
-0.01279 -0.00423 -0.02555
0.05621 0.02272 0.20017
0.05788 -0.01031 0.11400
0.00043 -0.00021 -0.05844
0.02010 0.00270 0.16476
0.00046 -0.00008 -0.05987
-0.02220 -0.00689 -0.01247
0.06855 -0.01040 0.12651
-0.03106 0.00352 0.01497
-0.00064 0.00009 -0.05904
-0.01973 -0.00835 -0.01535
0.00014 -0.00008 -0.06007
-0.00001 -0.00014 -0.06077
-0.05101 0.00725 0.17325
-0.00321 0.00105 -0.05070
-0.01806 0.00436 -0.00135
0.06312 -0.02205 0.10542
-0.02095 0.00605 0.00094
-0.03017 0.00650 0.02095
0.03501 -0.01071 0.08034
0.00045 -0.00002 -0.05958
0.00044 -0.00003 -0.05964
0.00275 0.00048 -0.05357
0.07504 -0.02096 0.15665
0.00011 -0.00009 -0.05951
-0.02662 -0.00565 0.02191
0.07042 -0.01651 0.13210
-0.00002 -0.00012 -0.06076
0.00006 -0.00012 -0.06067
0.00204 0.00207 -0.03423
0.00010 -0.00010 -0.06056
0.00024 -0.00007 -0.05988
0.00004 -0.00014 -0.06087
-0.02436 0.00575 0.11250
-0.02659 0.00204 -0.01083
-0.02910 0.00298 0.00389
-0.03213 0.00531 0.01367
-0.02924 0.00543 -0.00664
-0.02866 0.00323 -0.00889
-0.00657 0.00197 -0.01121
0.00023 -0.00011 -0.06033
-0.03240 0.00244 0.00277
-0.02032 0.00347 0.03761
-0.03243 0.00613 0.04274
-0.00156 0.00009 -0.05521
-0.00009 -0.00021 -0.05857
-0.05379 0.02843 0.14945
0.00006 -0.00011 -0.05849
-0.04538 -0.00462 0.16907
-0.00003 -0.00014 -0.06077
0.00501 0.00021 -0.05008
0.06913 -0.01919 0.13052
0.01174 0.00189 -0.04042
0.19950 0.02398 0.27208
0.00390 0.00039 -0.04920
0.00001 -0.00013 -0.06085
-0.02701 0.01322 0.13157
-0.03145 0.00662 0.00223
-0.00169 0.00049 -0.05440
-0.00087 0.00033 -0.05588
-0.00060 -0.00019 -0.05745
0.00039 -0.00005 -0.05979
-0.03193 0.00812 0.00930
0.07328 0.01639 0.14164
0.07726 -0.00128 0.15519
0.06895 -0.02289 0.12942
0.05509 -0.02761 0.12858
0.01059 0.00147 -0.03694
-0.06484 0.01896 0.11478
-0.00027 -0.00070 -0.05073
-0.01797 0.00540 0.00153
-0.00107 -0.00090 -0.04874
0.00143 -0.00056 -0.05402
-0.00003 -0.00012 -0.06075
-0.00049 0.00015 -0.05772
-0.02529 -0.00114 0.03998
0.06556 -0.02767 0.11825
-0.01997 0.00411 0.17215
0.06610 -0.02451 0.12770
0.05954 -0.02587 0.12639
-0.00012 -0.00007 -0.05930
-0.00644 0.00025 -0.04086
-0.01037 -0.00287 -0.02975
0.05486 -0.02389 0.12344
-0.03071 -0.00060 0.00442
0.00018 -0.00013 -0.06036
0.08612 -0.01351 0.15481
0.00006 -0.00015 -0.06074
-0.02182 -0.01194 0.05286
0.05107 -0.02295 0.07934
0.01071 0.00146 -0.03793
0.00009 -0.00009 -0.06050
0.00007 -0.00077 -0.05633
-0.01275 0.00098 -0.03893
-0.02607 -0.00338 0.04429
-0.03461 0.00220 -0.00756
-0.04945 0.00007 0.05429
0.00019 -0.00007 -0.06025
-0.04827 -0.01077 0.17172
-0.04158 0.00992 0.02027
0.00033 -0.00012 -0.05931
-0.03059 0.00675 0.00215
0.00146 0.00054 -0.05101
-0.00201 -0.00008 -0.05228
0.00039 -0.00003 -0.05959
-0.00245 0.00030 -0.05101
-0.00541 0.00125 -0.04165
-0.00102 0.00005 -0.05667
-0.00169 0.00076 -0.05245
-0.00258 0.00060 -0.05108
0.00076 -0.00003 -0.05908
0.03426 0.01227 0.15978
-0.00044 0.00022 -0.05588
-0.00002 -0.00016 -0.06047
-0.01831 -0.00666 -0.01551
0.00092 -0.00007 -0.05778
-0.01991 -0.00645 -0.01162
-0.02715 -0.00806 0.00201
0.00262 0.00066 -0.04649
-0.02822 -0.00798 0.00126
0.02271 -0.00148 0.16608
-0.01986 -0.00604 -0.01139
-0.02634 -0.00205 0.04115
-0.03174 0.00465 0.00295
-0.01885 -0.00623 -0.01327
0.00022 -0.00028 -0.05939
-0.01254 0.01372 0.15898
0.07385 0.00769 0.11556
0.00003 -0.00015 -0.06086
-0.02761 -0.00273 0.02291
-0.03095 -0.00041 0.00699
0.00218 -0.00042 -0.05002
-0.06240 0.00189 0.12786
0.05427 -0.02889 0.15800
-0.02863 -0.00202 0.01979
0.00001 -0.00013 -0.06083
-0.00001 -0.00014 -0.06083
-0.00002 -0.00020 -0.06057
0.00000 -0.00012 -0.06081
-0.00002 -0.00015 -0.06077
-0.02795 -0.00225 0.02843
0.00001 -0.00013 -0.06082
-0.00001 -0.00013 -0.06083
0.00000 -0.00014 -0.06082
-0.00001 -0.00014 -0.06085
0.00000 -0.00013 -0.06083
-0.00001 -0.00013 -0.06078
-0.00001 -0.00013 -0.06083
-0.03074 -0.00109 0.00390
0.07996 -0.00005 0.15863
-0.03051 0.00167 0.01399
0.06361 -0.00746 0.19135
0.00443 -0.00122 -0.02453
-0.02961 0.00248 -0.00424
0.00056 -0.00025 -0.05726
-0.02983 0.00102 0.00463
-0.00001 -0.00015 -0.06085
0.00012 -0.00018 -0.05861
-0.00001 -0.00015 -0.06077
-0.02620 -0.00972 0.00204
-0.02870 -0.01064 0.01059
0.00040 -0.00020 -0.05978
0.00034 -0.00015 -0.05930
-0.00015 -0.00009 -0.06047
0.00182 -0.00029 -0.05263
-0.00000 -0.00015 -0.06074
-0.04424 0.00391 0.20002
-0.03201 0.00761 0.02413
-0.00009 -0.00015 -0.06058
-0.03068 0.00786 -0.00070
0.00043 -0.00019 -0.05982
-0.02533 -0.00685 -0.00958
-0.00001 -0.00016 -0.06085
0.00685 -0.00168 -0.01559
-0.00018 -0.00011 -0.06047
-0.02915 -0.00191 0.01574
-0.03070 0.00065 0.01044
-0.02997 -0.00032 0.00092
-0.02867 -0.00098 0.01656
-0.02584 -0.00868 0.00272
0.00003 -0.00014 -0.06090
-0.00214 -0.00013 -0.05036
0.00023 -0.00010 -0.06021
0.00244 -0.00069 -0.04869
-0.00003 -0.00014 -0.06079
-0.00003 -0.00017 -0.06053
-0.00000 -0.00014 -0.06082
0.01794 -0.00528 0.16570
-0.02771 -0.00881 0.00343
-0.00000 -0.00013 -0.06084
0.00010 -0.00015 -0.06051
0.00227 -0.00087 -0.04962
-0.00002 -0.00012 -0.06079
0.00024 -0.00012 -0.06028
-0.03763 -0.00966 0.15074
0.00002 -0.00014 -0.06074
-0.00022 -0.00014 -0.05991
0.00011 -0.00016 -0.05868
-0.00000 -0.00013 -0.06083
0.00707 -0.00349 0.00102
-0.00003 -0.00014 -0.06080
-0.00001 -0.00015 -0.06085
0.00016 -0.00010 -0.06021
-0.00001 -0.00013 -0.06082
0.00468 -0.00163 -0.02475
-0.00003 -0.00011 -0.06053
-0.00001 -0.00014 -0.06076
-0.00001 -0.00013 -0.06082
-0.00002 -0.00015 -0.06085
-0.00001 -0.00015 -0.06085
-0.00001 -0.00015 -0.06085
-0.03119 0.00193 0.01438
0.00093 -0.00019 -0.05647
-0.00002 -0.00015 -0.06079
0.00010 -0.00015 -0.06052
0.00156 -0.00081 -0.03934
0.00069 -0.00012 -0.06036
-0.00003 -0.00014 -0.06081
-0.00022 -0.00009 -0.06018
0.00053 -0.00014 -0.05983
0.01673 -0.02118 0.16585
0.00043 -0.00018 -0.05985
0.00003 -0.00015 -0.06086
-0.00344 -0.00131 -0.04613
0.00076 -0.00003 -0.05954
0.05084 0.01945 0.15300
0.02292 -0.00370 0.16547
-0.02873 -0.00902 0.00443
-0.00005 -0.00015 -0.05901
-0.02954 -0.00043 0.01304
0.00502 -0.00371 -0.00676
0.00568 -0.00353 -0.01160
0.00003 -0.00015 -0.06086
-0.02733 -0.00257 0.03997
-0.02662 -0.00279 0.04694
-0.02996 -0.00135 0.01421
0.04479 0.00570 0.15982
0.00816 -0.00157 -0.00296
-0.00349 0.00059 -0.04704
0.00044 -0.00009 -0.05964
0.05471 -0.00394 0.19363
0.00045 -0.00018 -0.05986
0.00501 -0.00124 -0.03433
-0.00001 -0.00013 -0.06081
-0.02161 -0.00583 -0.00755
-0.00035 0.00006 -0.05818
-0.02746 -0.00250 0.03717
0.00011 -0.00018 -0.05822
-0.00437 0.00143 -0.04240
-0.03227 -0.00205 0.01267
-0.02291 -0.00759 -0.01288
-0.00045 0.00018 -0.05710
-0.02905 -0.00119 0.01356
-0.00000 -0.00014 -0.06083
-0.00001 -0.00014 -0.06081
0.03080 -0.00372 0.16649
0.00013 -0.00010 -0.06042
0.06152 -0.00815 0.16230
-0.02733 -0.00124 0.03444
-0.00169 -0.00013 -0.05263
-0.03006 -0.00908 0.00260
-0.00849 0.00202 -0.03200
0.00148 -0.00084 -0.04457
-0.02987 -0.01200 0.00543
-0.00000 -0.00014 -0.06083
-0.02664 -0.00561 0.04595
0.00543 -0.00160 -0.02019
0.01736 -0.00353 0.01897
0.00046 -0.00012 -0.05953
0.00065 -0.00312 -0.02476
-0.02252 -0.00624 -0.00663
-0.02649 -0.00647 -0.00666
0.00049 -0.00012 -0.05890
-0.00000 -0.00013 -0.06082
0.00188 0.00067 -0.04899
0.00099 -0.00017 -0.05558
0.00023 -0.00011 -0.06033
-0.02756 -0.00744 0.00081
0.00002 -0.00014 -0.06089
-0.09087 0.01807 0.22293
-0.02806 -0.00221 0.02631
-0.03770 -0.00381 0.00678
0.00004 -0.00011 -0.05913
-0.03549 0.00732 0.00818
-0.01959 0.00348 -0.00437
-0.03191 0.00546 0.00106
-0.00001 -0.00013 -0.06083
0.00009 -0.00020 -0.06048
-0.02697 -0.00473 0.04159
-0.02994 -0.00379 0.01144
-0.01762 0.00263 -0.00444
-0.05877 0.00409 0.17545
-0.00001 -0.00013 -0.06083
0.00016 -0.00010 -0.06021
0.00003 -0.00014 -0.06089
0.00003 -0.00014 -0.06091
-0.02612 -0.00802 0.00275
-0.02838 -0.00427 0.00057
-0.00001 -0.00014 -0.06074
0.00009 -0.00014 -0.06063
-0.00202 0.00062 -0.05110
-0.00527 0.00117 -0.04433
-0.03122 0.00233 0.00531
0.01114 -0.00049 -0.02574
-0.02875 -0.00020 0.01745
-0.00611 -0.00098 -0.03851
-0.01881 -0.00590 -0.01303
0.00023 -0.00011 -0.06029
-0.00032 -0.00017 -0.05994
-0.00056 0.00011 -0.05768
-0.02532 -0.00244 0.00362
0.00000 -0.00012 -0.06076
-0.04622 0.00647 0.17381
-0.00000 -0.00013 -0.06081
0.00054 -0.00012 -0.05988
-0.03633 0.00009 0.03504
0.00043 -0.00011 -0.05957
-0.00001 -0.00014 -0.06079
-0.03062 -0.00110 0.00930
-0.03327 -0.00110 0.01363
-0.03112 -0.00216 0.00754
0.00040 -0.00002 -0.05958
-0.00002 -0.00012 -0.06079
-0.02785 -0.00881 0.00626
0.00007 -0.00015 -0.06072
0.00021 -0.00018 -0.05939
0.00677 -0.00113 -0.01610
-0.02860 -0.00425 0.00392
0.00135 -0.00083 -0.04482
-0.00281 -0.00008 -0.05414
-0.00004 -0.00013 -0.06072
0.00003 -0.00013 -0.06087
0.00524 -0.00290 -0.01376
-0.02853 -0.00006 0.01245
-0.00001 -0.00010 -0.05979
-0.03180 0.00166 0.01176
-0.02861 -0.00324 -0.00006
-0.00006 -0.00011 -0.05935
-0.02734 0.00525 0.02181
-0.00002 -0.00014 -0.06078
-0.00123 0.00063 -0.05441
-0.00038 -0.00017 -0.05952
0.00001 -0.00013 -0.06079
-0.02189 -0.00556 -0.01274
-0.03039 0.00044 0.01366
0.00023 -0.00011 -0.06030
-0.03285 -0.00256 0.01302
-0.03085 0.00216 0.01462
-0.02945 -0.00425 0.00083
0.00008 -0.00011 -0.06063
-0.01838 0.00352 -0.00332
0.02433 -0.00380 0.16455
-0.03131 -0.00285 0.00940
-0.00005 -0.00012 -0.06076
-0.02946 -0.00182 0.01171
-0.03236 -0.00133 -0.00032
0.00032 -0.00007 -0.05987
-0.03612 0.00241 0.06613
-0.02448 -0.00826 -0.00682
0.00005 -0.00014 -0.06064
-0.03048 0.00442 0.01500
-0.00002 -0.00015 -0.06076
-0.01065 -0.00549 -0.03651
0.08305 -0.03159 0.16602
0.00000 -0.00013 -0.06082
0.00009 -0.00015 -0.06064
0.04025 -0.00660 0.16385
0.04266 -0.00976 0.05747
0.00737 -0.00211 -0.01626
-0.02862 -0.01228 0.00317
0.00017 -0.00004 -0.05868
-0.00000 -0.00013 -0.06083
0.08346 -0.03277 0.16689
-0.02917 -0.00181 0.01265
-0.02821 -0.00160 0.02162
-0.05705 0.02414 0.18256
-0.00293 -0.00087 -0.05341
-0.02862 0.00043 0.02705
-0.02808 -0.00809 0.00237
-0.00013 -0.00009 -0.05932
-0.02442 -0.00617 0.03157
-0.00937 -0.00415 -0.03813
-0.00002 -0.00013 -0.06075
-0.00002 -0.00014 -0.06080
0.00001 -0.00012 -0.06077
0.01791 0.00369 0.16341
0.00009 -0.00014 -0.06064
-0.03109 0.00198 0.01155
-0.00000 -0.00012 -0.06075
-0.02800 -0.00335 0.02433
-0.00988 -0.00483 -0.03710
-0.00163 0.00044 -0.05571
-0.01614 0.00322 -0.02029
0.00033 -0.00024 -0.05871
0.07735 0.00448 0.15474
0.06244 -0.00586 0.16005
0.06223 0.02051 0.14557
0.00029 -0.00010 -0.06003
0.00018 -0.00017 -0.05916
-0.02557 -0.00286 0.05085
-0.03035 0.00012 0.00989
-0.03053 -0.00053 0.00982
0.00014 -0.00009 -0.05879
0.07444 0.01582 0.28670
-0.02836 -0.00405 0.02789
0.00017 -0.00017 -0.05911
-0.00000 -0.00013 -0.06084
0.01172 0.00965 0.15511
0.06227 0.02126 0.23011
0.00001 -0.00012 -0.06076
-0.00002 -0.00012 -0.06079
0.00033 -0.00008 -0.06003
0.00022 -0.00011 -0.06028
0.00001 -0.00013 -0.06079
-0.02955 -0.00225 0.01213
0.00045 -0.00010 -0.05992
-0.02858 -0.00239 0.01507
-0.00283 -0.00019 -0.05151
-0.00214 -0.00001 -0.05567
-0.00001 -0.00012 -0.06078
-0.02948 -0.00086 0.01163
-0.00013 0.00076 -0.04426
-0.03134 0.00338 0.00373
0.06088 0.00695 0.15710
-0.02871 -0.00197 0.01805
-0.00975 0.01247 0.10625
-0.01725 0.00637 -0.00191
-0.00000 -0.00012 -0.06076
-0.03213 0.00682 0.00082
-0.02945 -0.00226 0.01027
0.00065 0.00005 -0.05882
0.00034 -0.00010 -0.06010
0.00001 -0.00013 -0.06080
-0.03122 0.00132 0.00479
0.00034 -0.00011 -0.06015
-0.02500 -0.00488 0.04490
-0.03150 -0.00139 0.01002
0.00022 -0.00011 -0.06033
-0.00001 -0.00012 -0.06072
-0.00001 -0.00014 -0.06078
0.00023 -0.00011 -0.06030
0.00042 -0.00007 -0.05963
-0.05935 0.01498 0.09584
-0.02770 -0.00797 -0.00629
0.00316 -0.00005 -0.04654
-0.00035 0.00002 -0.05904
-0.00068 0.00010 -0.05855
-0.03114 0.00593 0.01518
0.00028 -0.00012 -0.06019
0.00008 -0.00020 -0.05758
-0.01996 -0.00632 0.02355
0.00060 0.00015 -0.05803
0.00283 0.00106 -0.03989
-0.00167 -0.00043 -0.05342
0.00288 0.00110 -0.04048
0.00272 0.00085 -0.04227
0.00030 -0.00014 -0.05984
-0.03126 0.00203 0.01320
-0.00068 0.00009 -0.05893
-0.02781 -0.00027 0.02341
0.00000 -0.00013 -0.06081
-0.03531 0.00388 0.01888
0.01832 0.02056 0.21456
-0.00536 0.00390 0.00191
-0.04664 -0.00321 0.17383
-0.03095 -0.00062 0.00972
-0.02524 -0.00477 -0.00827
-0.01685 -0.02538 0.15814
0.00006 -0.00010 -0.05986
-0.03031 -0.00043 0.01350
0.00049 -0.00017 -0.05888
-0.00148 0.00031 -0.05583
-0.03009 0.00605 0.01568
-0.00002 0.00001 -0.05948
0.00003 -0.00014 -0.06087
-0.00000 -0.00012 -0.06075
-0.02922 -0.00277 0.01124
-0.02275 0.00468 -0.00224
0.00010 -0.00014 -0.06052
-0.02759 -0.00112 0.02322
-0.00001 -0.00014 -0.06079
-0.02872 -0.00142 0.01398
-0.03195 0.00368 0.00980
-0.03135 -0.00099 0.01190
-0.02871 -0.00128 0.04479
-0.00025 -0.00008 -0.06032
-0.04393 0.00254 0.18409
-0.01950 0.01669 0.20012
-0.03103 0.00052 0.01366
0.00004 -0.00018 -0.06071
0.00009 -0.00014 -0.06064
-0.02277 -0.00127 0.03486
0.00000 -0.00013 -0.06083
0.01328 0.01345 0.07628
0.00000 -0.00015 -0.06083
0.00027 -0.00002 -0.05984
0.00043 -0.00011 -0.05939
-0.00000 -0.00012 -0.06079
-0.02439 -0.00341 -0.01449
0.00006 -0.00003 -0.05925
0.00003 -0.00018 -0.06071
0.00013 -0.00016 -0.06039
-0.00008 -0.00014 -0.06069
-0.05064 0.01004 0.07589
-0.02801 -0.00981 0.01584
-0.02592 -0.00921 0.00618
-0.01668 -0.02733 0.16095
0.00056 -0.00017 -0.05694
-0.00001 0.00029 -0.05340
-0.00036 0.00010 -0.05846
-0.02835 -0.00756 0.01463
0.00074 -0.00015 -0.05737
-0.00691 -0.00169 -0.04471
-0.00717 0.00203 -0.04159
0.00108 -0.00044 -0.05561
-0.00075 0.00028 -0.05439
0.01018 0.00101 0.07200
-0.00275 -0.00003 -0.05421
0.00087 -0.00016 -0.05847
0.00028 0.00005 -0.05924
0.03421 0.01690 0.12405
0.00026 -0.00011 -0.06040
-0.02906 -0.00287 0.03230
0.00544 0.01798 0.09635
-0.02669 0.00226 0.05471
0.04236 0.00311 0.16176
-0.00506 0.00026 -0.04335
0.00174 0.00073 -0.05101
0.00400 0.00100 -0.04183
-0.02720 0.00274 0.04518
-0.06348 -0.00417 0.14791
0.02727 0.00292 0.16396
0.00020 -0.00011 -0.06005
0.05326 0.00462 0.15883
-0.03111 0.00232 0.00423
0.00283 0.00045 -0.04287
-0.02530 -0.00537 0.05396
0.05826 -0.00482 0.16198
-0.02340 0.00827 0.08770
-0.00029 0.00000 -0.05972
-0.04794 0.01745 0.17585
0.00089 0.00065 -0.04445
0.00089 -0.00010 -0.04385
-0.04256 0.00917 0.05440
0.00603 0.00182 -0.02778
0.01894 -0.01243 0.00867
0.00015 -0.00007 -0.05988
-0.03423 0.00339 0.03939
-0.00003 -0.00013 -0.06079
0.00318 -0.01490 0.05838
0.11289 0.01459 0.15982
0.03518 -0.00668 0.16490
-0.03061 -0.00134 0.01200
0.00011 -0.00018 -0.05872
-0.02591 -0.00423 0.04479
-0.02566 -0.00143 0.05001
0.00434 -0.01377 0.06020
0.00680 -0.02380 0.16694
0.00000 -0.00014 -0.06080
0.00198 -0.00020 -0.04599
-0.00001 -0.00014 -0.06074
0.00046 -0.00008 -0.05976
0.00250 0.00040 -0.05244
-0.02655 -0.00503 0.03456
-0.05452 -0.00540 0.15011
-0.02282 -0.01058 -0.00779
0.07373 -0.00060 0.15753
0.00319 -0.00088 -0.04219
0.00578 -0.00164 -0.01953
-0.02895 -0.00182 0.01354
-0.00308 0.00036 -0.05253
-0.03677 -0.00254 0.01992
-0.02476 -0.00543 0.05558
-0.03281 -0.00162 0.01469
-0.00820 -0.00072 -0.03145
-0.02920 0.00039 0.01651
-0.06149 0.01733 0.21178
-0.03107 0.00168 0.00521
-0.06957 0.00788 0.17552
-0.06152 0.00800 0.17683
0.00044 -0.00010 -0.05981
0.05119 -0.00528 0.16306
0.03150 0.02015 0.15724
0.03371 0.00442 0.16309
0.01051 0.00552 0.07102
0.05080 -0.01113 0.16290
-0.00341 0.00108 -0.05016
0.05247 0.02349 0.17653
-0.03087 0.00395 0.01465
-0.06685 -0.00222 0.12817
-0.02992 0.00740 0.01408
0.05601 0.01958 0.18861
-0.02297 0.00174 0.03363
0.00036 -0.00001 -0.05944
0.05229 -0.02580 0.13757
0.05141 0.01652 0.15402
0.03284 -0.01495 0.16586
-0.00002 -0.00012 -0.06081
-0.03507 0.00526 0.01551
0.05188 -0.00154 0.16073
0.03458 -0.00144 0.16324
-0.02462 0.00159 0.04926
0.06507 0.02033 0.23542
0.04061 0.01633 0.15954
-0.02345 0.00892 0.06972
0.00034 0.00005 -0.05881
-0.00294 0.00070 -0.05199
-0.02841 0.00163 0.02927
-0.00254 0.00004 -0.05281
0.00005 -0.00017 -0.06069
-0.00220 0.00025 -0.05292
-0.00214 0.00058 -0.05325
-0.00056 0.00030 -0.05401
-0.03186 -0.00173 0.00778
-0.02535 0.00280 0.05238
0.00065 0.00003 -0.05881
-0.00001 -0.00011 -0.06071
-0.02547 -0.00049 0.05157
-0.02805 0.00500 0.03903
0.05198 0.00515 0.15949
-0.00001 -0.00014 -0.06084
0.01924 0.01076 0.16508
-0.02730 -0.00304 0.03581
-0.00000 -0.00014 -0.06077
0.00033 -0.00015 -0.05952
-0.02859 -0.00021 0.02928
0.00041 -0.00011 -0.05942
0.00054 -0.00005 -0.05965
0.00030 -0.00026 -0.05915
0.06198 0.01138 0.14833
-0.02718 0.00887 0.02952
-0.01906 0.00257 0.00048
0.00041 0.00002 -0.05922
0.05258 0.00929 0.11189
0.00034 0.00000 -0.05854
-0.00493 0.00133 -0.04607
0.02594 -0.00669 0.16490
0.02821 0.01046 0.16325
-0.04579 -0.00832 0.17003
0.08588 0.01800 0.14609
-0.00125 -0.00073 -0.04655
-0.00135 -0.00075 -0.04416
0.02825 -0.01110 0.16473
-0.00002 -0.00014 -0.06078
-0.03143 0.00289 0.00667
-0.03151 0.00557 0.00204
0.00123 0.00015 -0.05592
0.00000 -0.00013 -0.06080
-0.00062 0.00004 -0.05748
0.00032 -0.00001 -0.05944
-0.04785 0.00705 0.17065
0.00000 -0.00014 -0.06076
-0.01751 0.00360 -0.00365
0.00112 0.00008 -0.05569
-0.00001 -0.00012 -0.06059
-0.02932 -0.00132 0.01110
0.00358 0.00119 -0.03957
-0.00001 -0.00014 -0.06079
-0.00749 0.00131 -0.03892
0.00570 0.00311 -0.02497
0.00046 -0.00011 -0.05976
0.00003 -0.00014 -0.06091
-0.00351 0.00072 -0.04967
0.00003 -0.00014 -0.06089
-0.00000 -0.00013 -0.06079
0.00008 -0.00007 -0.05999
-0.00001 -0.00013 -0.06081
-0.02742 0.00478 0.01313
0.00003 -0.00014 -0.06090
-0.02117 -0.00880 -0.01230
0.00526 -0.00103 -0.03839
0.00030 -0.00004 -0.05963
-0.00002 -0.00013 -0.06076
0.03655 -0.00376 0.13970
0.00236 0.00131 -0.04219
0.05112 0.00294 0.16078
0.00354 -0.00087 -0.03803
-0.02731 -0.00865 -0.00535
0.01607 0.00502 0.00316
-0.02359 -0.00509 0.03479
-0.03004 0.00510 0.00105
0.00057 -0.00005 -0.05950
0.02914 0.02254 0.13444
0.02735 -0.00384 0.16523
-0.00445 0.00146 -0.04558
-0.02573 0.00129 0.00875
0.00038 -0.00003 -0.05949
-0.02928 0.01082 0.06099
-0.00302 0.00088 -0.04918
-0.02406 -0.00057 0.05671
-0.00019 0.00007 -0.05872
-0.03367 0.00507 0.01588
0.00052 -0.00011 -0.05964
0.02184 0.01336 0.16515
0.00022 -0.00011 -0.06032
-0.02975 -0.00082 0.00466
0.00045 0.00001 -0.05933
-0.00259 -0.00039 -0.05131
-0.00000 -0.00016 -0.06083
0.00353 -0.00154 -0.04726
-0.00019 -0.00010 -0.06041
0.00068 -0.00012 -0.06037
0.00013 -0.00008 -0.06003
-0.00000 -0.00013 -0.06082
-0.00004 -0.00012 -0.06072
0.00030 -0.00012 -0.05936
0.08902 0.02063 0.16205
0.00044 -0.00007 -0.05986
-0.00001 -0.00015 -0.06072
0.00043 -0.00009 -0.05987
0.00024 -0.00005 -0.05970
0.00026 -0.00011 -0.06040
-0.02426 0.00221 -0.01631
0.02108 0.01065 0.16377
-0.00972 0.00209 -0.03870
-0.00001 -0.00013 -0.06083
-0.03044 -0.00187 0.01059
0.00132 -0.00009 -0.05151
0.00053 -0.00015 -0.05950
0.01478 0.01516 0.10966
-0.03055 -0.00100 0.01288
0.00046 -0.00006 -0.05988
-0.00031 -0.00007 -0.05997
-0.03008 0.00840 0.01963
-0.00104 0.00031 -0.05650
-0.00076 0.00029 -0.05694
-0.06783 0.01397 0.06273
-0.00011 0.00007 -0.05868
-0.03044 0.00104 0.00180
-0.05565 0.02845 0.18535
0.00039 -0.00017 -0.05933
-0.06054 0.01586 0.11954
0.00003 -0.00014 -0.06090
0.00026 -0.00011 -0.06039
-0.04446 0.00527 0.06445
-0.02510 0.00578 0.05472
0.00152 0.00056 -0.04993
-0.02765 -0.00312 0.01889
-0.02895 0.00764 0.02544
0.04739 0.00160 0.19595
-0.03094 -0.00008 0.04010
0.05522 0.01919 0.15151
0.00173 0.00031 -0.05227
0.00055 0.00010 -0.05503
0.19196 0.04808 0.56696
-0.06539 -0.00101 0.08772
-0.02690 0.00416 0.04903
-0.00004 0.00006 -0.05894
-0.00000 -0.00014 -0.06074
-0.05691 0.02527 0.13342
0.00027 -0.00008 -0.05993
0.00075 -0.00017 -0.05901
-0.00018 -0.00002 -0.05924
0.00044 -0.00004 -0.05969
0.00762 0.00222 -0.02593
0.17153 0.03074 0.45553
0.01732 0.00342 0.14044
-0.03094 -0.00096 0.01172
-0.12471 0.00884 0.26097
-0.00252 0.00093 -0.05160
0.00572 0.00120 -0.04084
0.00001 -0.00012 -0.06079
0.00038 -0.00006 -0.05950
-0.04311 -0.00800 0.16437
-0.00190 0.00037 -0.05230
-0.02535 -0.00600 0.05112
0.00702 0.00129 -0.02313
-0.00209 0.00023 -0.05162
0.00973 0.00125 -0.03911
-0.01540 -0.02781 0.16006
0.02904 -0.00269 0.16514
0.00081 0.00002 -0.05905
-0.10039 0.00710 0.22477
-0.05859 0.00417 0.14279
0.00093 -0.00001 -0.05536
0.00043 -0.00002 -0.05943
-0.06542 0.00390 0.17501
0.00020 -0.00007 -0.06029
-0.03209 0.00343 0.01153
0.00026 -0.00011 -0.06040
-0.03182 0.00719 0.00079
-0.01008 0.01570 0.18302
0.00026 -0.00011 -0.06039
-0.02879 0.00403 0.02112
0.07734 0.02284 0.22361
-0.00252 0.00022 -0.05165
-0.03165 0.00032 0.00969
-0.06849 0.00726 0.17549
0.01547 0.01422 0.16111
0.00055 -0.00005 -0.05967
-0.00002 -0.00012 -0.06075
-0.03060 0.00755 0.00819
-0.04937 -0.00033 0.22627
-0.06632 0.00574 0.17500
-0.00057 -0.00008 -0.05809
0.05759 -0.00457 0.23454
0.02004 0.00581 0.14322
0.02483 0.00838 0.16382
0.03228 0.00637 0.16268
-0.03052 -0.01158 0.16306
0.00060 -0.00011 -0.05782
-0.06544 0.00487 0.17573
0.00178 0.00002 -0.05153
0.02076 0.00677 0.16400
-0.06395 0.00400 0.17472
-0.00419 0.00036 -0.04476
0.00153 0.00003 -0.05355
-0.04390 -0.02656 0.17179
0.03987 0.04283 0.76236
-0.04684 0.01261 0.17117
-0.02803 0.00033 0.00365
0.00064 -0.00004 -0.05740
-0.05536 0.01455 0.17299
-0.06614 0.00303 0.17727
-0.06663 0.00501 0.12664
-0.05260 0.00113 0.17389
-0.08693 0.01266 0.21259
-0.02518 -0.00568 0.03538
-0.06797 0.00327 0.17539
-0.00397 0.00073 -0.04427
0.03302 -0.00778 0.15999
0.00061 -0.00012 -0.05932
0.01472 0.00983 0.16283
-0.05889 0.01578 0.17748
-0.00000 -0.00012 -0.06072
-0.00179 0.00014 -0.05279
-0.07155 -0.00183 0.17683
-0.05671 0.00337 0.17480
-0.00030 -0.00007 -0.05833
-0.02680 -0.00535 0.02110
-0.06150 0.00973 0.12677
0.03145 0.00252 0.18196
-0.07073 -0.02160 0.18714
-0.00202 0.00058 -0.05521
-0.03685 0.00892 0.05812
-0.03253 0.00687 0.01325
0.01014 -0.00190 -0.01746
-0.03076 0.00269 0.00118
-0.03984 0.01274 0.17149
0.00042 -0.00004 -0.05969
0.02140 0.00468 0.15990
-0.03581 0.01100 0.14049
0.02805 0.00283 0.16369
0.00147 0.00000 -0.05274
-0.00140 0.00002 -0.05674
0.01126 -0.01960 0.16387
0.00009 -0.00011 -0.06062
-0.05541 0.00661 0.14831
-0.03794 0.01070 0.15240
-0.00058 0.00004 -0.05804
0.05882 0.01289 0.23633
0.00704 0.00104 -0.03307
0.10600 0.00591 0.34996
-0.08708 0.01611 0.24848
0.00026 -0.00011 -0.06039
-0.02573 -0.00592 -0.00640
-0.13476 0.01306 0.29690
-0.00010 -0.00011 -0.06048
-0.07338 0.00638 0.17692
-0.03675 0.00691 0.12004
-0.03215 -0.00322 0.04122
0.01400 -0.02537 0.16740
-0.00047 0.00002 -0.05852
0.00026 -0.00011 -0.06040
0.01612 -0.02443 0.16780
0.03466 -0.00385 0.16470
-0.04439 0.01514 0.16682
-0.00372 0.00056 -0.05240
0.02529 0.01315 0.16413
-0.01219 0.01675 0.20804
0.00023 -0.00011 -0.06028
-0.00040 0.00056 -0.04981
-0.10425 0.00710 0.22485
0.02694 0.00804 0.16255
-0.03994 0.01561 0.17182
0.03981 0.00035 0.19682
0.02339 0.00516 0.16526
0.00998 -0.03306 0.17159
-0.03616 0.00866 0.15086
-0.06627 0.00810 0.17593
0.00944 -0.03413 0.16694
-0.06416 -0.00085 0.17638
-0.04874 0.00825 0.17320
-0.02355 0.00204 0.04684
0.00014 -0.00010 -0.06012
-0.03871 0.00926 0.15154
0.00260 0.00045 -0.04088
0.17516 0.02935 0.46812
-0.06466 0.00327 0.17598
-0.04658 0.01533 0.16965
0.18021 -0.00086 0.46675
0.00874 -0.02706 0.16770
0.02632 -0.00114 0.16701
0.00027 -0.00011 -0.06021
0.02439 0.00769 0.16323
-0.06341 -0.00291 0.17580
0.03098 0.00663 0.16797
0.01534 0.01536 0.16289
0.00682 -0.02093 0.16186
-0.06115 0.00416 0.09535
-0.01774 0.00873 0.01732
-0.06525 0.00471 0.16297
-0.07162 0.00789 0.17805
-0.01309 -0.02698 0.15960
-0.00015 -0.00009 -0.05952
0.00008 -0.00013 -0.06063
0.02531 -0.00770 0.16187
-0.05570 0.00876 0.17465
-0.04768 0.01467 0.17111
-0.00545 0.01424 0.16598
-0.05710 0.00958 0.17401
0.01951 0.00487 0.16410
0.00077 -0.00006 -0.05765
0.08570 0.01435 0.25186
-0.04304 -0.03207 0.17405
0.00044 -0.00011 -0.05951
0.03731 0.00438 0.16995
0.04722 0.00631 0.16022
-0.00003 -0.00012 -0.06067
-0.05523 0.00625 0.16967
0.00003 -0.00013 -0.06085
0.02643 0.01148 0.16523
-0.07988 0.02609 0.23613
0.12038 -0.00273 0.31364
0.07518 0.01512 0.27788
0.01015 -0.02565 0.16827
0.00108 -0.00009 -0.05702
-0.02320 -0.01230 0.16166
-0.02464 0.01291 0.14971
0.03170 0.01545 0.16055
0.02873 0.01065 0.16481
0.00083 -0.00005 -0.05381
-0.01454 0.01448 0.16846
0.00167 0.00026 -0.05437
-0.05786 -0.00094 0.17472
-0.07389 -0.00174 0.17751
-0.00330 -0.00018 -0.04605
-0.04887 0.00368 0.17319
0.01666 0.00282 0.16148
-0.04253 0.01238 0.18123
-0.02837 -0.01708 0.16248
-0.02433 -0.00625 0.04452
-0.03774 0.01234 0.15302
0.02953 0.01212 0.16727
-0.05632 0.01568 0.17502
0.01054 -0.03604 0.16830
0.08563 0.01395 0.24436
0.00033 -0.00004 -0.05940
-0.00048 -0.00011 -0.05791
-0.06831 -0.00076 0.17575
-0.03942 -0.01154 0.16416
-0.04673 -0.00187 0.17160
0.00044 -0.00012 -0.05986
-0.00452 0.01977 0.25653
-0.05837 0.00773 0.17487
0.00026 -0.00011 -0.06039
-0.06016 0.00085 0.12800
-0.00094 0.00026 -0.05535
0.01305 0.00858 0.15856
-0.05443 0.01857 0.17077
-0.00811 0.00635 0.12017
0.01604 -0.01880 0.16434
-0.00882 0.01915 0.19515
0.23180 0.00387 0.63694
-0.06656 0.01194 0.17280
0.02714 0.00171 0.16392
0.00908 0.01166 0.12958
0.00122 -0.00027 -0.05760
0.00006 -0.00014 -0.06077
-0.04806 0.00447 0.17342
-0.05603 -0.00348 0.14761
-0.04652 0.00765 0.17117
0.00023 -0.00010 -0.06028
-0.04084 0.01277 0.16250
0.01485 0.00544 0.14048
-0.00061 -0.00007 -0.05901
-0.03991 -0.00398 0.16427
-0.04663 -0.00984 0.17081
0.00675 0.01854 0.16087
-0.04480 -0.00174 0.16984
-0.04086 0.01527 0.16541
0.00018 -0.00012 -0.05918
-0.00613 -0.00014 -0.04363
-0.06054 0.00826 0.17385
0.00004 -0.00013 -0.06073
-0.04080 0.00526 0.16646
-0.06607 0.00866 0.17833
-0.06865 -0.00072 0.17736
0.00846 0.00179 -0.03061
-0.08083 0.00975 0.23823
-0.04670 0.00019 0.17081
-0.03142 0.01366 0.11848
0.00037 -0.00002 -0.05944
-0.00001 -0.00014 -0.06078
-0.04506 -0.02768 0.17330
0.03346 -0.00677 0.16668
-0.13185 0.01502 0.35351
0.00087 -0.00018 -0.05487
0.01459 -0.01959 0.16707
-0.01696 -0.00454 0.18376
-0.16112 0.05469 0.46550
0.00702 0.01462 0.15912
0.09267 0.02343 0.29853
0.00815 0.01551 0.16148
-0.00028 -0.00011 -0.05855
0.06509 0.01681 0.18585
0.05604 0.02103 0.20499
-0.05529 0.00705 0.17400
0.01571 0.00761 0.16231
0.04866 0.01367 0.20427
0.00331 0.03278 0.44161
0.01337 -0.03135 0.16906
0.02830 -0.00238 0.12163
0.03632 -0.01530 0.16631
-0.03131 0.00401 -0.00076
-0.03021 0.00211 0.01457
-0.04876 -0.00105 0.17433
0.01632 -0.00768 0.16117
0.04161 -0.00182 0.16347
-0.00017 0.00013 -0.05425
0.02175 0.00092 -0.01999
-0.00043 -0.00011 -0.05809
0.00020 -0.00004 -0.05901
-0.13363 0.01548 0.33300
-0.09126 0.01447 0.22729
0.00959 0.01354 0.15937
-0.06746 0.00269 0.17778
-0.04432 -0.01175 0.16854
-0.03372 0.01261 0.11483
-0.02793 -0.01916 0.16262
-0.04059 0.01800 0.16879
-0.01348 0.01261 0.13950
-0.01432 -0.02379 0.16119
-0.05288 0.00066 0.17463
-0.04400 0.01657 0.16605
0.04410 -0.00497 0.19014
0.01649 0.00869 0.14139
-0.12805 0.01280 0.31865
0.03332 0.00684 0.19614
0.00046 -0.00019 -0.05986
0.01410 0.01000 0.15802
-0.05009 -0.01083 0.17205
0.02749 0.02125 0.55881
-0.02626 -0.00220 0.05252
0.00043 -0.00014 -0.05987
-0.02955 0.00269 0.01661
-0.02377 -0.00294 0.05068
-0.03039 0.00790 0.03339
0.03261 -0.00181 0.16455
-0.02865 0.00287 0.03956
0.00054 -0.00012 -0.06002
-0.00182 0.00019 -0.05268
-0.03150 0.00501 0.00127
-0.03678 0.00735 0.03443
-0.00002 -0.00013 -0.06081
-0.02324 -0.01845 0.16156
-0.06662 -0.00077 0.17550
0.00418 0.01192 0.16877
-0.02846 -0.01105 0.16257
0.00080 -0.00006 -0.05827
-0.07939 0.00124 0.18590
-0.03309 -0.00170 0.03148
-0.05822 0.01760 0.17507
0.00336 0.00029 -0.04901
0.00541 0.00302 -0.00158
-0.06721 0.01163 0.17561
0.00006 -0.00013 -0.06078
-0.00299 0.00038 -0.05130
-0.00917 -0.00093 -0.02929
0.00793 0.00186 -0.03139
-0.03948 -0.03200 0.17316
0.00026 -0.00011 -0.06039
-0.02869 -0.00070 0.02991
0.00030 -0.00012 -0.05985
-0.03714 0.00773 0.01652
0.07252 0.01405 0.26233
0.02654 0.01293 0.16378
-0.00013 -0.00013 -0.06055
-0.03471 -0.00315 0.04015
0.02560 0.02073 0.16251
0.00009 -0.00015 -0.06063
0.00190 0.00036 -0.04970
0.06714 0.01843 0.26488
-0.00306 0.00009 -0.05361
-0.00001 -0.00014 -0.06081
-0.02395 -0.00106 0.05307
-0.00280 0.00021 -0.05149
0.02130 -0.00531 0.16558
-0.00105 0.00066 -0.05045
0.00680 0.00271 -0.02153
-0.06970 0.01335 0.06887
0.00033 -0.00009 -0.05907
-0.02283 -0.00219 0.05012
-0.02659 0.00684 0.00837
0.00011 -0.00014 -0.06051
0.02576 0.01182 0.16191
-0.01810 0.00186 -0.00003
0.00051 -0.00009 -0.05802
-0.08091 0.00855 0.23699
0.02245 -0.00794 0.16552
-0.00001 -0.00014 -0.06078
-0.04613 -0.01178 0.16865
-0.02998 0.00269 0.01648
-0.00758 0.00091 -0.03622
0.01643 0.01001 0.16192
0.01373 -0.00725 0.16353
0.01465 0.00675 0.15935
0.00024 -0.00011 -0.06030
0.02697 -0.00971 0.16445
0.02597 0.00238 0.13954
-0.04720 0.00955 0.17093
-0.02383 -0.02136 0.08167
-0.06873 -0.00437 0.17760
-0.00044 0.00022 -0.05588
-0.00231 -0.00031 -0.05192
0.00024 -0.00010 -0.06030
-0.00001 -0.00015 -0.06078
-0.02866 -0.00244 0.01743
0.02662 0.02683 0.16404
-0.08087 -0.01715 0.18944
-0.00223 -0.00018 -0.05199
0.00046 -0.00008 -0.05985
-0.03829 0.01073 0.15795
0.02818 -0.00502 0.15246
-0.03076 0.00160 0.00346
-0.00663 0.00185 -0.03745
0.02730 0.01426 0.16264
0.01667 0.00183 0.16171
0.03406 0.02005 0.18586
0.00055 -0.00006 -0.05972
-0.04279 0.00919 0.12703
0.00023 -0.00011 -0.06030
-0.02997 -0.00201 0.01943
-0.06382 -0.00182 0.08675
-0.02325 -0.00173 0.05746
0.00090 0.00037 -0.05348
-0.02172 0.00829 0.03477
-0.01305 -0.02042 0.16195
-0.02614 0.00347 0.02982
-0.06644 -0.00995 0.18058
0.01212 0.01435 0.15577
0.05990 0.01733 0.13543
0.00050 -0.00002 -0.05951
0.00934 0.00034 -0.01803
-0.02436 -0.00791 -0.00241
-0.00059 0.00020 -0.05704
-0.14245 0.04591 0.42016
-0.04022 0.00213 0.17451
-0.03900 -0.00669 0.16314
0.01416 0.00499 0.16146
-0.00002 -0.00014 -0.06076
-0.00073 0.00016 -0.05531
-0.01808 -0.02152 0.16092
0.02956 0.00030 0.16557
0.01446 0.01722 0.18137
-0.00236 0.00029 -0.05560
0.02705 0.01547 0.16279
-0.02476 -0.00232 0.05386
-0.05815 0.00199 0.17521
-0.04331 0.01688 0.16539
-0.05506 0.00471 0.18510
-0.04389 0.01679 0.17280
0.00077 0.01476 0.16416
-0.05841 -0.01405 0.14828
-0.03120 0.00480 0.01526
0.07467 0.02952 0.24541
-0.03753 -0.00456 0.16041
-0.05673 0.00074 0.17411
-0.00091 -0.00005 -0.05507
0.03053 0.02003 0.15898
0.01012 0.00165 -0.02888
-0.00000 -0.00016 -0.06083
-0.00014 -0.00012 -0.06043
-0.02977 -0.00080 0.16580
-0.02896 0.00366 -0.00643
-0.00044 0.00022 -0.05588
0.01235 0.00560 0.13663
0.00036 -0.00014 -0.05932
0.03132 -0.00929 0.16056
0.00783 0.00324 -0.02285
-0.02306 -0.00074 0.07150
-0.06502 0.01442 0.10312
-0.00171 -0.00068 -0.05262
0.01556 -0.01041 0.16426
-0.00147 0.00046 -0.05540
0.00017 -0.00029 -0.05934
0.02465 0.01942 0.16279
-0.02890 0.00531 0.02153
0.14172 0.01337 0.39574
-0.02938 0.00379 0.03891
-0.00095 0.00011 -0.05751
-0.03288 0.01759 0.17925
0.02783 0.01927 0.15891
-0.07031 -0.00736 0.17632
-0.04876 0.00238 0.17298
0.01770 0.01455 0.16455
-0.06654 0.00398 0.17437
-0.01909 0.01757 0.17252
0.01476 0.00516 0.16098
-0.04191 -0.01281 0.16509
-0.00053 0.00003 -0.05772
-0.02626 -0.04696 0.21514
-0.02982 0.00622 0.01213
-0.06704 0.00688 0.17521
0.01315 0.01944 0.15238
0.00009 -0.00009 -0.05987
-0.03318 0.00379 0.00349
-0.00023 -0.00002 -0.05863
-0.06363 0.00495 0.17528
0.00037 -0.00019 -0.05931
0.00013 -0.00009 -0.06013
-0.00001 -0.00015 -0.06077
-0.01428 0.00174 -0.01836
-0.03048 0.00571 -0.00345
-0.03534 0.00536 0.00836
0.04965 0.02052 0.15284
-0.07152 0.01330 0.06786
-0.02966 0.00877 0.09368
0.00045 -0.00013 -0.05987
0.05176 0.01470 0.23306
-0.03181 0.00825 0.01086
-0.02451 -0.00601 0.02964
0.00915 0.02032 0.16754
-0.09135 0.01440 0.22248
0.02371 -0.00154 0.16560
0.00001 -0.00012 -0.06076
-0.02391 0.00891 0.07564
-0.02954 0.00556 0.01420
0.00044 -0.00009 -0.05954
-0.02832 0.00278 -0.00786
-0.04711 0.02021 0.17919
-0.00332 0.00080 -0.04797
0.06124 0.01230 0.15344
-0.00011 -0.00009 -0.05924
0.00023 -0.00011 -0.06021
0.00024 -0.00010 -0.06031
0.00023 -0.00010 -0.06032
-0.00046 -0.00012 -0.05934
-0.00007 -0.00013 -0.05937
0.00023 -0.00009 -0.06026
0.00023 -0.00010 -0.06031
0.00024 -0.00011 -0.06031
0.00046 -0.00004 -0.05981
0.00034 -0.00010 -0.05990
0.00023 -0.00011 -0.06033
0.00041 -0.00013 -0.05925
0.00023 -0.00010 -0.06028
0.00024 -0.00010 -0.06032
0.00023 -0.00010 -0.06031
-0.03107 0.00405 0.00404
0.00051 -0.00014 -0.05950
-0.00015 -0.00011 -0.05937
0.00024 -0.00010 -0.06030
0.00024 -0.00010 -0.06031
0.00018 -0.00009 -0.06020
0.00021 -0.00009 -0.06031
0.00023 -0.00009 -0.06024
0.00008 -0.00011 -0.05988
0.00023 -0.00010 -0.06031
0.00034 -0.00007 -0.05991
0.00024 -0.00010 -0.06031
0.00011 -0.00011 -0.05918
0.00023 -0.00009 -0.06024
0.00024 -0.00010 -0.06027
0.00024 -0.00010 -0.06032
-0.00012 -0.00003 -0.05927
0.00008 -0.00010 -0.06043
0.01704 0.01359 0.16634
0.00001 -0.00013 -0.06080
-0.00372 0.00048 -0.05040
0.00016 -0.00010 -0.06019
0.02627 -0.00389 0.16715
-0.05584 0.00991 0.17471
0.00065 -0.00042 -0.05896
0.00018 -0.00012 -0.06012
0.00022 -0.00057 -0.05794
-0.01076 0.00229 -0.02368
0.00061 -0.00038 -0.05912
0.00029 -0.00019 -0.05910
0.00029 -0.00009 -0.05800
0.00049 -0.00020 -0.05945
0.00260 0.00085 -0.03953
0.00030 -0.00023 -0.05923
-0.06121 0.02335 0.14782
0.00128 0.00039 -0.05568
0.00019 -0.00067 -0.05787
0.00030 -0.00021 -0.05955
-0.00006 -0.00057 -0.05381
0.00050 -0.00004 -0.05955
0.00019 -0.00060 -0.05789
-0.00096 -0.00186 -0.03532
-0.00042 -0.00172 -0.03777
-0.00711 -0.00191 -0.04425
-0.00379 0.00039 -0.05261
0.03931 0.01292 0.16022
-0.00010 -0.00040 -0.05916
-0.00006 -0.00003 -0.04524
-0.01400 0.01381 0.06605
-0.01926 -0.00298 0.16159
-0.01749 0.01374 0.13054
-0.01322 0.01454 0.07256
0.00682 0.01606 0.16243
-0.02140 -0.00705 -0.01361
0.00043 -0.00006 -0.05957
-0.00210 0.00085 -0.05169
-0.03092 0.00697 0.02705
-0.03254 0.00661 0.00161
-0.00253 -0.01618 0.06768
0.00171 0.00013 -0.05195
0.00209 -0.00024 -0.04961
0.05558 -0.00453 0.16261
-0.03094 0.00149 0.00043
0.01845 0.00730 0.16459
-0.02822 0.00469 0.00726
-0.03164 0.00301 0.00365
-0.00001 -0.00013 -0.06081
-0.00200 0.00057 -0.05391
-0.06497 0.01750 0.10262
0.00057 -0.00011 -0.06021
0.01273 0.00117 -0.03119
0.01178 0.00111 -0.03277
0.01893 0.01336 0.16377
-0.00044 0.00022 -0.05588
0.00026 -0.00007 -0.05996
0.00522 0.03082 0.31137
-0.00046 0.00018 -0.05758
-0.06390 0.01338 0.05806
-0.06717 0.02018 0.11615
0.00053 -0.00006 -0.05968
0.00048 -0.00003 -0.05921
-0.00000 -0.00012 -0.06078
-0.02705 0.00473 0.03196
0.00009 -0.00001 -0.05894
0.14441 -0.03014 0.36990
-0.05178 0.00701 0.03273
0.00004 -0.00014 -0.06089
-0.00215 0.00081 -0.05116
-0.02955 0.00689 -0.00099
-0.00010 0.00004 -0.05889
0.00178 0.00007 -0.05197
0.09083 -0.01902 0.47501
0.06791 -0.02040 0.23069
-0.03061 0.00276 -0.00547
-0.02527 -0.00551 0.03208
0.00180 0.00104 -0.04294
-0.02299 -0.00711 0.04477
-0.00272 0.00050 -0.04842
-0.00001 -0.00016 -0.06083
-0.00511 0.00125 -0.04277
-0.01485 0.00055 -0.04629
0.00047 -0.00007 -0.05981
-0.00006 -0.00004 -0.05954
-0.00001 -0.00012 -0.06078
-0.02832 -0.00394 0.02588
-0.00000 -0.00015 -0.06080
0.00052 -0.00016 -0.05949
0.00247 -0.00034 -0.05427
0.07490 -0.02518 0.14113
0.00043 -0.00003 -0.05965
0.00049 -0.00004 -0.05967
0.00131 0.00017 -0.05488
0.03021 -0.00280 0.16487
-0.03052 0.00030 0.00214
-0.02823 -0.00221 0.01046
-0.03116 -0.00120 0.00112
-0.02801 -0.00832 -0.00014
0.00026 -0.00011 -0.06040
-0.02822 -0.00720 -0.00421
-0.04246 0.00864 0.16467
0.00040 -0.00008 -0.05977
-0.02334 -0.02211 0.08160
-0.00001 -0.00015 -0.06072
0.00157 -0.00053 -0.05356
-0.02783 -0.00769 0.00275
0.00932 0.00352 -0.02379
-0.02869 0.00445 0.02558
0.02894 -0.00979 0.16502
0.06314 0.00805 0.14757
0.14884 0.02697 0.35426
-0.04371 0.00470 0.02313
-0.00289 0.00064 -0.05185
0.09467 0.02745 0.14359
-0.02828 0.00307 0.02336
0.00691 0.00879 0.02152
0.00036 -0.00012 -0.05850
-0.09286 0.03377 0.15083
0.00006 -0.00007 -0.06000
-0.02588 0.00198 0.03955
-0.01737 0.00219 -0.01570
0.00069 0.00003 -0.05707
0.01905 0.02057 0.15937
0.00000 -0.00014 -0.06081
0.00137 0.00048 -0.04712
-0.03261 0.00149 0.00238
-0.02567 0.00624 0.06429
0.11435 0.02257 0.14102
0.04846 0.01015 0.14616
0.01114 -0.01104 0.02522
0.07910 0.00807 0.13194
-0.00002 0.00019 -0.05418
-0.04762 0.00622 0.03828
-0.00094 0.00023 -0.05576
-0.02909 -0.00035 0.04499
-0.05732 0.07773 0.15285
0.00038 -0.00001 -0.05951
0.07328 -0.00247 0.15338
0.02152 0.04786 0.14966
0.09497 0.02031 0.17798
0.00040 -0.00013 -0.05931
-0.03139 0.00424 0.00762
0.02410 -0.00659 0.16432
0.00034 -0.00001 -0.05944
-0.00697 0.00120 -0.04410
-0.00001 -0.00014 -0.06083
0.00054 -0.00016 -0.05912
0.11882 0.00897 0.14012
-0.02848 -0.00210 0.02326
0.03354 0.00289 0.16286
0.03155 -0.00277 0.16453
0.02933 0.00393 0.01905
-0.01806 0.00181 -0.02786
-0.00580 0.00041 -0.04907
-0.00011 -0.00014 -0.06050
0.00002 -0.00014 -0.06078
-0.02514 -0.00950 0.00133
0.00001 -0.00013 -0.06079
-0.13014 0.11583 0.15064
0.09528 0.02323 0.17775
-0.00000 -0.00014 -0.06080
0.03450 -0.01041 0.18097
-0.01513 0.00251 -0.03363
0.00000 -0.00013 -0.06080
0.00043 -0.00009 -0.05957
-0.03395 0.00615 0.03528
-0.00001 -0.00014 -0.06075
0.13479 0.01760 0.13791
-0.00018 -0.00014 -0.06021
-0.02832 -0.00096 0.01853
0.00001 -0.00016 -0.06058
-0.00001 -0.00015 -0.06085
0.08894 0.02914 0.14435
-0.00014 -0.00009 -0.05936
0.00316 0.00081 -0.04900
0.00068 -0.00012 -0.06037
-0.02972 0.00301 0.02204
-0.00224 -0.00013 -0.05247
0.21454 0.00444 0.12268
0.02467 -0.00496 0.16578
0.03596 0.00177 0.16234
0.00004 -0.00011 -0.06052
-0.00212 0.00023 -0.04973
-0.02811 0.00796 0.02842
0.00028 -0.00002 -0.05954
-0.00069 -0.00019 -0.05878
-0.00000 -0.00012 -0.06072
-0.04811 0.01089 0.14141
0.05921 -0.00203 0.16221
0.00049 -0.00006 -0.05935
0.00178 0.00028 -0.05401
0.04947 0.00337 0.16066
0.04561 -0.00918 0.14429
0.09531 0.01125 0.14040
0.05259 -0.01478 0.19737
-0.00094 0.00029 -0.05634
0.07631 0.01628 0.14040
0.10226 0.02524 0.14274
-0.02741 -0.00801 -0.00565
0.02905 0.00993 0.09750
0.07859 0.00683 0.15445
-0.01859 0.00731 0.04032
0.00011 0.00012 -0.05323
-0.00002 -0.00013 -0.06080
0.07291 0.00523 0.28661
0.00046 -0.00009 -0.05986
0.00120 -0.00004 -0.05535
-0.00002 -0.00013 -0.06081
0.04516 -0.00397 0.16300
0.00040 0.00005 -0.05888
0.00052 -0.00005 -0.05971
-0.02971 0.00033 0.00172
0.06695 -0.00675 0.15203
-0.06278 0.01775 0.17353
-0.00000 -0.00014 -0.06080
-0.01830 0.00298 -0.02861
0.00000 -0.00014 -0.06082
-0.07193 0.06790 0.15305
0.01191 0.01306 0.15506
-0.03119 0.00351 -0.00096
0.13944 0.01685 0.13744
0.11906 -0.00140 0.28113
-0.00219 0.00087 -0.05164
0.00032 -0.00006 -0.05989
0.02524 0.01290 0.09206
-0.03256 0.00936 0.03358
-0.00377 0.00121 -0.05038
0.08559 0.01947 0.14902
0.00191 0.00005 -0.05048
-0.00119 0.00021 -0.05432
0.13175 0.01261 0.14975
0.00371 0.01846 0.10856
-0.02813 0.00277 0.02144
0.05457 -0.00901 0.14519
0.00026 -0.00011 -0.06040
-0.01147 0.05959 0.15276
0.12897 0.01544 0.13177
-0.04330 0.01281 0.16990
-0.01931 0.00138 -0.00539
0.13082 0.01866 0.13875
0.00006 -0.00012 -0.06068
-0.06492 0.01211 0.05780
0.12357 0.01461 0.12482
0.00857 0.00214 -0.02131
0.00026 -0.00011 -0.05901
0.00001 -0.00013 -0.06079
-0.01647 0.00840 0.01787
-0.02404 0.00359 0.00073
0.00009 -0.00007 -0.05994
-0.02902 0.00125 0.00218
0.00837 0.00227 -0.02225
-0.19165 0.14851 0.14409
0.00003 -0.00013 -0.06087
-0.03301 0.00407 0.00407
-0.20018 0.15466 0.14202
0.09358 0.01370 0.11912
-0.00001 -0.00013 -0.06084
0.19814 0.00636 0.12655
-0.00002 -0.00012 -0.06075
-0.03250 0.00122 0.01332
0.08930 0.01451 0.15017
0.00317 0.00075 -0.03531
0.00005 -0.00005 -0.05982
0.03190 -0.00467 0.16512
-0.04497 -0.00317 0.17337
-0.03061 -0.00005 0.00358
0.09057 0.00262 0.16474
-0.05128 0.01035 0.14485
0.29063 0.03287 0.36256
0.00086 0.00005 -0.05884
-0.00004 -0.00013 -0.06071
-0.00008 0.00030 -0.05615
0.00137 0.00003 -0.05749
-0.08430 0.01292 0.23246
0.05386 0.02338 0.23131
-0.00388 0.00122 -0.04817
0.00046 -0.00009 -0.05950
0.00096 -0.00034 -0.05371
0.02666 -0.00742 0.15014
0.00014 -0.00008 -0.06027
-0.10768 0.00873 0.17732
-0.09837 0.00629 0.18218
-0.00075 0.00010 -0.05803
0.00710 0.00572 0.16335
0.06063 0.01035 0.15485
-0.02723 -0.00802 -0.00535
0.00006 0.00003 -0.05315
0.11287 0.01375 0.12272
-0.04485 0.01282 0.18254
0.00003 -0.00013 -0.06087
0.00196 -0.00083 -0.05018
0.08365 0.01766 0.15601
0.05796 -0.00303 0.16210
0.10543 0.03346 0.25918
-0.00377 0.00183 -0.04266
0.01989 0.00294 -0.01895
0.00067 0.00004 -0.05827
0.00042 -0.00006 -0.05977
0.00009 -0.00007 -0.06002
-0.03106 -0.00143 0.00733
-0.00001 -0.00013 -0.06078
0.00083 0.00007 -0.05847
-0.02283 0.00596 0.01768
0.00034 -0.00002 -0.05954
-0.00007 0.00000 -0.05941
0.00044 -0.00004 -0.05973
0.00006 -0.00011 -0.05988
0.00044 0.00002 -0.05869
0.00023 -0.00011 -0.06032
0.00140 -0.00014 -0.05673
0.00248 0.00052 -0.04644
0.00019 -0.00007 -0.06033
-0.02662 -0.00796 -0.00545
-0.00003 -0.00012 -0.06075
-0.06027 0.03088 0.22149
0.05608 0.00447 0.15976
0.06038 0.01335 0.15950
0.00048 -0.00015 -0.05949
-0.03051 0.00125 0.00103
-0.02817 -0.00769 -0.00662
-0.02610 0.00023 -0.00424
0.00002 -0.00013 -0.06079
0.07290 0.01580 0.14373
-0.03109 0.00885 0.03306
-0.00000 -0.00013 -0.06082
0.08568 0.01701 0.14891
0.00001 -0.00012 -0.06081
-0.00020 -0.00008 -0.06023
0.00012 -0.00011 -0.06055
-0.01962 0.00187 -0.02678
-0.00001 -0.00012 -0.06080
0.00054 -0.00009 -0.05963
0.00003 -0.00015 -0.06086
0.05195 0.01181 0.15713
-0.02631 -0.00142 0.04655
0.03606 0.00925 0.19275
-0.02101 0.00481 0.03477
-0.02196 0.00909 0.07109
0.00809 0.01936 0.15766
-0.00005 -0.00014 -0.06074
-0.02855 -0.00764 -0.00462
-0.02769 -0.00707 -0.00661
0.07434 0.01276 0.15045
-0.00166 0.00054 -0.05420
0.00035 -0.00010 -0.06013
-0.00001 -0.00014 -0.06083
0.00016 -0.00009 -0.06020
0.08119 0.02339 0.25866
-0.01994 -0.00343 0.02313
0.00041 0.00000 -0.05921
0.00038 -0.00003 -0.05967
0.00038 -0.00003 -0.05968
0.00001 -0.00013 -0.06082
0.02475 0.01175 0.16317
-0.06050 0.01763 0.12460
-0.02434 0.00869 0.04087
-0.04576 -0.00739 0.16982
-0.05910 0.01822 0.14221
-0.00436 0.00086 -0.04926
0.03142 -0.00168 0.16478
-0.00000 -0.00012 -0.06080
-0.03133 0.00229 0.00260
-0.03000 0.00056 -0.00060
-0.02942 0.00445 -0.00016
-0.00486 0.00019 -0.04327
-0.02641 0.00442 -0.01388
-0.02851 -0.00802 -0.00198
