# .PCD v.7 - Point Cloud Data file format
VERSION .7
FIELDS x y z
SIZE 4 4 4
TYPE F F F
COUNT 1 1 1
WIDTH 699
HEIGHT 1
VIEWPOINT 0 0 0 1 0 0 0
POINTS 699
DATA ascii
0.08646 0.07580 -0.54091
-0.08397 0.11930 0.06029
-0.06474 0.12015 0.00764
0.03868 0.07080 -0.11829
-0.01877 0.03720 -0.03202
-0.03129 0.12100 -0.08497
0.04940 0.10522 -0.34956
-0.01501 0.00207 -0.01768
-0.00837 -0.03369 0.00427
0.00312 -0.03298 0.00883
-0.00958 -0.00652 -0.00967
0.06276 0.06508 -0.06268
0.01711 0.01211 -0.00610
-0.00825 -0.08010 0.05995
-0.00927 -0.08086 0.06543
0.06268 0.06655 -0.06155
0.02671 0.00000 -0.00468
0.01886 0.05425 -0.18207
0.04455 0.07069 -0.09454
0.05363 0.06682 -0.05703
0.02669 0.02937 0.03217
0.02669 0.02937 0.03217
-0.00273 -0.00955 -0.01469
-0.04752 0.01962 -0.00250
-0.01277 -0.07804 0.07711
-0.01277 -0.07804 0.07711
0.06381 0.06672 -0.05887
-0.04681 0.01116 0.15197
-0.02352 -0.01264 -0.01515
0.06699 0.06847 -0.05018
0.03176 0.02013 -0.01512
0.01348 0.05792 -0.21184
0.01150 -0.03363 0.02722
0.03522 0.02669 0.04680
-0.00881 -0.10346 0.05533
0.02689 0.05779 -0.13767
0.02087 0.05867 -0.10594
-0.01666 -0.07261 0.06711
0.06638 0.06454 -0.05093
0.06396 0.07582 -0.05149
-0.04362 0.02141 -0.02592
0.04344 0.06190 -0.10477
-0.03401 0.02725 -0.00882
-0.01787 -0.07736 0.07520
-0.01787 -0.07736 0.07520
-0.02065 -0.01865 -0.00276
0.02645 -0.00555 0.03668
-0.01659 -0.08019 0.07641
0.01404 -0.02205 -0.06181
-0.01367 -0.08834 0.06626
0.03290 0.01590 0.01668
0.10961 0.07868 -0.47791
-0.04684 0.01260 -0.01545
0.04852 0.06328 -0.08592
-0.01702 -0.03330 0.01921
-0.03163 -0.00883 -0.01060
-0.05092 0.02190 -0.01298
-0.01289 0.02464 -0.03809
0.03836 0.04375 -0.04980
0.04875 0.06256 -0.04245
0.01720 0.00379 0.00431
0.02001 -0.03308 0.02583
0.06707 0.06431 -0.04829
0.02863 0.01422 0.02333
0.02229 0.01032 0.10723
0.02308 0.03659 -0.00695
0.02507 0.06339 -0.11624
-0.00278 0.00458 0.05557
0.02229 0.01032 0.10723
-0.00995 -0.03334 0.00343
0.02028 0.06153 -0.17134
0.03500 0.02312 -0.13324
0.09555 0.05810 -0.52740
0.00656 -0.03771 0.02233
0.06241 0.06453 -0.06641
0.02042 -0.01082 0.01427
0.04455 0.07841 -0.42579
0.05516 0.06385 -0.11166
0.03269 0.02626 0.08186
-0.04742 0.01850 0.06217
0.09588 0.06870 -0.58221
0.01955 0.05398 -0.18021
-0.01314 -0.08738 0.06589
0.02135 -0.00611 -0.01379
-0.00962 -0.09356 0.07021
0.02206 0.06423 -0.15487
0.02206 0.06423 -0.15487
0.03425 0.05115 0.08257
0.06750 0.06642 -0.04705
-0.01834 -0.06358 0.05758
-0.00587 -0.09374 0.07087
-0.02107 -0.03152 0.00854
-0.01268 0.03013 -0.04109
0.01910 -0.03025 0.06034
-0.00458 -0.08073 0.07724
0.00279 0.00949 -0.00631
0.00578 -0.02867 0.10778
-0.00443 -0.03038 0.00951
0.00427 -0.01750 0.11322
-0.00665 -0.04414 0.10936
-0.01702 0.00076 -0.01255
-0.04494 0.01824 0.04224
0.00886 -0.02213 -0.06366
0.00024 0.01837 -0.03074
-0.03197 -0.00897 -0.00894
0.02671 0.01906 -0.02801
-0.01431 -0.07608 0.05086
-0.00135 -0.07589 0.05694
0.02715 0.03971 0.00852
-0.04888 0.00052 0.19366
-0.02127 -0.07836 0.07158
-0.03283 -0.00787 0.00339
0.03791 0.02793 0.02395
-0.00097 -0.06768 0.05196
0.03572 0.02679 0.00989
-0.04472 0.02110 -0.02185
-0.04223 0.01894 -0.00892
0.07951 0.10902 -0.36071
-0.04684 0.01748 -0.00219
-0.00366 -0.03837 0.01427
-0.03203 0.01902 -0.02251
0.02853 0.02257 0.00175
-0.00968 -0.08054 0.07144
-0.02831 0.01717 -0.02046
0.00117 -0.00925 -0.01321
0.00078 -0.01023 -0.01329
0.03596 0.01814 0.02094
0.00909 0.01531 -0.02496
0.03210 0.00650 0.00314
0.03297 0.00150 0.00000
0.03268 -0.01047 0.00486
0.00650 0.01814 -0.01156
-0.00587 -0.00834 -0.00838
-0.05016 -0.01594 0.01667
-0.02202 -0.06489 0.07709
0.02901 -0.01394 0.03397
-0.04087 -0.02116 0.00364
-0.03203 -0.02017 0.00533
-0.03389 -0.02449 0.01427
-0.01771 -0.03758 0.02905
-0.00962 -0.09356 0.07021
0.00477 -0.05537 0.04622
0.00360 -0.01671 -0.00871
0.03064 -0.00315 0.00492
-0.01269 0.01460 0.05532
-0.00542 0.01838 -0.02400
-0.01973 -0.03173 0.02698
-0.02668 -0.03915 0.01929
0.01470 -0.00310 0.00285
0.10025 0.07966 -0.44913
0.03859 0.02782 -0.03773
0.00610 -0.00993 -0.01037
-0.00738 -0.09706 0.06547
-0.00694 -0.09541 0.06851
0.01111 -0.01384 -0.01448
0.02228 -0.01605 0.01930
-0.00823 -0.11190 0.06866
-0.00016 -0.07897 0.05873
0.11206 0.07556 -0.48585
-0.02582 0.02274 -0.01530
0.00448 0.01101 -0.14825
0.02259 -0.02212 0.01905
-0.03793 -0.00936 -0.00487
0.02323 -0.00750 0.01596
0.00414 -0.05600 0.05463
0.01025 -0.01520 -0.01210
0.00330 -0.06647 0.06103
0.01324 0.00248 -0.02154
-0.02140 -0.03523 0.01210
0.02672 0.00693 0.01568
-0.01575 -0.08057 0.05622
0.03755 0.02560 0.01501
-0.00595 -0.07442 0.04967
-0.00821 -0.07776 0.05560
0.02856 -0.00416 0.01938
0.00873 -0.03533 0.00965
-0.02860 -0.02922 0.01584
0.01336 -0.02051 -0.00094
-0.02826 -0.03647 0.02175
0.07235 0.07183 -0.42419
0.01951 -0.02035 0.01683
-0.01335 0.03677 -0.03980
0.02119 0.00224 0.00876
-0.02500 0.01493 -0.03708
-0.02933 -0.02055 0.00293
0.02188 0.01986 -0.03860
-0.00288 0.00067 -0.00654
0.02166 -0.00968 0.00507
0.00158 -0.01892 -0.00554
0.02310 -0.00654 -0.00587
0.00187 -0.01015 -0.01342
-0.00742 -0.01182 -0.00577
-0.00742 -0.01183 -0.00577
-0.01053 -0.07761 0.04655
0.00658 -0.00860 -0.01359
-0.00122 -0.01091 -0.01141
0.02865 0.00115 0.05075
-0.01428 -0.07069 0.07548
-0.00039 -0.03408 0.01142
0.01374 0.04640 -0.05250
-0.01386 0.01910 -0.03014
-0.01645 0.03252 -0.02533
0.01647 -0.03209 0.02660
-0.01155 0.00884 -0.01425
-0.00348 -0.01973 -0.00603
0.04471 0.02305 -0.27700
0.01844 0.00512 -0.02374
-0.03064 0.00168 -0.01031
-0.02597 -0.01234 -0.00090
0.09051 0.06315 -0.47648
-0.00875 0.00364 -0.01663
0.08533 0.05522 -0.48313
0.03855 0.02368 0.03757
-0.02858 -0.00537 -0.00463
-0.02689 -0.01044 -0.00495
0.00551 -0.00513 -0.00785
0.00502 -0.00546 -0.00529
0.03975 0.02872 0.03701
-0.02446 0.00301 -0.01082
-0.02219 0.00554 -0.02186
0.09561 0.05888 -0.52936
0.03909 0.01411 0.03813
-0.02255 -0.03442 0.01581
-0.02255 -0.03442 0.01581
-0.02236 -0.03158 0.01543
-0.01751 -0.01378 -0.00962
0.03442 0.05158 -0.28788
0.07951 0.04825 -0.45423
-0.01665 0.00318 -0.01446
-0.01657 -0.03039 0.01043
0.01668 0.00347 0.00803
0.03501 0.02069 0.01245
0.01179 0.00534 -0.00684
0.03324 0.01717 0.00136
0.03098 0.02469 0.00763
0.00484 0.00190 -0.00719
0.04668 0.02910 -0.27290
0.00558 0.03829 -0.03405
0.00000 0.02861 -0.00981
0.07139 0.06008 -0.33229
0.08408 0.05615 -0.47205
-0.03470 0.00175 0.00739
-0.02797 0.00502 -0.02404
-0.02943 0.00259 -0.00719
0.02703 0.01653 -0.03787
0.02364 0.00926 0.05420
0.07303 0.05374 -0.44508
0.02013 0.03844 -0.01582
-0.02366 -0.03254 0.01467
0.01541 0.03913 0.00131
0.08645 0.05808 -0.49121
0.01863 -0.01489 -0.00908
0.04876 0.01904 -0.26824
0.01510 -0.03152 0.02063
-0.00443 -0.00271 0.04376
0.01700 0.05749 -0.23826
0.00330 0.02778 -0.20631
0.03232 0.06634 -0.15995
0.01319 0.02555 -0.01528
0.00324 0.02740 -0.20713
-0.03340 0.02641 -0.07302
0.02612 -0.00862 0.01501
0.00230 0.02763 -0.20595
0.02620 -0.00277 0.01734
0.02701 -0.00170 0.01669
-0.04691 0.04009 -0.01957
-0.04691 0.04009 -0.01957
-0.03621 0.02363 -0.04325
-0.03424 -0.02911 0.02146
0.06907 0.07506 -0.01527
0.08389 0.06059 0.04417
0.07868 0.07513 0.03486
0.07868 0.07513 0.03486
-0.01674 0.01696 -0.10298
0.08549 0.06148 -0.49444
-0.02054 0.01558 -0.08133
-0.02960 0.02147 -0.04233
-0.02629 0.01959 -0.04010
0.04678 0.03394 -0.00337
0.04408 0.03145 -0.02308
-0.00869 0.03368 -0.03342
0.04218 0.03155 -0.02064
0.04181 0.02567 -0.02060
0.03958 0.02783 -0.01527
-0.01807 0.02784 -0.07017
0.03925 0.02020 -0.00595
0.03782 0.02386 -0.00912
0.04133 0.04171 -0.25177
0.03045 0.03121 -0.08562
0.04356 0.00889 -0.25775
-0.00071 0.02721 -0.20408
0.03546 0.02569 -0.00681
0.03473 -0.00137 -0.00357
0.03264 0.00301 0.00028
0.03296 0.00013 0.00173
0.03307 -0.00018 0.00556
-0.02380 -0.01266 0.01084
0.03243 -0.00942 0.00303
0.03202 -0.00469 0.00516
0.03220 -0.01390 0.00921
-0.01639 0.01092 -0.03920
-0.02139 -0.02706 0.02106
0.02727 0.00951 -0.02460
-0.03424 -0.03654 0.02921
0.01074 -0.02846 0.03144
0.02169 0.03207 0.00612
0.02551 -0.00123 0.01135
-0.01194 -0.01072 -0.00801
-0.01274 -0.02185 0.00679
0.01667 0.02351 -0.22278
0.02170 -0.00382 0.01887
0.02376 -0.02978 0.01943
-0.00980 0.00023 -0.01178
-0.00859 -0.00283 -0.01594
0.01511 0.02618 -0.04134
0.01702 -0.00906 0.02274
-0.00767 -0.03558 0.01871
-0.00767 -0.03558 0.01871
-0.01314 -0.08368 0.08270
0.01681 -0.02575 0.02676
0.02964 0.02485 0.01484
0.02243 -0.00313 0.01307
0.02272 -0.03278 0.03074
0.02053 0.02032 0.00552
-0.00446 0.02784 -0.03390
-0.00446 0.02784 -0.03390
-0.00404 0.01880 -0.02392
0.01208 -0.03298 0.02353
-0.00232 -0.03130 0.00932
-0.01429 -0.06896 0.04986
-0.02232 -0.03595 0.01745
0.00221 -0.00989 -0.01476
-0.01587 0.01813 -0.01986
0.00530 0.03392 -0.02098
0.01137 -0.01053 0.00754
0.00267 -0.02900 0.00718
-0.05102 -0.01059 0.02186
0.00622 -0.02155 -0.00392
-0.02419 0.01857 -0.02228
0.00317 -0.01573 -0.01018
0.02165 -0.02342 0.02302
-0.00104 -0.00574 -0.01415
0.00336 0.01868 -0.07513
-0.00960 -0.07511 0.04925
-0.00977 -0.07526 0.04950
-0.03227 0.01932 -0.01977
0.01120 -0.03493 0.02297
-0.01090 -0.03090 0.00990
-0.01095 -0.03099 0.01071
0.02649 -0.01462 0.02149
-0.02423 -0.00672 -0.00825
-0.02493 -0.02035 -0.00006
-0.01877 -0.11729 0.13126
-0.01013 -0.06595 0.04001
-0.00405 -0.08517 0.06078
0.05027 0.03016 -0.20360
-0.02113 -0.00541 -0.00744
0.02819 0.02266 -0.13938
0.01894 0.01029 -0.09505
-0.04640 -0.00931 0.01649
0.01714 -0.00433 0.00791
-0.05324 -0.08985 0.40268
-0.02391 -0.03640 0.01761
-0.03335 -0.03471 0.02493
0.01740 -0.00613 0.01107
-0.02082 -0.03251 0.01356
0.02734 0.02967 0.01185
-0.02129 -0.03790 0.01803
-0.04769 -0.01870 0.02332
-0.04501 -0.01989 0.02184
-0.04529 -0.02752 0.03837
-0.01689 -0.03566 0.01675
-0.01426 -0.08401 0.05235
-0.01605 -0.11490 0.09978
-0.04042 0.03789 -0.02496
-0.00467 -0.09629 0.06470
-0.00059 -0.06603 0.06057
-0.04340 -0.02401 0.00974
-0.03608 0.03482 -0.12637
-0.01023 0.01386 -0.01745
-0.02798 -0.02445 0.00792
-0.00424 0.01304 -0.04944
-0.03543 -0.01725 0.18797
0.01167 0.00287 -0.00375
0.02178 -0.02102 0.04952
0.01765 -0.02500 0.02046
-0.02002 0.03175 -0.15518
-0.01407 -0.03824 0.00753
-0.02720 -0.01660 -0.00692
-0.01874 -0.03522 0.01238
-0.01199 -0.07936 0.07317
0.01858 0.00385 0.00892
-0.01897 -0.03729 0.02742
-0.02899 -0.06155 0.07860
-0.02110 -0.01742 -0.00457
0.01731 -0.00805 0.01031
0.01322 0.00413 0.00408
-0.04035 -0.00784 0.01281
-0.01262 -0.09883 0.07367
-0.04808 0.03613 -0.10691
-0.00808 -0.09221 0.06410
-0.00808 -0.09221 0.06410
-0.01062 -0.11414 0.09095
-0.03112 0.03877 -0.07269
-0.00527 -0.08576 0.06402
-0.05190 0.00836 -0.00433
0.10666 0.06715 -0.63305
-0.02142 -0.02442 0.00354
-0.04707 -0.00793 0.02313
0.01255 -0.02508 0.01749
0.01399 -0.01829 0.01517
0.01798 -0.01868 0.01745
0.00081 -0.02912 0.01335
-0.04737 -0.01910 0.01957
-0.00085 0.01377 -0.00887
-0.01298 -0.01202 -0.00506
-0.01033 -0.01215 -0.00428
-0.01030 -0.01216 -0.00455
-0.02398 -0.07251 0.07371
0.01055 -0.00569 0.00615
-0.01430 -0.11508 0.09148
-0.05079 0.01724 -0.01564
-0.01168 -0.11999 0.08945
-0.02629 0.03390 -0.02672
0.03454 0.00038 -0.00170
-0.04246 -0.03042 0.04047
-0.02842 0.01212 -0.04068
-0.00771 0.00461 0.04385
-0.00874 -0.01165 -0.02815
0.01400 -0.00665 0.00730
-0.03840 0.01705 -0.01015
-0.00351 -0.03424 0.01123
-0.00834 -0.07951 0.07507
-0.00488 0.01315 -0.05305
-0.05537 0.00523 0.04872
-0.00892 -0.01884 -0.01593
-0.02766 -0.05849 0.06684
-0.04621 0.00758 -0.01199
-0.03592 0.01441 -0.02250
-0.01305 -0.07285 0.08236
-0.01305 -0.07285 0.08236
0.03515 0.00792 -0.00505
0.03015 -0.00431 0.02156
0.01895 0.01246 0.00965
-0.01644 0.01063 -0.03857
-0.00606 -0.07478 0.04994
-0.01135 -0.07878 0.07048
-0.05248 0.02666 -0.01417
-0.33099 0.03217 0.42751
-0.01181 -0.11340 0.09022
-0.02360 0.01120 -0.03958
-0.01403 -0.01942 0.05174
-0.45064 0.02163 0.68457
-0.02890 -0.00004 0.07804
-0.05093 -0.02813 0.05781
0.02994 0.02368 -0.14942
0.01370 0.01214 -0.01579
0.00626 -0.00995 0.00247
0.00610 -0.01951 0.00340
-0.04702 -0.01283 0.02652
-0.00642 -0.01165 -0.02661
-0.05246 0.01070 0.02668
0.04091 0.00977 0.00532
-0.02072 0.04019 -0.03741
-0.00445 -0.01197 -0.02316
0.00406 0.00583 -0.02829
-0.00230 -0.00985 -0.02006
0.00558 0.02686 -0.21787
-0.01383 -0.00575 -0.00854
-0.04713 -0.00543 0.02214
-0.00631 -0.00879 -0.02414
0.01512 -0.03647 0.03237
-0.04348 -0.03704 0.03883
0.00840 -0.01258 -0.00189
-0.04539 -0.02771 0.03742
-0.04746 0.02395 0.00345
-0.05023 -0.01205 0.01301
-0.05012 -0.01396 0.01858
-0.01389 0.11787 -0.04983
0.01576 -0.00893 0.01546
0.02718 0.02407 -0.01410
0.10138 0.06550 -0.60853
-0.00609 -0.00563 -0.00787
0.02136 0.00440 0.01842
0.02228 0.00512 0.01106
0.02723 -0.00491 0.01755
-0.00065 -0.00531 -0.01618
-0.00882 -0.03413 0.00645
0.02042 0.02298 -0.02004
-0.00528 -0.00897 -0.02188
0.03945 0.01717 -0.12596
0.01248 0.03576 -0.01508
-0.02034 -0.03183 0.16906
-0.01205 -0.00761 -0.03293
0.01104 -0.00481 0.00142
-0.03068 0.00186 -0.01073
-0.02842 -0.03405 0.01947
0.01207 0.02076 -0.02079
0.03850 0.01840 -0.15377
-0.01546 -0.10773 0.09119
-0.01397 -0.09147 0.06854
-0.00341 -0.07527 0.04555
-0.01454 -0.08153 0.07577
-0.01453 -0.08105 0.07330
-0.01466 -0.08108 0.07404
-0.01037 0.01746 -0.02533
-0.00894 -0.10478 0.09080
-0.00792 -0.10695 0.08919
0.08141 0.10829 -0.36499
0.01109 0.03960 -0.10861
-0.02372 0.01709 0.10255
-0.01449 -0.07192 0.08095
-0.01096 -0.06546 0.04404
-0.09348 0.06002 1.00000
-0.02933 0.00811 0.10636
0.02000 -0.00431 -0.02265
-0.01621 -0.05151 0.09215
-0.03575 -0.07099 0.21088
-0.01719 -0.04402 0.09862
-0.03801 0.00833 0.09367
-0.03752 -0.02649 0.08044
0.11806 0.07466 -0.49629
-0.01677 -0.08031 0.07671
-0.00581 -0.09644 0.06456
-0.02837 0.03088 -0.03502
-0.04846 0.02512 0.05682
-0.04622 0.01122 -0.00767
-0.05235 0.01836 0.04532
-0.05626 0.01373 0.04554
-0.00835 -0.08461 0.08528
-0.05300 0.01791 0.00295
-0.04644 0.02055 -0.02353
0.04658 0.07915 0.03484
-0.00281 -0.07436 0.05168
-0.06072 0.02085 0.01126
0.11395 0.08255 -0.47397
0.11962 0.06726 -0.39183
-0.03285 -0.01353 -0.00165
-0.03315 -0.03311 0.02119
0.00759 -0.03326 0.01764
0.01117 -0.00871 -0.00301
0.05242 0.05872 -0.29773
0.02108 -0.00144 0.00341
0.02114 -0.00136 0.00271
0.10327 0.08785 -0.43443
0.12350 0.07068 -0.42461
-0.02948 -0.04397 0.07764
-0.02496 0.00058 -0.00815
-0.00915 -0.00010 -0.05231
-0.02081 0.03239 -0.01468
-0.00868 -0.08099 0.06204
0.02991 -0.00267 0.05516
0.02290 0.02361 -0.03788
-0.01888 -0.02362 0.01811
0.00628 0.01008 0.05994
-0.01106 -0.08626 0.07039
0.02932 -0.00515 0.04600
0.01644 -0.00874 -0.02241
-0.00571 0.01672 -0.04475
0.03338 0.01697 0.00162
-0.02430 -0.00866 -0.01112
-0.03206 -0.00874 -0.00309
-0.00891 -0.03184 0.00936
-0.01378 -0.07662 0.06469
-0.03202 -0.01138 -0.00214
0.00559 -0.00876 -0.02060
-0.02596 -0.01447 0.03395
-0.02033 -0.01366 0.00633
-0.03702 -0.01302 -0.00000
-0.06735 0.04910 -0.07394
-0.01547 -0.07577 0.05964
-0.01493 -0.01030 -0.01328
-0.08595 0.02159 0.23711
-0.01582 -0.06009 0.04094
-0.02790 -0.03362 0.01706
0.00254 -0.03373 0.01217
-0.00892 -0.10284 0.06120
-0.00769 -0.10318 0.06590
-0.00809 -0.10315 0.06696
-0.00747 -0.10779 0.07312
-0.00771 -0.07372 0.05060
-0.00723 -0.07336 0.04900
-0.00993 -0.07262 0.06342
0.00172 -0.05967 0.05088
-0.00174 -0.06356 0.06574
-0.00627 0.03521 -0.03870
0.02814 0.03013 0.03874
-0.08395 -0.03561 0.49141
0.01072 -0.03213 0.01494
-0.00730 -0.07311 0.03797
-0.01082 0.03706 -0.11046
-0.03618 0.00498 0.02720
-0.00029 -0.07908 0.05946
-0.01563 -0.07989 0.05374
-0.12720 -0.06093 0.83037
0.03694 0.00610 0.05093
0.03241 0.02361 0.01870
0.05643 0.07214 -0.35414
-0.04063 -0.00970 0.00733
0.04261 0.06238 -0.50186
0.04294 0.03300 -0.22652
0.06975 0.05141 -0.42663
0.09071 0.07235 -0.55944
0.09071 0.07235 -0.55944
0.01425 0.01944 -0.00588
0.07694 0.05449 -0.43941
0.09472 0.05997 -0.58182
0.06319 0.04804 -0.36747
0.03815 0.01554 0.05144
-0.01397 -0.09533 0.07341
-0.00202 -0.00120 0.19588
0.03000 -0.00377 0.03452
0.00278 -0.00392 -0.01384
0.00272 -0.00397 -0.01354
0.01870 -0.00346 0.01124
0.08953 0.05989 -0.49882
-0.15889 0.13889 0.10581
0.10594 0.06697 -0.62983
0.10594 0.06697 -0.62983
0.10604 0.06706 -0.62874
0.10604 0.06706 -0.62874
0.10416 0.06722 -0.62495
0.07883 0.07056 -0.53053
0.07876 0.06911 -0.52967
0.10653 0.06715 -0.62851
0.10545 0.06760 -0.62290
0.04733 0.06624 -0.48109
0.07850 0.06774 -0.48732
0.10446 0.06539 -0.62365
0.08237 0.06371 -0.57304
0.08292 0.06373 -0.56792
0.10610 0.06550 -0.63179
0.10606 0.06549 -0.63143
0.10712 0.06566 -0.60765
0.09916 0.06496 -0.55336
0.10489 0.06523 -0.62515
0.09961 0.06102 -0.59555
0.00908 0.02895 -0.20639
0.10562 0.06737 -0.63051
0.10279 0.06512 -0.61443
-0.02235 0.02192 -0.07365
0.03489 0.02051 0.04564
0.01009 0.02802 -0.19634
0.01240 0.02610 -0.22942
0.01240 0.02601 -0.22937
0.05657 0.06004 -0.29373
-0.00959 -0.08052 0.07165
0.01090 0.02666 -0.22350
0.01082 0.02597 -0.22677
0.00314 -0.00032 -0.12619
0.01188 0.02627 -0.22795
0.00970 0.02619 -0.22467
0.02043 0.00541 -0.11734
0.00849 0.02627 -0.22283
0.01858 0.01106 -0.12750
0.00762 0.02632 -0.22045
0.01528 0.01044 -0.13911
-0.02184 -0.05820 0.04938
0.04047 0.06461 -0.11288
0.00788 0.02668 -0.22108
0.01664 -0.02587 0.02800
0.01208 0.02081 -0.02085
0.03539 0.00082 -0.00266
-0.01373 0.04942 -0.08424
-0.02618 -0.01485 0.02587
0.02550 -0.00415 -0.01707
0.02741 0.03520 0.04062
0.01845 -0.00811 0.01556
0.02144 -0.00309 -0.01722
0.00839 -0.03251 0.01330
0.01330 -0.00682 -0.01740
0.01093 -0.02795 0.00318
-0.02075 -0.01254 -0.01781
0.02077 0.03585 0.00888
-0.03648 -0.00601 -0.00435
0.00249 -0.03006 0.00752
0.02044 0.02225 -0.01077
-0.03442 0.06486 -0.04514
-0.00690 -0.08107 0.08166
0.00121 -0.00755 -0.03447
-0.00859 -0.00283 -0.01594
-0.00418 -0.03018 0.00828
0.02871 0.06811 -0.11372
-0.01735 -0.03825 0.02776
0.07650 0.08058 -0.08315
0.02203 0.03839 0.00035
0.03262 -0.01145 0.02637
0.06965 0.07001 -0.03015
0.01813 0.05469 -0.18257
-0.00708 -0.07696 0.07555
-0.00304 -0.07439 0.05802
-0.01545 0.03629 -0.08517
-0.01678 0.03613 -0.08092
0.04814 0.06255 -0.08576
0.04795 0.07261 -0.07934
-0.00242 -0.01138 -0.01740
-0.00509 -0.09046 0.06996
0.02182 -0.02273 0.01982
0.09197 0.06223 -0.57967
