# .PCD v.7 - Point Cloud Data file format
VERSION .7
FIELDS x y z
SIZE 4 4 4
TYPE F F F
COUNT 1 1 1
WIDTH 1874
HEIGHT 1
VIEWPOINT 0 0 0 1 0 0 0
POINTS 1874
DATA ascii
-0.02655 -0.11298 0.07612
0.05645 0.06013 -0.04476
0.02619 0.07357 -0.05915
-0.04639 -0.01575 0.00958
0.02764 0.02305 -0.00614
-0.04824 -0.06209 0.04263
0.02368 -0.08937 0.07698
0.00185 0.05957 -0.05854
0.00044 0.06676 -0.05929
-0.04481 -0.00347 -0.00673
0.00645 0.08067 -0.09077
-0.06744 0.00984 -0.00428
0.03002 0.03323 -0.02865
0.03624 0.06311 -0.05906
0.05890 -0.03105 0.03411
-0.02595 -0.02011 0.00950
-0.05416 -0.01447 0.00300
-0.06098 -0.08207 0.05758
-0.06058 -0.08187 0.05621
0.03700 0.05383 -0.04900
-0.04418 -0.02308 0.01893
0.00954 0.01924 -0.02603
0.02839 -0.05203 0.03479
0.02906 -0.05610 0.03989
-0.01069 0.04632 -0.05191
0.03910 -0.01786 0.01549
0.02295 0.02779 -0.02516
-0.04372 -0.02215 0.01230
0.04783 -0.14547 0.11426
-0.06419 -0.04519 0.03029
0.00547 0.03491 -0.04432
-0.02640 -0.03238 0.01822
-0.05057 -0.05325 0.03342
-0.05085 -0.14563 0.11014
0.02323 0.05039 -0.03938
-0.00701 0.06909 -0.06103
0.00585 0.04735 -0.05126
0.03228 -0.04535 0.02958
0.02392 0.03265 -0.02852
-0.00092 0.04036 -0.04599
-0.02631 -0.00248 -0.00297
0.01380 -0.04434 0.04327
-0.06126 -0.04584 0.02659
-0.00171 0.05213 -0.05056
0.03114 -0.02424 0.00489
-0.00163 0.04550 -0.04642
0.03791 -0.05181 0.04830
0.02807 -0.05481 0.03756
-0.05553 -0.01356 0.00327
0.00133 0.08239 -0.06773
-0.03238 -0.04991 0.05355
-0.02726 0.01793 -0.02287
-0.03213 0.03211 -0.03001
0.04021 -0.06111 0.05949
0.04003 -0.05541 0.05372
0.00926 -0.03926 0.02897
0.00574 0.00307 0.00284
-0.05542 0.03016 -0.03588
-0.04241 -0.10254 0.07625
0.00663 0.00108 -0.00184
-0.05847 0.04691 -0.04506
0.00678 -0.01986 0.00362
-0.04140 -0.14649 0.12191
0.00650 0.00872 -0.00625
-0.06334 -0.06621 0.04585
0.00626 -0.02150 -0.00196
0.05134 -0.10461 0.08033
-0.01532 -0.08912 0.07605
-0.05107 -0.11906 0.09188
-0.08877 -0.07917 0.09300
-0.01801 -0.07498 0.06653
0.04079 -0.06563 0.07028
-0.05137 -0.10637 0.07864
0.01362 -0.03150 0.02835
0.02045 -0.10541 0.07496
0.01225 -0.00316 0.01315
0.00260 -0.04522 0.03176
-0.03878 -0.11976 0.10563
-0.06263 -0.01606 0.00462
0.03393 -0.23398 0.28988
0.00219 -0.03623 0.01367
-0.06412 -0.03214 0.01753
0.06178 -0.05630 0.04556
0.01418 -0.03108 0.02823
-0.06314 -0.04847 0.03007
0.05798 -0.06257 0.04645
0.05266 0.02126 -0.00997
0.06303 -0.03933 0.03327
0.03443 0.06765 -0.05919
0.00804 0.05439 -0.05521
0.04565 0.05484 -0.04972
0.04877 -0.12187 0.09573
-0.00173 0.04545 -0.04611
0.04010 0.07657 -0.07005
-0.00620 0.03076 -0.04359
0.05536 0.04578 -0.03506
-0.02363 -0.17680 0.12889
-0.03512 -0.10335 0.07621
-0.01591 0.00611 -0.00588
0.05875 0.04332 -0.02796
0.05875 0.04332 -0.02796
0.04977 0.08914 -0.07431
0.05875 0.03982 -0.02606
0.02952 0.03361 -0.02713
0.04105 -0.05878 0.05305
0.06600 0.03834 -0.01940
-0.02962 -0.16278 0.12070
-0.03503 -0.12396 0.09160
0.01533 0.05520 -0.04802
0.03333 -0.14472 0.11381
0.03302 0.00039 0.00024
-0.02174 -0.05413 0.04908
0.04970 0.00909 -0.00603
0.04176 0.05567 -0.04732
0.05130 -0.15234 0.11493
0.05454 0.04473 -0.03810
0.05454 0.04473 -0.03810
0.01707 -0.01977 -0.03690
0.04283 0.07644 -0.07373
0.01235 0.05968 -0.05934
-0.05445 -0.00187 -0.00517
-0.00643 -0.01781 0.00165
0.05345 0.04005 -0.03614
0.04500 0.06674 -0.05745
0.03771 0.08485 -0.07053
0.02047 0.06418 -0.05008
0.02047 0.06418 -0.05008
-0.03144 0.02595 -0.02840
-0.00041 -0.00389 -0.00443
0.01886 -0.06590 0.04767
-0.01894 0.06670 -0.06626
0.04056 0.08102 -0.06891
0.05816 0.02367 -0.01366
0.02195 -0.04275 0.06567
-0.05306 -0.12381 0.09061
0.03123 0.09206 -0.08326
0.01448 0.05849 -0.04940
-0.00346 0.01656 -0.03033
0.05585 0.04778 -0.03655
0.01235 0.04778 -0.04444
-0.02456 -0.06786 0.04326
0.01594 0.07038 -0.06649
-0.06084 -0.03874 0.02229
0.03980 0.03649 -0.03280
-0.00630 0.02794 -0.04145
-0.01776 -0.02374 0.01352
0.05907 -0.01909 0.01479
0.03075 0.09035 -0.08303
0.03036 0.00363 -0.00287
-0.02962 0.05380 -0.05068
0.03881 0.08382 -0.06824
-0.02651 -0.02639 0.01284
0.03067 0.02901 -0.02558
-0.00915 0.06884 -0.06222
0.03633 -0.00640 0.00748
0.03183 0.01367 -0.01114
0.05639 0.01669 -0.01103
-0.05649 -0.09789 0.07243
0.05873 -0.01864 0.00841
0.05654 0.02035 -0.01272
-0.00573 0.00090 -0.01493
0.03306 0.02797 -0.01818
0.05440 0.04138 -0.03458
0.05937 0.04216 -0.02642
0.03235 0.06654 -0.05259
0.03667 0.08452 -0.07076
-0.01106 0.04607 -0.05116
0.05535 0.04174 -0.03526
0.05877 0.04787 -0.03171
-0.00506 0.07526 -0.05917
0.05656 0.01831 0.00263
0.04403 0.05519 -0.04819
0.04877 0.09556 -0.08382
0.05503 -0.11956 0.09392
-0.02848 0.08547 -0.08432
-0.05396 0.02344 -0.02271
0.04203 0.08936 -0.07202
0.05704 -0.10548 0.09930
0.05190 -0.08284 0.06116
-0.02474 0.02604 -0.02721
0.02455 0.08501 -0.08163
0.03291 -0.17354 0.12997
0.04995 0.01782 -0.01496
0.03163 0.02769 -0.02399
-0.00594 0.07430 -0.05915
-0.02159 0.05459 -0.04981
-0.02069 -0.04152 0.03197
0.06186 0.02971 -0.01666
-0.00174 0.05479 -0.05315
0.04336 0.05588 -0.04903
0.02267 -0.00430 0.00302
0.03521 0.05505 -0.04740
-0.00347 0.02383 -0.03919
0.04456 0.07272 -0.06601
0.03369 -0.01908 0.01290
-0.24065 -0.31320 0.48779
0.03906 -0.03950 0.03131
-0.04025 0.04737 -0.04958
0.04306 0.03719 -0.03503
-0.03145 -0.12700 0.09188
0.01083 0.06572 -0.06261
0.01786 0.07375 -0.06772
0.05024 0.08513 -0.06741
0.03671 0.08526 -0.07110
0.00417 -0.00877 -0.00192
0.05688 -0.05138 0.11437
0.03549 0.08174 -0.07334
0.04136 0.04941 -0.04553
0.04584 0.03610 -0.02311
-0.01441 0.06232 -0.06085
0.06130 -0.05266 0.04864
0.05185 0.06594 -0.05498
0.01762 0.07125 -0.06145
0.01762 0.07125 -0.06145
0.05774 0.00468 -0.00493
-0.02606 0.02440 -0.02199
0.04616 0.07877 -0.07009
0.01755 0.06522 -0.04960
0.05610 0.05671 -0.04176
0.05265 -0.03010 0.01983
0.05344 -0.05724 0.05889
0.06067 0.04886 -0.03106
0.00474 0.01120 -0.02349
-0.03063 0.07898 -0.07663
-0.03233 0.08250 -0.08170
0.03310 -0.06831 0.04690
0.03885 0.02510 -0.02797
0.04261 0.02388 -0.02685
0.00472 0.00286 -0.01289
0.01337 0.00490 -0.04829
0.03752 0.07701 -0.07186
0.03721 0.07678 -0.06966
-0.03252 -0.18674 0.14802
0.02651 0.09210 -0.08463
-0.05155 0.03979 -0.03995
-0.05155 0.03979 -0.03995
0.00297 0.02052 -0.02626
0.02869 0.02931 -0.02397
0.03570 -0.00110 0.00422
-0.02259 0.02205 -0.01644
-0.02035 0.07350 -0.07069
0.03401 0.02427 -0.01387
0.03401 0.02427 -0.01387
-0.02434 0.08139 -0.07644
-0.04330 0.07328 -0.06934
0.02802 0.03150 -0.02833
0.05418 0.03777 -0.03018
0.03920 0.04113 -0.03435
-0.02673 -0.06252 0.03899
-0.03604 -0.03179 0.01981
-0.01713 -0.01498 0.01214
-0.00410 0.07486 -0.05961
0.04032 0.08405 -0.06888
0.04053 0.07226 -0.06633
0.01640 0.06560 -0.05730
-0.04904 -0.00738 0.00188
-0.02255 -0.00901 0.00868
0.03705 0.08488 -0.07096
0.01816 -0.01501 0.01165
0.03993 0.03828 -0.03285
0.03746 -0.01087 0.00963
0.02420 0.02919 -0.02348
-0.05161 -0.02332 0.01176
-0.02741 0.08202 -0.08035
0.05195 -0.05225 0.03661
0.06328 -0.05368 0.04463
0.04259 0.08584 -0.07153
-0.05126 -0.10602 0.07817
-0.00837 0.03744 -0.04478
-0.05504 -0.12743 0.09608
0.02983 0.08989 -0.08363
-0.05124 -0.12397 0.09796
0.00587 0.03057 -0.04102
-0.06004 0.00901 -0.01150
0.03331 -0.01814 0.01171
0.00755 0.00557 -0.01386
-0.05923 -0.01002 0.00070
0.00344 -0.01015 -0.00006
0.05267 -0.00408 0.00065
-0.05340 -0.01351 0.00319
0.05895 -0.14504 0.11421
0.00457 0.02706 -0.04064
0.01322 -0.04522 0.04201
-0.00229 0.04020 -0.04424
0.05659 -0.07830 0.05925
0.05218 -0.02170 0.01316
0.01348 0.06286 -0.06407
-0.04307 -0.08213 0.06202
0.07130 0.05326 -0.02175
0.01568 -0.03468 0.02847
0.00733 0.02448 -0.02819
0.06317 0.00062 0.00335
0.02761 -0.00974 0.02238
0.02979 0.08039 -0.07872
0.01589 -0.03949 0.03190
-0.04237 -0.08178 0.05891
-0.02736 -0.10493 0.08165
0.07386 0.00882 0.01166
0.05311 -0.14623 0.11436
-0.06957 0.00127 0.00068
-0.06490 0.02906 -0.02616
0.06609 -0.00839 0.01398
-0.06737 -0.00691 0.00186
-0.06818 0.04629 -0.03362
-0.05721 0.04210 -0.03935
-0.07137 0.03019 -0.01942
0.03728 -0.08017 0.06003
-0.06512 0.03299 -0.03253
-0.00027 -0.15769 0.14028
-0.00044 -0.12168 0.08960
0.01373 -0.05740 0.05124
-0.07138 0.04842 -0.03048
-0.06447 0.04132 -0.03490
-0.06661 0.01970 -0.01472
-0.06350 0.02389 -0.02368
-0.06899 0.00364 -0.00275
0.00271 -0.18580 0.18015
-0.06771 -0.04040 0.02878
0.06377 0.05219 -0.03036
0.00430 -0.16735 0.14771
0.06374 -0.03518 0.03138
-0.01813 -0.11061 0.08503
0.06000 -0.05475 0.04057
-0.01771 -0.09726 0.08145
0.06358 0.00941 -0.00101
-0.00304 -0.17486 0.16096
0.01853 -0.10617 0.08546
0.06528 0.01030 0.00225
-0.00096 -0.11534 0.10268
0.00191 -0.05073 0.01720
0.00191 -0.05073 0.01720
-0.00125 -0.05263 0.03100
0.02204 -0.14366 0.11405
-0.00125 -0.01866 -0.00220
-0.06425 -0.08716 0.06468
-0.03683 -0.20073 0.17512
0.06000 -0.08674 0.06870
-0.03245 -0.14165 0.10699
-0.05074 -0.06373 0.02616
-0.06779 0.03625 -0.03024
0.03107 -0.13458 0.10157
-0.05865 -0.12055 0.08814
-0.02172 -0.13159 0.09872
0.02505 -0.17533 0.13034
0.00394 -0.28865 0.32358
0.04835 -0.11372 0.09077
0.04311 -0.09061 0.06740
0.02863 -0.05260 0.03463
-0.02365 -0.00186 0.06804
-0.03236 0.08282 -0.08017
-0.03113 0.08832 -0.08595
-0.01251 -0.02941 0.03407
0.00680 0.00543 -0.01234
0.02235 -0.12583 0.09833
0.00750 0.02661 -0.03390
0.02427 -0.00363 0.01980
-0.04259 0.08372 -0.08152
0.00139 -0.04976 0.02944
0.02513 -0.10687 0.07629
0.05261 -0.08490 0.06215
0.05679 -0.00338 0.01482
0.02303 -0.13537 0.10416
0.01571 -0.03369 0.02696
0.02494 0.02805 -0.02642
0.02487 0.02817 -0.02685
-0.05992 -0.08440 0.06447
-0.03201 0.08113 -0.08186
-0.04632 0.08231 -0.07275
-0.02884 -0.10786 0.07343
-0.02731 -0.11334 0.07820
0.03565 -0.01294 -0.02419
0.03622 0.07689 -0.07827
0.04927 0.00881 -0.00675
0.01582 0.07151 -0.06382
0.04468 -0.04657 0.03559
-0.04500 -0.02527 0.01859
-0.01484 0.02633 -0.01853
-0.02463 0.06518 -0.11860
-0.01665 -0.05649 0.04310
0.01691 0.07248 -0.06741
-0.02679 0.07949 -0.07896
-0.06799 -0.03171 0.04165
-0.00069 0.07428 -0.05813
-0.01159 0.03054 -0.03269
0.05539 -0.05282 0.03697
0.01872 -0.07633 0.05624
0.02464 -0.10683 0.10576
-0.03308 0.08854 -0.08568
-0.03967 -0.01552 0.00801
0.03119 -0.01372 0.00256
-0.01052 0.08524 -0.06278
-0.04397 0.07857 -0.06852
-0.04371 -0.00394 0.01072
-0.03770 0.07394 -0.08222
-0.03384 0.08268 -0.08046
0.02123 -0.02470 0.01563
-0.03176 0.08901 -0.08579
0.02312 0.08495 -0.07949
-0.02478 0.07658 -0.07097
-0.03205 0.08901 -0.08402
-0.03510 0.08758 -0.08147
-0.01915 0.07776 -0.07120
0.02478 -0.08177 0.05616
-0.06126 -0.07276 0.05332
-0.03092 -0.06873 0.04372
0.02271 -0.02537 0.01539
0.05366 0.06165 -0.04919
-0.01269 0.05620 -0.05746
-0.02513 -0.10525 0.07365
-0.02513 -0.10525 0.07365
0.02830 0.05709 -0.12171
-0.04222 0.05960 -0.06423
-0.00632 -0.03260 0.01428
-0.06662 -0.05086 0.03545
0.06336 -0.03751 0.03261
0.02775 0.04559 -0.03941
0.05725 -0.08347 0.06280
-0.00505 0.03018 -0.04366
0.02727 -0.02808 0.01594
-0.01774 0.06202 -0.06281
-0.04320 0.06673 -0.06736
0.05503 -0.11952 0.09780
0.01553 0.07185 -0.06737
-0.05709 0.02567 -0.02522
0.00539 0.02823 -0.04034
-0.03314 0.07966 -0.08044
0.05166 -0.03425 0.02651
-0.02734 0.01834 -0.02536
0.02446 0.08498 -0.08057
0.03026 0.03388 -0.02756
0.02348 -0.07547 0.05171
-0.05223 -0.15376 0.11062
0.04087 0.03506 -0.03523
-0.02823 -0.02957 0.01451
0.02138 -0.01326 0.00906
-0.02585 -0.01134 0.00340
-0.03463 -0.03537 0.02032
0.00040 -0.05200 0.02915
-0.04573 -0.07693 0.06087
0.06595 0.00192 0.00386
-0.05189 -0.11653 0.08969
0.02896 0.02032 -0.02296
-0.03009 -0.17834 0.12940
0.03930 0.07719 -0.07076
-0.03482 -0.03010 0.01690
-0.06575 0.03075 -0.02576
-0.03095 -0.14448 0.10906
0.05314 0.04922 -0.04195
-0.06760 -0.00945 0.00429
0.04889 -0.14920 0.11365
-0.03278 0.02937 -0.02996
0.04267 0.07919 -0.07085
-0.00890 0.04660 -0.05073
0.00891 0.03243 -0.03308
-0.05944 -0.15219 0.11039
0.04206 -0.05865 0.05826
-0.02742 -0.10438 0.08029
0.02587 -0.09483 0.06937
0.06998 0.03208 -0.03142
0.01612 -0.05642 0.04445
0.05330 -0.12608 0.10243
0.06527 0.02894 -0.01847
0.01646 -0.05879 0.04537
0.04019 -0.05771 0.05394
0.01359 -0.17971 0.17139
-0.04042 -0.03101 0.02383
0.06289 -0.05049 0.04261
0.00382 -0.18524 0.20064
0.04722 -0.05420 0.03982
0.06371 -0.04079 0.03601
0.01647 -0.05441 0.04187
0.00180 -0.05315 0.03380
-0.05101 -0.11372 0.08527
0.03857 -0.08706 0.07159
0.05272 -0.05247 0.03687
0.05372 -0.07858 0.06363
-0.03748 -0.08232 0.05981
-0.01675 -0.06561 0.04598
0.05604 -0.14949 0.11438
0.16198 -0.07631 0.20369
-0.03605 -0.08503 0.06563
-0.03359 -0.07051 0.04601
0.06433 -0.06310 0.05801
0.02729 -0.11283 0.11926
0.06708 0.02802 -0.01771
0.04846 -0.13699 0.10888
0.08116 -0.02392 0.03516
0.04811 -0.11505 0.09160
0.02065 -0.19470 0.19167
0.02545 -0.05503 0.21291
0.04342 -0.02979 0.02300
0.06335 0.00804 -0.00160
0.02761 -0.14168 0.11142
-0.06108 0.05337 -0.04586
0.05204 -0.04875 0.03414
0.01877 -0.09060 0.06649
0.06373 -0.04848 0.04092
0.02260 -0.03520 0.13249
0.06421 -0.03702 0.03302
0.17167 -0.07353 0.21877
0.05121 -0.56151 1.00000
0.04869 -0.06745 0.04997
-0.02879 -0.16636 0.11993
0.04978 -0.03391 0.02286
0.04971 -0.03381 0.02235
-0.00008 -0.13507 0.13687
0.05488 -0.15152 0.12348
-0.00175 -0.09567 0.08038
-0.05217 -0.10126 0.07343
0.04191 -0.16137 0.13211
-0.03568 -0.01695 0.00780
0.02733 -0.04498 0.02802
0.04589 0.06711 -0.06049
0.04919 0.00896 -0.00719
-0.02444 -0.11275 0.08472
-0.04196 -0.14291 0.11697
-0.05159 0.01471 -0.01138
0.04793 -0.04803 0.03441
0.02640 -0.10578 0.07981
-0.02256 -0.08649 0.07203
0.01058 0.05694 -0.05759
0.02702 0.03540 -0.03392
-0.00053 0.01078 -0.02890
0.05429 -0.15170 0.11419
0.04141 -0.05693 0.05670
0.01921 -0.08802 0.07164
0.07102 0.06490 -0.02850
0.02427 0.03355 -0.03014
-0.02119 -0.03082 0.01712
-0.00219 -0.09899 0.09120
0.01756 0.10605 -0.08270
-0.00470 0.12029 -0.08400
0.06481 -0.01882 0.02017
0.05132 -0.05099 0.05397
0.00238 0.10974 -0.07265
0.16274 -0.07078 0.20209
-0.05701 0.02567 -0.02520
0.05262 -0.05979 0.04260
-0.02842 -0.10319 0.07684
0.02414 0.11042 -0.09047
-0.04845 -0.05087 0.03326
0.02598 0.02667 -0.02568
-0.03342 -0.06157 0.03871
-0.05010 0.07843 -0.07563
0.05205 -0.04373 0.03020
-0.05005 -0.03905 0.02317
0.01662 0.12444 -0.08610
0.02706 -0.06240 0.04079
0.00005 0.11144 -0.07618
0.03765 0.07252 -0.05813
-0.00258 -0.09988 0.08389
0.02283 -0.14125 0.10879
-0.05641 -0.00726 -0.00123
0.01564 0.09662 -0.07701
0.01497 -0.06861 0.05809
0.03059 0.03190 -0.02703
-0.00034 -0.17649 0.16252
-0.06070 -0.14881 0.11216
0.06091 -0.06331 0.05052
-0.02311 -0.08258 0.07028
0.03206 -0.16296 0.15668
0.05069 0.00824 -0.00236
0.05419 -0.15272 0.12772
-0.05170 0.01520 -0.01234
0.03126 -0.06667 0.04493
0.01523 -0.04415 0.05242
0.08570 0.05128 0.00389
0.00739 -0.01966 0.00329
0.06515 0.03829 -0.02009
-0.04493 -0.05378 0.04549
-0.01868 -0.08922 0.06635
0.07679 0.01065 -0.00634
-0.00592 -0.05430 0.05888
0.02861 -0.15255 0.11963
-0.06590 -0.05983 0.04697
-0.06577 -0.05285 0.03808
-0.00073 0.00305 -0.01165
-0.01691 -0.04538 0.03329
-0.01116 -0.04576 0.03374
-0.09710 -0.16229 0.25450
0.11592 -0.00101 0.09905
-0.04377 -0.02964 0.02946
-0.06815 -0.01659 0.01202
0.06333 0.01114 -0.00582
0.06699 0.00322 0.00554
-0.06700 -0.03830 0.02826
0.04212 -0.07343 0.05715
-0.06661 -0.04348 0.03141
0.06498 0.03915 -0.02003
0.02366 -0.15842 0.12422
0.02622 -0.09560 0.25329
-0.07614 0.05712 -0.03188
0.06869 0.00199 0.00555
-0.00240 -0.03975 0.02580
-0.05850 -0.14298 0.10800
-0.00896 0.03130 -0.03552
-0.04113 -0.06632 0.05734
0.00790 -0.18851 0.19671
0.00476 -0.00843 0.00252
0.07612 0.00535 0.00129
-0.04404 -0.03143 0.03115
-0.06302 -0.01686 0.00825
0.04985 0.00588 -0.00160
-0.05504 -0.08590 0.06426
-0.04086 -0.02539 0.01909
-0.06462 -0.07467 0.05510
-0.01035 -0.01669 0.02050
-0.05324 -0.13206 0.09612
-0.00359 -0.17533 0.17473
0.06222 -0.06209 0.05084
0.07311 -0.04566 0.05630
-0.06227 -0.03695 0.02144
-0.00655 -0.05954 0.07418
-0.02855 -0.08210 0.05332
-0.01972 -0.16475 0.12817
-0.00893 0.01529 -0.02693
0.02632 -0.16185 0.13618
-0.04586 0.08446 -0.07370
0.04819 -0.12182 0.10137
0.07441 0.01273 -0.00428
-0.06834 0.06037 -0.04262
-0.03293 0.08871 -0.08459
-0.06153 -0.05209 0.03310
-0.06149 -0.05207 0.03294
-0.03165 0.08893 -0.08549
-0.03199 -0.01292 0.00361
0.00071 -0.03538 0.01190
0.07857 0.00375 0.00154
0.02559 -0.17781 0.13484
-0.03174 -0.02581 0.01231
-0.03422 0.00631 -0.00472
0.04277 -0.15620 0.11839
-0.01671 -0.08634 0.07128
-0.06563 0.06171 -0.04484
-0.06572 -0.06342 0.04584
-0.06814 0.05821 -0.04066
-0.06814 0.05821 -0.04066
-0.05173 0.06294 -0.05485
-0.05178 0.06291 -0.05581
-0.04405 -0.04247 0.04609
0.02405 -0.09001 0.05542
-0.01670 0.09538 -0.07586
-0.05699 0.01635 -0.01412
0.06578 -0.00543 0.01023
-0.07227 0.09580 -0.07684
-0.04288 -0.05044 0.04224
-0.09689 -0.16466 0.25952
0.04652 -0.15429 0.11451
0.05385 -0.00005 0.00137
-0.01461 0.02863 -0.01878
-0.10189 -0.14024 0.24510
0.01648 -0.08669 0.07229
-0.07503 0.08732 -0.06862
-0.03742 0.09393 -0.07483
-0.05698 0.00694 -0.00835
-0.03617 -0.06561 0.04400
-0.02721 0.08800 -0.08524
-0.06102 0.05541 -0.04656
-0.06103 0.05540 -0.04667
-0.06037 0.04431 -0.03956
-0.06025 0.04432 -0.03906
0.00196 -0.17425 0.18841
-0.03211 -0.15260 0.11757
-0.03383 -0.06558 0.04216
-0.04992 -0.10783 0.08001
-0.01057 -0.16233 0.13440
-0.03349 -0.07557 0.05004
-0.05297 -0.04163 0.02382
0.07674 0.01303 -0.00324
0.01061 0.05689 -0.05764
-0.02867 0.01619 -0.02214
-0.01258 0.02584 -0.01875
-0.03363 -0.07043 0.04606
-0.01640 0.05608 -0.04961
0.07550 0.00732 0.00032
-0.04524 -0.03735 0.02978
0.05971 0.08189 -0.05377
0.02402 -0.09134 0.06460
0.04663 -0.02425 0.01742
-0.04395 0.07703 -0.06883
-0.04389 0.07629 -0.07190
0.01605 -0.08410 0.07078
0.02253 -0.08939 0.05933
0.02363 -0.09253 0.06607
-0.05700 -0.07485 0.05011
0.01613 -0.04457 0.03548
-0.07397 0.08788 -0.06922
-0.00717 -0.01407 0.00811
0.03379 -0.17323 0.12935
-0.00542 0.11065 -0.07539
-0.04201 0.08431 -0.07405
0.00031 0.00411 -0.01368
0.01624 -0.04933 0.03845
0.01750 -0.07461 0.05644
-0.02334 -0.17856 0.12940
-0.00280 -0.17212 0.16097
-0.03480 0.09545 -0.08268
0.01795 -0.04309 0.03044
0.00335 -0.18137 0.17495
-0.05589 -0.05540 0.03489
-0.02416 0.06140 -0.04644
0.05118 -0.12444 0.09585
-0.05009 -0.13293 0.09947
0.07195 0.00064 0.00672
-0.03460 -0.00202 0.00096
-0.02602 -0.06367 0.03952
-0.06300 0.08119 -0.05999
-0.01343 0.02714 -0.01931
-0.07944 -0.03736 -0.00409
-0.00900 0.03394 -0.04620
-0.04538 0.03984 -0.04444
0.05079 0.10137 -0.08675
-0.03929 0.08485 -0.07444
0.00057 -0.15364 0.16505
0.02561 -0.04118 0.02561
-0.02686 -0.09394 0.06274
-0.00438 0.02718 -0.02578
-0.00618 0.00281 -0.01773
-0.02143 -0.17716 0.12924
-0.02909 -0.09321 0.06271
-0.05423 -0.14405 0.10316
-0.02884 -0.06476 0.04002
-0.07142 0.05249 -0.03108
0.02242 -0.06307 0.04281
0.04048 0.08140 -0.07034
-0.03188 -0.07711 0.05074
-0.03395 0.08334 -0.07910
-0.06852 0.06268 -0.04238
-0.03886 0.08553 -0.07650
-0.06470 0.03643 -0.02924
-0.02390 -0.06803 0.04354
-0.04800 0.05724 -0.05225
0.02141 0.10235 -0.08676
0.02482 -0.05432 0.03524
-0.06114 0.06512 -0.05316
-0.03269 0.08927 -0.08445
-0.06580 -0.02797 0.01770
-0.05137 -0.07674 0.05260
-0.06110 0.05729 -0.04798
-0.03283 0.05277 -0.04456
-0.00082 -0.03322 0.00889
0.03424 -0.17122 0.13256
0.02374 0.01404 -0.01318
0.03066 -0.04362 0.02751
0.02187 -0.17180 0.12910
0.03688 -0.09968 0.07802
0.04195 -0.01545 0.01342
-0.05497 -0.00821 -0.00240
0.05084 -0.05319 0.03737
-0.04321 0.06812 -0.06747
0.00352 -0.03297 0.01230
0.04995 -0.13338 0.10748
-0.03336 0.04471 -0.03848
0.02757 -0.05284 0.03431
0.01147 0.04940 -0.04660
0.06354 -0.07635 0.06203
-0.01403 -0.03340 0.02933
-0.04293 -0.03809 0.03604
-0.01282 -0.03672 0.03246
0.06876 0.00374 0.00526
-0.00202 -0.14171 0.13482
0.04091 -0.00614 0.01194
-0.06104 -0.06826 0.04581
0.04743 -0.07587 0.06567
-0.01855 -0.08497 0.07278
0.03399 -0.08907 0.07684
0.01424 -0.05815 0.04909
0.03386 -0.08878 0.07618
0.02455 -0.09431 0.07754
0.03646 -0.09344 0.07391
-0.03912 -0.08052 0.06105
-0.05630 -0.04717 0.02992
-0.04299 -0.06188 0.05272
-0.04303 -0.05311 0.04429
-0.04285 -0.05356 0.04582
-0.00211 -0.02397 0.03273
-0.00596 -0.02214 0.04164
0.00476 -0.02445 0.00225
0.00475 -0.02445 0.00227
0.00077 -0.07218 0.06351
0.00095 -0.07188 0.06325
-0.00697 -0.02673 0.00510
-0.06456 -0.03525 0.02178
0.00446 -0.02850 0.00835
-0.04601 -0.07626 0.05955
-0.04498 -0.05239 0.04346
-0.00442 -0.01945 0.05369
-0.01691 -0.05101 0.03859
-0.06910 -0.01344 0.01095
-0.07135 -0.00071 0.00812
-0.01160 -0.02192 0.02929
-0.06054 -0.14782 0.11237
-0.00222 -0.05655 0.03328
-0.03624 -0.10053 0.07717
-0.08015 0.03445 0.04256
-0.07025 -0.01675 0.02005
-0.07905 0.03473 0.05918
0.01785 -0.09472 0.07670
0.00375 -0.05455 0.10040
-0.00242 -0.02017 0.05251
0.05711 -0.03926 0.02531
0.00148 0.00270 -0.00827
0.05864 -0.04517 0.03282
-0.00057 0.00296 -0.01043
0.00201 -0.06110 0.08125
0.04191 -0.08541 0.07609
0.01534 -0.07381 0.06234
0.05191 -0.10722 0.08670
0.03571 -0.12253 0.08734
-0.07419 0.01659 -0.00706
-0.00103 -0.03193 0.00761
-0.00760 -0.02376 0.03841
0.00499 -0.02656 0.00633
-0.05947 0.04083 -0.03947
0.04558 -0.00306 -0.02822
0.01260 -0.18859 0.18687
0.07056 0.00168 0.01443
-0.00033 -0.04200 0.02815
-0.00262 -0.02957 -0.00042
0.05523 0.04142 -0.03770
-0.04717 -0.07736 0.06129
-0.00318 -0.05554 0.03230
-0.06366 -0.07269 0.05326
-0.04576 0.05766 -0.05389
-0.04577 0.05768 -0.05374
0.03660 -0.09818 0.07866
0.00186 -0.05665 0.03442
0.01846 -0.04781 0.03408
-0.03604 -0.10481 0.08599
0.06362 0.00236 -0.00061
0.06587 0.06847 -0.04018
0.03299 -0.01813 -0.02985
-0.03034 0.07931 -0.07873
-0.06347 0.04043 -0.03297
-0.06347 0.04044 -0.03301
-0.03233 -0.16236 0.12178
-0.07674 0.05614 -0.03165
-0.07677 0.05613 -0.03142
-0.03736 -0.09860 0.07977
-0.06427 -0.06841 0.05007
-0.06437 -0.08206 0.06490
-0.02163 -0.14917 0.12102
-0.02794 -0.05412 0.03324
-0.05569 -0.09130 0.06798
-0.00528 -0.17434 0.16313
0.04737 -0.10498 0.08457
-0.06634 -0.04804 0.03527
-0.06299 -0.01670 0.00760
-0.03961 -0.05647 0.04552
0.08236 0.05945 -0.01052
0.01816 -0.10106 0.08244
0.04613 0.00113 0.10793
0.03527 0.00475 -0.05525
-0.03438 0.00654 -0.00640
-0.06986 -0.05125 0.05945
0.00038 -0.06448 0.08857
-0.05920 -0.07122 0.04645
-0.05830 0.03445 -0.03111
-0.05254 0.03783 -0.02958
0.02863 -0.07383 0.05337
-0.01513 -0.01918 0.01017
-0.03514 0.02306 -0.01926
0.06033 0.06361 -0.05006
0.02384 -0.13789 0.10481
-0.02320 -0.09546 0.06513
-0.00886 0.05372 -0.04247
-0.00638 -0.05293 0.05801
-0.00607 -0.03176 0.01637
-0.01607 0.05781 -0.06166
-0.05995 -0.11803 0.08723
0.05720 0.03723 -0.02185
0.03330 -0.05746 0.03860
-0.03111 0.08892 -0.08557
-0.02674 -0.08451 0.05540
-0.00508 0.00038 -0.01613
-0.06267 -0.02700 0.01423
-0.10675 -0.16929 0.26226
0.01477 0.06348 -0.06334
0.05254 -0.05717 0.04038
-0.00337 -0.03619 0.02099
0.02715 -0.16995 0.12876
-0.02479 -0.02698 0.01371
-0.03598 -0.10317 0.07895
0.01853 -0.10088 0.08001
-0.05689 -0.03744 0.03689
-0.06336 0.03641 -0.02962
0.12607 -0.00845 0.09669
0.06442 0.05526 -0.03570
0.11975 0.06339 0.04664
-0.06396 -0.07815 0.06090
-0.04882 -0.08520 0.06197
0.03970 -0.09997 0.08324
-0.05056 -0.06154 0.04066
-0.01041 0.04245 -0.04157
-0.10843 -0.16412 0.25459
-0.07087 -0.00575 0.01476
0.01728 0.00205 0.02969
-0.02193 -0.04561 0.02886
0.02631 -0.15332 0.11263
-0.04773 -0.04113 0.03714
0.01607 -0.08211 0.07140
-0.05583 -0.04036 0.02253
-0.05893 -0.05397 0.03326
-0.06078 -0.06195 0.04103
-0.03509 0.06360 -0.05283
0.03083 -0.03577 0.02261
-0.02160 -0.05554 0.03527
-0.05884 0.04175 -0.03994
-0.00034 -0.19426 0.17789
0.02764 -0.06781 0.04534
-0.04621 0.08536 -0.07356
0.06877 0.03056 -0.00519
-0.07135 0.01680 -0.00544
-0.05630 -0.04728 0.02685
-0.06043 0.04658 -0.04038
-0.06705 0.02482 -0.01928
-0.03979 0.09384 -0.07897
0.05593 -0.12773 0.09821
-0.02525 0.02997 -0.02879
-0.10456 -0.17015 0.26233
-0.10963 -0.16803 0.25941
0.02607 -0.16483 0.12451
-0.03098 -0.06862 0.04343
-0.00978 -0.17903 0.16311
0.07654 0.03784 -0.00212
0.02461 -0.07649 0.05251
0.08769 0.00322 0.03098
-0.03248 -0.08610 0.05707
0.04448 0.02111 -0.01207
-0.04064 0.09351 -0.08006
-0.03585 0.02408 -0.02036
-0.06485 -0.07999 0.06310
0.06080 -0.08096 0.07221
0.20010 -0.02062 0.20205
0.05716 -0.02784 0.01906
-0.05565 -0.06011 0.03765
-0.02713 0.08816 -0.08511
-0.05605 -0.07790 0.05513
-0.05604 -0.07807 0.05346
-0.00560 0.00305 -0.01732
0.00238 0.10847 -0.07323
-0.03834 -0.06642 0.04866
0.02066 -0.14727 0.10756
-0.03312 0.00490 -0.00791
0.03072 -0.03267 0.01957
-0.00410 -0.02128 0.03210
-0.01011 0.02458 -0.03004
0.02611 0.02365 -0.01929
-0.00157 -0.10235 0.10603
-0.02919 -0.08315 0.07388
0.02026 -0.05746 0.03976
0.05690 -0.00270 -0.00593
-0.03033 -0.05191 0.03058
-0.04192 0.09286 -0.07839
-0.03851 -0.01761 0.01108
-0.03191 -0.03277 0.01732
-0.10374 -0.17899 0.27694
-0.00626 0.09355 -0.06104
0.01984 -0.08115 0.07550
-0.03306 0.10062 -0.07774
-0.01363 0.05818 -0.05386
0.02677 0.08664 -0.08080
0.02389 -0.05719 0.04278
-0.02780 -0.18050 0.13016
-0.01291 0.03528 -0.02697
-0.06133 0.01082 -0.01323
-0.11109 -0.15301 0.22697
-0.07741 0.05584 -0.03099
-0.02943 0.08606 -0.08183
-0.03810 -0.03674 0.02490
-0.03807 -0.03661 0.02425
-0.04481 0.06829 -0.06862
0.04600 -0.09847 0.07324
-0.00476 0.01321 -0.01687
0.04430 -0.05233 0.03958
0.04685 -0.08465 0.05330
-0.01481 0.05793 -0.06015
-0.05965 -0.07443 0.04977
0.00352 0.01015 -0.02145
-0.05440 -0.15789 0.11718
-0.06908 -0.00746 0.00574
0.04828 -0.10097 0.07227
0.01830 -0.17628 0.16583
-0.03224 0.07931 -0.07893
-0.05892 -0.03348 -0.00502
-0.05910 -0.04201 0.02411
0.02344 -0.09476 0.06741
-0.06414 0.07780 -0.05867
-0.04777 0.07348 -0.07154
-0.03591 -0.07595 0.05236
-0.02548 0.04312 -0.03684
-0.02059 -0.11586 0.08705
0.23156 -0.02407 0.22714
0.05800 0.02585 -0.02015
0.06118 0.03116 -0.02124
-0.06971 0.03409 -0.02265
-0.05966 0.04633 -0.04170
-0.02232 0.07334 -0.06320
-0.06237 0.07715 -0.05960
-0.04061 0.07287 -0.07048
0.03148 -0.11235 0.07769
0.00743 -0.18060 0.16397
-0.02540 -0.08360 0.05497
0.02543 -0.04127 0.03268
0.06504 0.00463 0.00386
0.04763 -0.06970 0.05292
-0.06219 0.05308 -0.04347
-0.03101 0.03155 -0.03063
0.05182 -0.14967 0.11349
-0.05983 -0.10988 0.08309
0.01474 -0.05248 0.04554
-0.02680 -0.08240 0.05415
-0.06711 0.06986 -0.04986
-0.02908 0.02174 -0.02578
0.06134 0.01595 -0.00833
-0.06267 0.01092 -0.00743
0.03427 -0.02036 0.01243
-0.00843 0.02921 -0.04382
-0.04937 -0.01745 0.00813
-0.04529 0.06244 -0.06421
0.06286 0.02059 -0.00926
-0.06695 0.06247 -0.04461
-0.02202 -0.01893 0.01055
-0.02433 0.09663 -0.08495
0.00525 0.02133 -0.02964
-0.00883 0.03358 -0.04194
0.00317 -0.00726 -0.00231
-0.06354 -0.01275 0.00446
0.06097 -0.14881 0.13704
-0.06026 0.04013 -0.03921
-0.00065 -0.03676 0.01328
0.00345 0.00824 -0.01994
0.02806 -0.17777 0.13071
0.03286 -0.15896 0.12329
-0.00386 -0.01057 -0.00065
-0.03056 -0.16654 0.12487
0.02227 -0.17061 0.13201
-0.01440 -0.04155 0.03881
0.03426 -0.17203 0.13010
-0.04176 -0.07591 0.05920
0.05095 -0.01807 0.01027
-0.00374 -0.01094 -0.00103
-0.04969 -0.00771 0.00124
-0.04068 0.07424 -0.07200
0.01852 -0.04748 0.03388
0.00349 -0.06094 0.10050
0.05975 0.05468 -0.04109
-0.06735 0.05683 -0.04908
-0.00567 -0.17093 0.16945
-0.05916 -0.14645 0.11236
-0.02300 -0.14680 0.10714
-0.07002 -0.00632 -0.00202
-0.02849 -0.05562 0.03182
0.19722 -0.02099 0.20283
0.19722 -0.02099 0.20283
0.02650 -0.04373 0.02762
-0.01716 0.05635 -0.04807
-0.02364 -0.02413 0.01208
-0.04309 -0.06156 0.05198
0.02149 0.00437 -0.07033
-0.07069 -0.00661 0.01398
-0.01039 0.03184 -0.03342
0.06442 -0.01609 0.02058
0.00336 -0.04885 0.02795
-0.00552 -0.01355 0.00750
-0.06793 -0.02224 0.01613
0.06425 -0.02147 0.02424
-0.05657 -0.07885 0.06289
-0.01731 -0.03278 0.01811
-0.06725 -0.03259 0.02343
0.06137 -0.06757 0.05665
0.00237 -0.04109 0.01662
-0.00594 -0.15934 0.16166
-0.02196 0.07202 -0.06357
-0.01106 -0.03607 0.01715
-0.06309 0.00033 -0.00394
-0.00929 -0.02567 0.03328
-0.01927 0.06435 -0.05878
-0.06273 -0.02185 0.01075
-0.07255 0.03505 -0.01197
-0.07977 0.03401 0.05188
-0.07232 0.06855 -0.05174
-0.01473 -0.03462 0.02918
-0.08025 0.03322 0.02051
0.05930 -0.01418 0.01177
-0.00268 -0.03785 0.02658
-0.03304 0.08875 -0.08542
-0.06018 0.04310 -0.03982
-0.06007 0.04289 -0.03961
-0.07591 0.05730 -0.03439
-0.09692 -0.02378 0.16682
-0.09692 -0.02378 0.16682
-0.06337 0.03639 -0.02967
-0.07482 0.04971 -0.03101
-0.06543 0.00926 -0.00948
0.01868 -0.09982 0.08322
0.04644 -0.07816 0.05994
-0.08082 0.01730 0.09863
-0.04530 0.06258 -0.06285
-0.07469 0.05587 -0.03343
-0.06378 0.07551 -0.07006
-0.07147 0.05254 -0.03115
0.04881 -0.12055 0.09622
-0.00245 -0.16792 0.14379
-0.03243 -0.00281 -0.00280
0.00002 -0.02905 -0.00047
-0.02182 0.07234 -0.06904
-0.07621 0.03092 0.01124
0.04522 0.11737 -0.08736
-0.04747 0.06828 -0.06519
-0.01318 -0.06676 0.06216
0.05901 -0.02962 0.02265
-0.06091 -0.06195 0.04094
-0.02144 0.06771 -0.06445
-0.06093 -0.03466 0.01884
-0.03048 0.02170 -0.02319
-0.01170 0.01778 -0.02851
-0.01830 0.06453 -0.05777
-0.05874 0.05045 -0.04684
-0.02231 0.07337 -0.06323
-0.05236 0.07523 -0.06544
-0.00668 -0.02210 0.03465
-0.03479 0.08539 -0.07928
-0.00737 -0.01859 0.04198
-0.03791 -0.05922 0.03556
-0.04591 0.09470 -0.07889
-0.02732 0.01984 -0.02359
-0.03355 0.08779 -0.08441
-0.03943 -0.04624 0.03415
-0.06607 0.00325 -0.00526
-0.03656 0.02298 -0.01924
-0.03167 0.03379 -0.03176
-0.03202 0.03397 -0.03437
-0.07222 0.00053 0.01709
-0.06258 0.01869 -0.01455
0.02266 0.12162 -0.09309
-0.04231 0.08228 -0.07208
-0.04231 0.08227 -0.07213
-0.03468 -0.04035 0.02391
-0.00691 -0.03211 0.01198
-0.05028 0.09440 -0.08220
-0.08069 0.03562 0.05749
0.05262 -0.11237 0.08807
-0.06227 0.01707 -0.01306
-0.04401 -0.03664 0.03657
0.00770 0.08449 -0.06417
-0.06131 0.06324 -0.05186
-0.06479 0.06241 -0.04812
-0.00105 0.00191 -0.01056
-0.04753 0.05692 -0.05218
-0.06121 0.02112 -0.02059
-0.09809 -0.02576 0.16863
-0.03246 0.03011 -0.03044
0.00775 0.10508 -0.07105
0.02113 0.09994 -0.08578
-0.02223 0.07153 -0.06974
-0.03089 0.05589 -0.05027
-0.03972 0.06114 -0.06017
0.04598 -0.05774 0.03978
-0.05867 -0.06350 0.04125
-0.03976 -0.03095 0.02402
-0.03384 0.08426 -0.07848
0.04126 -0.04450 0.02727
0.01104 0.09903 -0.07655
-0.01546 0.05480 -0.05087
0.02513 -0.11140 0.08888
0.02102 -0.10517 0.08079
-0.04492 0.06272 -0.06386
-0.03721 -0.04597 0.03054
-0.03725 -0.04573 0.03004
-0.04803 0.04073 -0.04264
-0.06929 0.06275 -0.04167
-0.01206 0.02139 -0.02679
-0.01205 0.02148 -0.02742
0.02096 -0.01644 0.01102
-0.03208 -0.05221 -0.02902
0.00166 0.12154 -0.07936
-0.01578 -0.02996 0.01496
-0.10193 -0.16839 0.27517
-0.06624 -0.00780 0.00414
-0.06437 0.02911 -0.02538
-0.06392 -0.05100 0.03332
-0.05838 -0.08512 0.05953
-0.05070 0.06572 -0.05901
-0.03259 0.09072 -0.08378
-0.04850 0.07051 -0.06812
-0.03035 0.00407 0.00128
0.02775 -0.17264 0.12900
0.02231 -0.13408 0.08425
-0.04564 0.05817 -0.05957
-0.04460 0.05345 -0.05511
0.02496 -0.08341 0.07857
0.06380 0.02208 -0.01066
-0.06843 0.06047 -0.04126
0.05897 0.00517 -0.00112
-0.05626 -0.04727 0.02678
0.04576 -0.07882 0.06356
-0.05270 -0.06308 0.04050
-0.07222 0.07081 -0.05325
-0.04416 0.10554 -0.07811
-0.03027 -0.08526 0.05627
-0.03340 0.00942 -0.00326
-0.04893 0.08470 -0.07468
0.00718 0.11005 -0.07464
0.00486 0.03464 -0.04366
-0.00024 -0.03394 0.00687
-0.10287 -0.16258 0.27382
-0.01583 -0.03570 0.01969
-0.01740 -0.09564 0.07636
-0.03341 0.00809 -0.00898
0.05141 -0.11059 0.09777
-0.08093 0.02721 0.08707
0.04206 -0.02967 0.02693
0.04388 -0.09281 0.07586
0.01753 -0.07424 0.05613
-0.02624 -0.16633 0.12405
-0.04581 0.07408 -0.07158
0.00887 0.11298 -0.07657
0.01594 -0.09420 0.07272
-0.05725 0.03415 -0.03544
-0.05048 0.09143 -0.07932
-0.02784 -0.06901 0.04380
-0.07424 0.03278 -0.00705
-0.02577 0.07689 -0.07676
0.02507 0.05634 -0.04793
0.00374 -0.05379 0.03401
-0.10034 0.01075 0.16534
-0.04902 -0.09631 0.07482
-0.04214 0.08126 -0.07133
0.02465 0.03199 -0.02833
-0.01066 0.03294 -0.04819
0.01946 0.08340 -0.07567
-0.00232 -0.14147 0.15015
0.01116 0.06044 -0.06016
0.04588 -0.00562 0.00393
-0.07206 0.07442 -0.05652
-0.06189 0.03907 -0.03667
-0.05682 -0.04384 0.02535
0.02194 -0.07422 0.05228
0.00451 0.10933 -0.07196
0.04764 -0.05926 0.04393
-0.00253 -0.05194 0.03225
0.02493 0.08979 -0.08379
0.02412 -0.10673 0.07914
-0.03355 0.02632 -0.02704
-0.06843 0.00404 -0.00273
0.05871 -0.05518 0.04124
-0.03045 -0.14563 0.10802
0.00267 -0.05549 0.03291
-0.05619 -0.03535 0.01885
0.02334 0.03190 -0.02711
-0.02357 -0.17799 0.12928
0.02481 -0.16633 0.12798
-0.04499 -0.02043 0.01313
-0.00804 0.00792 -0.02036
-0.05794 -0.14439 0.10818
-0.06414 0.07784 -0.05855
0.00312 -0.05768 0.03204
0.04297 0.08701 -0.07347
-0.01023 -0.06110 0.05468
0.02717 0.06497 -0.05271
-0.00469 -0.02753 0.00751
-0.01211 0.03053 -0.02896
-0.01508 -0.04980 0.04534
0.05767 -0.14111 0.11104
0.00144 0.00068 -0.00711
-0.00577 -0.02587 0.00741
0.06337 -0.03238 0.02916
-0.06024 -0.08077 0.06711
0.02888 -0.02109 -0.02418
0.06471 -0.01232 0.02062
0.06500 -0.02889 0.02622
-0.02834 -0.04874 0.02822
0.03484 -0.16419 0.12726
-0.03273 -0.10432 0.07399
0.03828 -0.07395 0.05747
0.05333 -0.06567 0.04894
-0.05512 -0.07069 0.04593
-0.05215 -0.12504 0.09635
0.04838 -0.06445 0.04862
0.01459 -0.05980 0.05380
-0.04419 0.10581 -0.07752
0.01780 0.12342 -0.08901
0.07820 0.00667 0.01809
-0.02096 0.12324 -0.09107
-0.03698 0.11612 -0.09279
-0.01432 -0.17705 0.15440
-0.02320 0.12079 -0.08904
0.13015 0.05187 0.08376
-0.02737 -0.11210 0.08798
-0.02672 -0.11029 0.08490
-0.06666 -0.03977 0.02562
0.13130 0.04356 0.09158
-0.03885 0.08522 -0.07510
-0.00550 0.12155 -0.08028
-0.06484 0.07778 -0.05784
-0.05121 0.07763 -0.08169
0.04421 0.12060 -0.08802
0.04528 0.12384 -0.09198
0.05167 0.09993 -0.08496
-0.03598 0.07638 -0.08774
0.04393 0.10999 -0.08167
-0.00138 0.04279 -0.04590
-0.07566 0.06743 -0.05178
-0.00272 -0.00335 -0.00190
-0.06693 0.06340 -0.04723
0.12784 0.08781 0.03444
0.01924 0.12218 -0.09134
-0.00727 0.10952 -0.07345
-0.05244 0.11291 -0.09137
-0.03253 0.11055 -0.09210
0.01217 -0.03145 0.02778
0.03625 0.08185 -0.07796
0.01024 0.10212 -0.07879
-0.06662 0.06355 -0.06725
-0.01138 0.10497 -0.07063
-0.06150 0.05541 -0.04673
0.03861 0.11535 -0.08688
0.05439 0.04691 -0.03915
0.05534 0.04627 -0.03646
0.04301 -0.07867 0.06954
0.07386 0.01136 -0.01091
-0.02805 -0.00478 -0.00025
-0.04995 0.05933 -0.05650
-0.02778 0.10956 -0.09152
-0.00449 0.12072 -0.08262
0.07461 0.04971 -0.00901
0.03832 0.11007 -0.08049
-0.00339 0.12259 -0.08457
-0.02476 0.11506 -0.09098
0.12146 0.08839 0.02356
-0.01364 -0.22338 0.21625
-0.03164 0.03060 -0.03024
-0.06390 -0.07053 0.05126
-0.02523 0.11849 -0.09067
-0.02523 0.11849 -0.09067
0.03457 0.10693 -0.08360
0.02260 0.06822 -0.04775
0.01653 0.12425 -0.08885
0.05880 0.07924 -0.05343
0.01045 0.11294 -0.07701
0.00437 -0.20104 0.19781
0.06053 0.08445 -0.05390
-0.03218 0.02835 -0.02723
0.06125 0.07809 -0.05967
-0.04302 -0.05205 0.04287
-0.00134 0.11823 -0.08482
-0.05803 -0.08136 0.05409
0.02757 -0.08324 0.07028
-0.00617 0.05621 -0.05027
0.03624 0.08403 -0.07284
0.02191 -0.17115 0.13210
0.03106 -0.04451 0.02845
0.01768 0.12220 -0.08737
0.01768 0.12220 -0.08737
0.03711 0.09834 -0.07867
-0.03309 0.05077 -0.04300
0.03522 -0.10495 0.08639
0.01121 0.10059 -0.07548
0.01104 0.09962 -0.07445
0.04008 0.07647 -0.07002
0.03880 0.07677 -0.07300
0.06429 -0.01987 0.02058
-0.02087 0.11979 -0.08782
0.00130 -0.04841 0.03353
0.03090 0.05041 -0.03906
-0.00434 0.11182 -0.07348
-0.06278 0.11033 -0.09652
0.00370 0.10907 -0.07278
0.04627 0.12059 -0.09067
0.05094 0.10083 -0.08545
-0.00295 0.12000 -0.08354
-0.05098 0.03145 -0.02724
0.01296 0.09125 -0.07377
-0.05999 -0.06984 0.04607
-0.06511 0.06187 -0.06635
-0.04348 0.08302 -0.07402
-0.02600 0.05234 -0.04232
-0.03809 -0.07281 0.05440
-0.05361 0.01049 -0.01381
-0.02694 0.10654 -0.08915
0.04581 -0.03739 0.02519
-0.03686 0.06755 -0.05107
0.05581 0.05713 -0.04360
0.01632 -0.06165 0.04708
0.03345 0.11202 -0.09074
0.13133 0.05164 0.08360
-0.01592 0.09843 -0.07683
0.00479 0.11043 -0.07269
0.00213 0.08770 -0.05980
0.11482 0.05424 0.06292
0.05107 0.11809 -0.09036
0.05093 0.11787 -0.09079
0.01386 0.10779 -0.07863
0.01827 0.10447 -0.08416
-0.02630 0.03413 -0.03123
-0.02586 0.04613 -0.03634
0.01942 0.12279 -0.09492
0.01054 0.05701 -0.05812
-0.02736 0.08905 -0.08522
0.01904 -0.07100 0.05165
0.01595 0.06786 -0.06464
-0.00320 0.12167 -0.08709
0.05233 0.07158 -0.06046
-0.03786 -0.08657 0.07100
0.03886 0.09915 -0.07986
-0.04730 0.07227 -0.07069
-0.04662 0.07255 -0.07204
-0.03465 0.01945 -0.01888
0.00573 0.07720 -0.16894
0.02367 0.00664 -0.00572
0.05451 0.04077 -0.03546
0.02667 0.10156 -0.08843
-0.02455 0.05888 -0.04455
0.00507 -0.03074 0.00982
0.04009 0.01593 -0.00033
-0.00351 0.01697 -0.05033
-0.06214 0.11013 -0.09635
0.00055 -0.04458 0.02668
0.13742 0.08076 0.06012
-0.00758 -0.17573 0.15766
-0.05786 0.05820 -0.05219
-0.00293 0.12380 -0.08862
-0.02258 0.12152 -0.08957
0.03713 0.11319 -0.08594
0.02495 0.11211 -0.09076
0.04637 0.12520 -0.09053
0.04607 0.12470 -0.09139
0.02185 -0.06976 0.04837
-0.00973 0.03584 -0.04426
-0.03778 0.08872 -0.07805
-0.03876 0.09548 -0.08219
0.01198 0.05603 -0.05608
0.01763 0.11953 -0.08686
0.01738 0.11905 -0.08809
-0.04154 0.08183 -0.07303
0.04194 0.08789 -0.06940
-0.04179 0.04382 -0.04564
0.01717 0.08581 -0.07449
0.13668 0.08553 0.06044
-0.00173 0.11749 -0.08346
-0.00120 0.08645 -0.05537
0.03089 0.05250 -0.04050
0.00010 0.12385 -0.08449
0.12857 0.08826 0.03345
0.02229 0.11257 -0.08979
0.02190 0.09511 -0.08130
0.01892 0.09839 -0.09759
0.02106 0.09985 -0.08627
-0.01542 0.08798 -0.08121
-0.01962 0.10353 -0.08829
0.01387 0.10031 -0.07744
0.02056 0.12226 -0.09550
0.01498 0.10772 -0.07766
0.00532 0.11892 -0.08255
0.00958 0.08364 -0.06667
0.03488 0.05021 -0.04727
0.04381 -0.00792 0.00784
-0.05196 0.03983 -0.03873
-0.05771 0.05419 -0.04865
-0.05088 0.07992 -0.07550
-0.05005 -0.05691 0.03678
-0.02568 0.04102 -0.03522
-0.00809 -0.01504 0.00735
0.04284 0.05813 -0.05502
-0.00990 0.10583 -0.07168
0.04043 0.08293 -0.06932
-0.05002 -0.04181 0.02558
0.00803 0.11084 -0.07532
-0.05008 -0.03187 0.01902
-0.05592 0.05307 -0.04788
-0.05440 -0.02698 0.01236
0.01923 0.07307 -0.06849
-0.00139 0.05534 -0.05135
0.06015 -0.06810 0.05336
0.05246 -0.03731 0.02515
0.04098 -0.02274 0.02042
-0.00759 0.05697 -0.05294
0.03173 0.07930 -0.07859
-0.03699 0.07219 -0.06730
-0.05805 0.04612 -0.04553
0.01685 -0.06929 0.05203
-0.03353 0.08907 -0.08611
-0.07150 0.08977 -0.07186
-0.03194 0.07425 -0.07906
-0.06984 0.10015 -0.08535
0.12004 0.09204 0.02909
0.01951 0.06219 -0.13673
0.01969 0.10902 -0.08417
-0.02485 0.06035 -0.04623
-0.06644 0.06384 0.05942
0.00259 0.07726 -0.16993
0.04178 -0.07867 0.06255
0.12929 0.05156 0.08181
-0.12404 0.01296 0.10246
-0.02707 -0.15355 0.11502
0.16449 0.03186 0.14565
0.16749 -0.07747 0.20948
0.16735 -0.07762 0.20984
0.13543 -0.09484 0.23942
0.13543 -0.09484 0.23942
0.06325 -0.02431 0.02048
0.06295 -0.04498 0.03799
0.00522 -0.18077 0.16655
0.02001 0.00847 -0.00650
0.02001 0.00847 -0.00650
0.01357 -0.18648 0.16985
-0.06526 -0.03494 0.02036
-0.11426 0.02747 0.08917
-0.00713 -0.03254 0.01804
-0.00193 -0.08758 0.06460
0.06259 -0.03690 0.02894
0.12687 0.06198 0.07604
0.17155 -0.10610 0.23300
0.17162 -0.10628 0.23351
0.03482 0.00855 -0.00566
0.13971 -0.09061 0.24413
0.16643 0.02720 0.13950
0.18539 -0.08690 0.21926
0.17379 -0.08522 0.21847
-0.00398 -0.16223 0.18474
0.06196 -0.05733 0.04700
0.06446 0.00109 -0.01357
-0.00415 -0.16250 0.17827
0.01617 -0.01665 0.03987
-0.12248 0.00836 0.10115
0.01026 -0.02312 0.02893
0.19628 -0.08417 0.21027
-0.06832 -0.03740 0.02465
0.06256 -0.05956 0.04915
0.02026 0.00448 -0.00281
0.02791 -0.00402 0.00062
-0.03756 -0.09001 0.07166
0.00303 -0.02476 0.00250
0.17212 -0.08931 0.24370
0.06125 -0.00277 0.00063
0.15299 0.02935 0.14273
0.01951 -0.12425 0.15433
-0.06733 -0.03867 0.02763
0.04872 -0.12832 0.10084
0.00600 -0.02694 0.00563
0.06201 -0.05692 0.04561
0.18164 -0.08626 0.21641
0.05993 -0.00263 0.00159
-0.01711 -0.09075 0.08002
0.17729 -0.08697 0.21818
-0.02386 -0.14728 0.11052
0.18311 -0.08720 0.21437
-0.07005 -0.01678 0.01096
-0.09471 -0.11177 0.10577
0.17293 -0.10510 0.22998
0.17428 -0.10680 0.23470
0.06470 -0.13862 0.12133
0.03465 -0.01509 0.00957
0.00316 -0.04466 0.02456
0.17175 -0.07442 0.21392
0.03356 0.00837 -0.00642
-0.02354 -0.14030 0.10574
0.17501 -0.08794 0.22065
-0.02928 -0.13715 0.09637
0.00169 -0.03977 0.01822
0.02463 -0.15148 0.11326
-0.03179 -0.13312 0.10027
0.00279 -0.04182 0.02083
0.01981 -0.01307 0.00960
0.16879 -0.09314 0.22349
0.03432 -0.14099 0.11415
-0.01070 0.04410 -0.04943
0.11069 0.04146 0.07214
-0.03551 -0.09751 0.07112
-0.05652 -0.12017 0.08748
0.19692 -0.08640 0.21158
-0.00490 -0.09432 0.11889
0.01971 -0.19297 0.17912
0.17201 -0.07393 0.20981
0.06428 0.00606 -0.01816
-0.00363 -0.04099 0.02177
0.17107 -0.04313 0.19003
0.17098 -0.04346 0.19093
0.03631 -0.00837 0.00860
0.01722 -0.09214 0.07648
0.02137 0.00960 -0.00875
0.00010 -0.11636 0.10748
0.17253 -0.03300 0.17963
-0.00336 -0.02178 0.00028
0.17886 -0.09837 0.26409
-0.00581 -0.09227 0.07662
0.14430 -0.08948 0.23843
-0.01857 0.02131 -0.09023
0.17696 -0.08167 0.21534
-0.03196 -0.17736 0.12823
-0.02254 -0.15477 0.12373
0.15107 -0.10196 0.24066
0.01999 -0.11665 0.11820
0.17535 -0.09321 0.23143
0.03951 0.10993 -0.07895
0.17157 -0.06176 0.19789
0.16805 -0.06207 0.20664
-0.07744 0.03335 -0.03791
-0.05775 -0.11027 0.08416
-0.00013 -0.12025 0.08752
0.17177 -0.10294 0.22889
-0.04413 0.10551 -0.07847
0.17284 -0.05460 0.19430
-0.03154 -0.15459 0.11564
0.01958 -0.00448 0.00448
0.16860 -0.03355 0.18840
0.16860 -0.03355 0.18840
-0.04997 -0.12662 0.09982
-0.00493 -0.16119 0.14711
0.17028 -0.04334 0.19480
-0.05691 -0.13991 0.10307
-0.00060 -0.13389 0.13950
0.06569 0.07669 -0.04416
-0.04470 0.12267 -0.08735
-0.00209 -0.10458 0.11659
-0.00209 -0.10458 0.11659
0.16304 -0.09539 0.22283
0.05161 0.03767 -0.02950
-0.04931 -0.10044 0.07470
0.17071 -0.04411 0.18604
0.17071 -0.04411 0.18604
0.00755 0.00740 -0.02136
0.17135 -0.05822 0.19652
-0.05490 -0.08907 0.06079
0.00131 0.05731 -0.05672
0.16652 -0.05834 0.20473
-0.00078 -0.12309 0.11249
-0.00393 -0.16362 0.16192
0.16547 -0.08996 0.22902
-0.04337 0.10150 -0.07575
-0.05763 -0.08145 0.05382
0.16967 -0.05168 0.19541
0.02988 0.00875 -0.00997
0.00036 -0.09051 0.11146
-0.06242 -0.03221 0.01844
0.03893 0.12900 -0.07738
-0.04651 0.08312 -0.07503
0.16144 -0.07206 0.20091
0.03700 -0.01055 0.00900
0.01599 0.09757 -0.07446
-0.04155 0.08379 -0.07361
-0.04159 0.08383 -0.07353
-0.00012 -0.10453 0.08769
0.03069 -0.08559 0.07672
-0.01984 0.06767 -0.06303
0.16703 -0.07658 0.21082
-0.00168 -0.06015 0.03717
-0.00171 0.08297 -0.05431
-0.06096 0.04239 -0.03926
0.15103 -0.08003 0.17835
-0.00074 -0.00776 -0.02257
0.00055 -0.06224 0.02385
0.16664 -0.09021 0.21978
-0.02170 -0.05047 0.03193
-0.02965 -0.10833 0.07450
-0.02765 -0.07409 0.04819
0.16893 -0.04005 0.19321
0.06296 0.06438 -0.03950
0.02427 -0.01724 0.00880
-0.04651 0.08412 -0.07307
0.03894 0.09695 -0.07733
0.05838 -0.02850 0.01611
0.08829 0.01720 0.04330
-0.04755 -0.03611 0.02343
0.04982 -0.03946 0.02725
0.05989 0.03257 -0.02358
0.02635 -0.09381 0.06576
-0.00206 -0.03507 0.01145
-0.02486 -0.05760 0.03672
-0.06948 0.04923 -0.07972
-0.02362 -0.03513 0.01993
0.01280 -0.20159 0.19458
-0.07040 0.07369 -0.06233
-0.03143 -0.03337 0.01943
-0.01040 0.02472 -0.03085
0.04317 0.05472 -0.05007
-0.03249 -0.08334 0.05439
0.03960 0.12212 -0.08861
0.05812 -0.04440 0.02907
0.06304 0.06675 -0.04033
-0.00108 -0.06791 -0.06240
-0.04611 -0.04217 0.03198
-0.06130 -0.04552 0.02734
0.10117 0.01917 0.07142
-0.05333 0.00969 -0.01394
-0.03225 0.08757 -0.08514
-0.00211 0.07932 -0.05313
-0.05016 -0.03651 0.02130
-0.04864 -0.14785 0.11321
-0.00251 -0.04924 0.02981
-0.00404 -0.05075 0.03141
-0.06048 -0.14926 0.10930
-0.05605 -0.03521 0.01871
0.04815 -0.12431 0.10307
-0.03572 -0.02602 0.01343
-0.01541 0.02640 -0.01809
-0.05259 -0.04685 0.02790
0.02713 -0.04807 0.03093
-0.02070 0.06812 -0.06620
-0.03932 0.08484 -0.07442
-0.07519 0.08732 -0.06855
-0.06277 -0.02180 0.00961
0.05614 -0.12242 0.09539
-0.02327 0.06583 -0.05723
-0.06040 -0.03799 0.02121
-0.01713 0.02818 -0.01963
-0.02785 -0.05422 0.03284
0.00177 -0.08513 0.05964
0.02476 -0.15806 0.12061
-0.00900 0.10822 -0.07334
0.00093 0.11986 -0.08259
-0.05336 -0.00128 -0.00529
-0.03582 0.06191 -0.05479
0.05585 -0.11399 0.08951
-0.04872 -0.08216 0.06191
-0.04319 -0.03571 0.03488
-0.03968 -0.07717 0.05969
-0.01156 -0.01427 0.02826
-0.12404 0.01296 0.10246
-0.06705 -0.06134 0.04866
0.00447 0.12583 -0.07764
-0.03449 -0.04557 0.02802
0.01926 0.00812 -0.00671
-0.00053 0.00612 -0.02932
-0.02161 0.07031 -0.06849
0.05491 -0.02289 0.01382
0.00219 -0.17721 0.17011
0.04819 -0.02504 0.01661
-0.02068 -0.17216 0.13101
0.02557 -0.03138 0.01835
-0.04872 -0.14922 0.11139
-0.01282 -0.01753 0.02570
0.01387 -0.03109 0.02781
-0.05099 -0.12576 0.09399
0.00798 0.05211 -0.05377
0.00336 -0.02502 0.00323
-0.05017 -0.11397 0.06380
-0.06292 0.10643 -0.09367
-0.05497 -0.11509 0.08523
0.00250 -0.04044 0.02309
-0.05441 0.01647 -0.00874
0.00528 -0.02727 0.00834
-0.00219 0.08415 -0.05724
-0.01014 0.10450 -0.07044
-0.01014 0.10450 -0.07044
0.01511 0.05568 -0.04897
0.01511 0.05568 -0.04897
-0.00482 -0.02684 0.00625
0.01381 0.09701 -0.08152
0.00282 0.03240 -0.04188
0.00322 0.05850 -0.05099
-0.02297 0.02156 -0.01735
0.01259 0.04165 -0.10699
0.02625 0.05112 -0.04478
0.02142 -0.04962 0.03374
0.00679 0.02046 -0.03053
0.00402 0.04475 -0.04870
-0.03851 0.01400 -0.01137
-0.00746 0.09487 -0.05968
0.05273 -0.06235 0.04514
-0.05409 0.04068 -0.03808
-0.00728 0.02895 -0.04013
0.04912 -0.06967 0.04418
0.04561 -0.02758 0.01822
-0.02632 0.00051 -0.00408
0.00062 -0.04133 -0.00856
-0.02647 0.02613 -0.02804
-0.06174 -0.15952 0.12507
-0.00496 0.00029 -0.01554
-0.00851 0.08788 -0.05834
-0.01468 0.02445 -0.01452
0.03063 -0.11644 0.10038
0.05662 -0.04037 0.02657
0.04686 -0.12983 0.09702
-0.00677 -0.00952 -0.00043
-0.00240 0.03774 -0.03676
-0.03387 0.01059 -0.01217
0.04820 -0.02510 0.01664
0.03247 -0.16794 0.12363
-0.00854 -0.14192 0.11485
-0.00859 0.03770 -0.04525
-0.01274 -0.03310 0.01565
0.00162 0.04192 -0.04665
-0.00092 0.04041 -0.04602
0.01889 0.00952 -0.06733
0.01804 -0.10253 0.08002
-0.05249 -0.10592 0.07484
0.03062 -0.13973 0.11028
-0.04201 -0.18894 0.14959
-0.01027 -0.17195 0.16255
-0.00988 0.04502 -0.05025
-0.00355 -0.04060 0.02123
0.02011 -0.11148 0.09057
0.00221 0.04494 -0.04894
-0.05695 0.00667 -0.00828
-0.05241 -0.12018 0.08808
-0.00635 0.05957 -0.05260
-0.02258 -0.16775 0.12759
0.00266 0.04390 -0.04849
-0.00767 0.05661 -0.05281
-0.01561 0.05327 -0.04649
-0.00151 0.04079 -0.04575
-0.01832 0.06451 -0.06377
-0.04220 0.08222 -0.07200
-0.00546 0.01593 -0.03309
0.03051 -0.16849 0.12105
0.03824 -0.07393 0.05856
-0.04027 -0.03025 -0.00699
-0.02181 -0.03491 0.02059
0.02953 -0.00518 0.00729
-0.01264 0.05612 -0.05723
-0.03935 0.07766 -0.07376
-0.01618 0.06840 -0.06510
-0.03494 0.01320 -0.01343
0.04695 -0.00507 0.01720
-0.05093 0.00009 -0.00386
-0.03267 0.01210 -0.01345
-0.04569 0.06044 -0.06263
-0.03173 0.02591 -0.02832
-0.04312 -0.18927 0.14704
-0.01643 0.06338 -0.06295
-0.01496 0.06114 -0.06064
0.05119 -0.02013 0.01332
-0.06152 -0.01919 0.00787
-0.02984 0.03143 -0.03256
-0.01075 0.03097 -0.03027
-0.02609 -0.03445 0.01872
-0.02834 0.02710 -0.03105
-0.03098 0.04806 -0.04325
-0.03973 0.07780 -0.07374
-0.02566 0.07703 -0.07047
-0.00316 0.05193 -0.05268
-0.00268 0.02984 -0.04005
-0.05972 -0.03138 0.01548
-0.05768 0.04996 -0.04852
-0.00061 0.05705 -0.05648
0.01849 -0.05532 0.03966
-0.02753 0.05532 -0.04768
-0.01340 0.05661 -0.05857
0.00124 0.05945 -0.05862
0.04963 -0.01369 0.02949
-0.02676 -0.17285 0.12859
-0.00813 0.04548 -0.04880
0.01858 0.01701 -0.01205
-0.04222 0.05771 -0.05934
-0.04576 0.07267 -0.07185
0.02740 -0.14805 0.11211
0.02483 -0.05438 0.03530
-0.00848 0.03483 -0.04310
0.02083 -0.03642 0.02361
-0.03480 -0.03255 0.01790
0.00306 -0.01194 -0.00037
0.02728 0.01395 -0.01344
-0.02950 -0.02394 0.01047
0.04001 0.05433 -0.04689
-0.01076 -0.03408 0.06696
0.05197 -0.09978 0.07497
0.02761 -0.03771 0.02369
-0.00067 0.05496 -0.05386
-0.00675 0.05769 -0.05218
0.00228 0.04502 -0.04906
0.05184 -0.07706 0.06729
-0.05081 -0.13075 0.09871
0.01765 0.07221 -0.08272
-0.06368 0.10761 -0.09158
-0.01069 0.01444 -0.02457
-0.03275 0.08402 -0.08196
-0.00546 -0.01839 0.02746
-0.01279 0.05246 -0.04859
-0.04487 0.04960 -0.05232
-0.01356 0.05347 -0.05467
-0.01311 0.05180 -0.05305
-0.07053 0.02349 0.05599
