# .PCD v.7 - Point Cloud Data file format
VERSION .7
FIELDS x y z
SIZE 4 4 4
TYPE F F F
COUNT 1 1 1
WIDTH 1874
HEIGHT 1
VIEWPOINT 0 0 0 1 0 0 0
POINTS 1874
DATA ascii
0.00522 0.00717 -0.08223
0.02225 0.00889 0.01754
0.03376 -0.00016 -0.14734
-0.00279 0.00923 -0.07939
0.02145 0.00641 -0.06764
-0.02938 0.00220 0.00886
0.01994 0.00482 0.01576
0.03824 -0.00088 0.01554
-0.03016 -0.00417 0.01063
0.01145 0.00510 -0.08513
0.03377 -0.00016 -0.14733
-0.02349 -0.00005 0.01143
0.02332 0.00485 0.01633
-0.02402 -0.00819 0.01384
-0.01928 -0.00486 0.01425
0.04445 -0.00028 0.00958
0.04550 -0.00648 0.00740
-0.01481 -0.01048 0.01225
0.01057 -0.00212 -0.09427
-0.01845 -0.01079 0.00973
0.02737 -0.00090 -0.00373
0.01860 -0.00789 0.01508
0.01825 -0.01142 0.01454
-0.01698 -0.01861 0.01540
-0.02317 -0.00748 0.01343
0.01825 0.01588 -0.03314
0.00856 -0.00571 -0.10017
-0.01517 -0.01882 0.01588
0.00740 0.00169 0.01955
-0.04991 -0.01949 0.01826
0.00905 -0.00541 -0.10304
-0.04821 -0.01893 0.01754
0.02734 0.00668 0.01663
0.03359 -0.00016 -0.14742
-0.04245 0.00262 0.00607
-0.04505 -0.00757 0.01365
-0.04526 -0.00923 0.01683
-0.05105 -0.01419 0.01564
-0.04173 -0.00187 0.00940
-0.03722 -0.00548 0.01144
-0.04447 -0.00131 0.01031
-0.04287 -0.00158 0.00822
-0.04438 -0.00187 0.01030
-0.05398 -0.01484 0.01511
-0.04633 -0.01009 0.01623
-0.04810 -0.01558 0.02895
-0.04974 -0.01068 0.01083
-0.04309 -0.00456 0.00818
-0.04435 -0.00085 0.00790
-0.04592 -0.00864 0.01244
-0.04589 -0.00875 0.01276
-0.00228 0.01045 -0.05878
-0.04303 -0.00114 0.00957
-0.00952 -0.00037 -0.14744
-0.01591 -0.01803 0.01564
0.01564 -0.01810 0.01696
0.03379 -0.00029 -0.14626
-0.02762 0.00861 -0.03629
-0.00798 0.01310 0.01175
-0.04786 -0.01938 0.01845
-0.00099 0.00380 -0.11718
-0.01801 -0.01067 0.01284
0.01784 0.01613 0.01872
0.01522 0.01085 -0.07605
-0.02635 0.00978 -0.03389
-0.03089 -0.00578 0.01895
0.01564 -0.01809 0.01672
-0.02486 -0.00002 0.01068
-0.05930 -0.01752 0.01696
0.01381 -0.00408 0.00565
0.00869 -0.00551 -0.10214
-0.06159 -0.01724 0.01613
-0.06146 -0.01719 0.01576
-0.04808 -0.01748 0.01600
-0.05978 -0.01144 0.01247
0.00801 -0.00583 -0.09914
-0.03238 -0.00850 0.01316
0.00890 -0.00562 -0.09922
-0.00628 0.01747 0.01944
0.03157 -0.00507 -0.05720
-0.00951 -0.00036 -0.14737
-0.02746 -0.00519 -0.00537
0.01536 0.00738 -0.05712
-0.01287 -0.01325 0.02247
-0.02839 -0.00014 0.01011
-0.06810 0.01921 0.10531
-0.06114 -0.01802 0.01677
0.01796 0.00179 -0.08715
-0.05799 -0.00991 0.00962
0.00519 -0.01350 0.00671
0.00199 0.00685 -0.08213
-0.01719 -0.01652 0.01475
-0.05948 -0.01931 0.01761
-0.05659 -0.01946 0.01757
-0.04054 -0.00849 0.01309
-0.04055 0.02683 0.08241
0.02853 -0.00830 0.01443
-0.02295 -0.00430 0.01145
0.03164 -0.00403 -0.05671
-0.02378 -0.00543 0.01245
-0.05687 -0.00110 0.00570
0.01578 0.00429 -0.07965
-0.00316 0.01148 -0.01609
-0.00951 -0.00037 -0.14738
-0.00114 0.00843 -0.02725
-0.05654 0.01176 0.00312
-0.03824 0.00084 0.01105
0.03344 0.01874 0.01811
0.00852 0.00210 -0.10350
-0.04780 0.01345 0.00247
0.01362 -0.01328 0.01449
-0.02631 0.01682 0.00839
0.02011 0.02557 0.05093
-0.00290 0.01217 -0.03533
-0.03925 -0.00128 0.01040
-0.05647 0.00634 0.00843
0.00502 0.00500 -0.07761
0.01471 -0.01267 0.01440
-0.04556 -0.00750 0.01777
0.01393 0.00414 -0.09653
0.00473 0.00558 -0.07758
-0.04357 -0.00754 0.01673
0.03366 -0.00012 -0.14783
0.02380 0.00657 -0.06000
0.00968 0.02474 0.05056
0.03166 0.01083 -0.06441
-0.00275 0.00374 -0.11946
-0.00482 0.02550 0.09220
0.03381 -0.00011 -0.14633
0.03299 0.00579 -0.01798
-0.04004 0.00372 0.01278
0.04185 0.00128 0.01034
-0.05229 -0.00047 0.00695
0.02739 0.00741 0.01530
-0.00158 0.01104 -0.03045
0.01089 -0.01831 0.04225
-0.04948 0.01451 0.00083
0.03101 0.00959 -0.03286
0.00384 0.01392 0.00315
-0.05012 -0.00764 0.00777
0.01523 -0.01304 0.01703
0.02703 0.00680 0.01522
-0.00651 0.01282 -0.02763
-0.00797 0.01653 0.03949
0.03380 0.00004 -0.14633
-0.02368 0.01425 -0.01260
0.02220 -0.00528 0.01518
0.03667 0.00065 0.01551
-0.02268 0.00685 -0.02233
0.00639 -0.01046 0.02101
0.00503 -0.01028 0.01429
-0.01026 0.00021 -0.14294
-0.03266 0.01314 -0.01062
0.02484 0.00730 -0.05825
-0.05612 0.00137 0.01294
-0.05177 -0.00577 0.00633
-0.01128 0.01431 -0.01809
0.00712 0.00191 -0.07694
-0.04915 -0.00901 0.00940
-0.05315 0.03698 0.28570
-0.05720 -0.01495 0.01570
-0.02276 0.00745 -0.05056
-0.00609 0.01420 -0.02078
-0.05182 0.01450 0.00189
0.01287 -0.00979 0.02395
-0.02972 0.00226 0.01051
-0.00897 0.01435 0.00358
0.02389 0.00325 -0.01819
0.04486 0.01487 0.00759
-0.06267 0.00087 0.05322
0.03103 0.01155 -0.03275
-0.02859 0.00434 0.00944
0.00923 0.00156 -0.08463
0.00509 0.00991 -0.05333
0.01963 0.01205 0.01372
-0.05373 -0.01196 0.01539
-0.05196 -0.00652 0.00766
0.00836 -0.01302 0.01661
-0.03407 0.04016 0.16113
-0.05612 -0.00232 0.01197
-0.05580 -0.00221 0.01138
-0.04343 -0.00549 0.00819
-0.02244 0.01536 0.00690
0.00240 0.01162 -0.03965
0.02439 0.00098 0.01506
0.02416 0.00113 0.01408
0.02901 0.00235 -0.01906
0.03280 -0.00015 -0.14623
-0.06056 -0.01508 0.01570
-0.02829 0.00128 -0.02158
0.02903 -0.00353 -0.00194
0.00463 0.00034 -0.05350
-0.00735 0.00299 -0.10989
-0.04267 -0.01137 0.01496
-0.04413 -0.01221 0.01844
-0.00864 -0.00851 0.00087
-0.04186 0.01088 0.00442
-0.04807 0.01409 0.00243
0.00378 -0.01285 0.00067
0.00820 0.00101 -0.08051
0.01540 -0.00924 0.01350
0.03403 0.00431 0.01515
-0.04624 -0.00572 0.00915
-0.04927 0.00015 0.00689
-0.05376 -0.01294 0.01096
-0.01979 0.00942 -0.03268
-0.00348 0.00482 -0.10784
-0.00850 0.01540 -0.00195
-0.05430 0.00979 0.00245
-0.04111 -0.00414 0.01059
-0.01238 0.00105 -0.13097
-0.01049 0.00001 -0.13887
-0.00895 -0.00006 -0.14460
0.00990 0.00039 -0.01319
-0.01021 0.00058 -0.14029
-0.00796 0.01712 0.00680
-0.00984 -0.00038 -0.14772
0.00354 0.01425 -0.01834
-0.04811 0.01583 0.00155
-0.05617 -0.01645 0.01500
-0.05476 -0.01676 0.01805
-0.01372 -0.00552 0.00648
-0.05432 -0.01088 0.01283
-0.05041 -0.01020 0.00565
0.00027 -0.00057 -0.02691
0.03246 0.00684 0.01392
0.05454 -0.00664 0.01607
0.06159 0.01914 0.00729
0.03375 -0.00013 -0.14622
-0.05021 -0.01652 0.01515
0.03932 0.01661 -0.00742
-0.05021 -0.00989 0.00488
-0.05124 -0.01303 0.01171
-0.02175 0.00094 -0.04970
0.00816 -0.00185 -0.10288
-0.05742 -0.01503 0.01602
-0.05398 -0.01637 0.01501
-0.01853 -0.01144 0.01205
-0.06024 -0.01264 0.01460
-0.06220 -0.02047 0.02891
-0.05599 -0.02047 0.02821
0.02810 0.00085 -0.00463
-0.02477 0.01251 0.00832
0.04848 0.01110 0.01517
0.03336 -0.00008 -0.14738
0.03564 -0.00223 0.01533
0.04456 0.00441 0.01607
0.03814 -0.00045 0.01511
0.04705 -0.00442 0.01554
-0.03027 -0.00453 0.02594
-0.05583 -0.01142 0.00595
-0.04418 0.01451 0.00154
-0.05264 -0.01876 0.01719
0.00905 0.00216 -0.10362
0.02494 -0.00726 0.01511
-0.01449 -0.00622 0.00274
0.01834 -0.00844 0.01559
0.01422 -0.01793 0.01556
-0.02407 -0.00845 0.01323
-0.04453 0.00236 0.03083
0.03373 0.00002 -0.14657
0.05423 0.00802 0.01498
-0.01975 -0.00753 0.01640
-0.01994 -0.00250 -0.09850
0.03025 -0.00679 0.01482
0.03264 -0.00072 0.04037
0.00816 -0.00544 0.00453
0.05475 0.01106 0.01484
-0.00952 -0.00037 -0.14744
0.01184 0.00412 -0.09943
0.00798 0.01453 0.01047
-0.03212 -0.00804 -0.00540
0.01547 -0.01982 0.01559
0.06142 -0.01723 0.01985
0.01420 -0.01799 0.01600
0.03368 -0.00572 -0.00627
-0.06017 -0.01873 0.01729
0.04974 -0.01511 0.03068
-0.04547 -0.01771 0.01420
-0.01785 -0.00657 -0.00435
-0.00952 -0.00037 -0.14744
-0.04673 -0.01821 0.01677
0.03457 -0.00789 0.01392
-0.04531 -0.01740 0.01624
-0.05575 -0.01848 0.01743
0.03378 -0.00023 -0.14732
0.00670 -0.00551 -0.10077
-0.05883 -0.01961 0.01905
0.00027 -0.01534 -0.01607
0.03376 -0.00019 -0.14827
-0.06050 -0.02116 0.02886
0.01447 0.01628 0.00521
-0.00951 -0.00037 -0.14741
0.01677 -0.01503 0.01455
0.00761 -0.01709 0.02137
-0.02177 0.00939 -0.03482
-0.02375 -0.00842 0.01379
0.02155 -0.00728 -0.01879
-0.00978 -0.00036 -0.14577
-0.00425 0.01417 0.00775
0.04019 -0.00578 0.02070
-0.02199 0.01103 -0.03027
-0.02886 0.00895 -0.03455
-0.03061 0.01118 -0.02728
-0.02122 0.00617 -0.03350
-0.02937 0.00717 -0.03372
-0.05379 -0.01259 0.01615
0.02868 0.00940 -0.01648
0.03256 0.01729 0.02963
0.00415 0.00251 -0.08734
-0.01019 0.01331 -0.01796
-0.00705 0.01350 0.00150
0.04057 -0.00693 0.00934
-0.01833 0.00854 -0.04876
0.03377 -0.00019 -0.14834
-0.04458 -0.00671 0.01452
-0.05850 -0.01320 0.11125
0.00811 -0.01217 0.00224
-0.03479 0.00462 -0.00038
0.02342 -0.00826 0.01537
-0.02329 0.01170 -0.03150
-0.03900 -0.00731 0.00683
-0.02273 0.00947 -0.00935
-0.00952 -0.00037 -0.14741
0.00383 0.01137 -0.04339
-0.00026 0.00519 -0.01520
0.03377 -0.00016 -0.14831
-0.05549 0.00605 0.00443
-0.00963 -0.00036 -0.14754
-0.05692 -0.00798 0.01223
0.03827 0.00846 0.01302
0.05257 0.01064 0.01554
-0.01551 -0.02071 0.01702
-0.03772 -0.00426 0.00930
-0.03779 -0.00428 0.00971
-0.00945 -0.00049 -0.14629
-0.02830 -0.00123 0.01056
-0.00974 -0.00037 -0.14705
0.00453 -0.01266 0.01528
-0.01121 0.00057 -0.13842
-0.01849 -0.00106 -0.03318
-0.05549 0.01386 0.00173
0.02194 0.01603 0.01600
0.00772 0.00123 -0.08733
-0.00912 -0.00039 -0.14538
0.02749 -0.00148 0.00908
-0.02709 0.01254 -0.02151
0.01072 -0.00785 0.01125
-0.01506 -0.00893 0.00775
-0.03343 0.00011 0.01077
0.01685 0.01442 0.01529
0.01734 0.01431 0.01744
-0.02676 0.01419 -0.02205
0.02693 -0.00139 0.00919
-0.01179 0.01952 0.02889
-0.01069 -0.00014 -0.14124
0.02773 0.01110 -0.03166
0.00385 0.00752 -0.06875
-0.00016 0.00926 -0.02952
0.02828 0.00124 -0.00341
0.03359 0.00127 0.01592
0.03394 0.00055 -0.00333
-0.00951 -0.00038 -0.14737
-0.01025 0.00030 -0.14209
-0.02760 0.00535 0.01024
0.00496 0.00409 -0.08433
0.00692 0.00253 -0.07623
0.02435 0.01444 0.01823
-0.04318 0.01400 0.00212
-0.00952 -0.00037 -0.14738
0.03382 -0.00014 -0.14633
-0.01176 0.00107 -0.13454
0.02273 -0.00149 0.01596
-0.00154 0.00886 -0.03409
-0.03043 0.00021 0.01034
-0.01955 0.00181 -0.02272
-0.06065 0.01596 0.05059
0.03376 -0.00018 -0.14834
0.02470 -0.00885 0.01734
-0.00951 -0.00037 -0.14744
-0.00952 -0.00036 -0.14741
-0.00963 -0.00036 -0.14754
-0.01312 0.01833 0.02777
0.00787 0.01433 0.01116
-0.01776 -0.00598 0.00931
-0.05306 0.00285 0.00844
0.01378 0.00455 -0.09023
-0.00895 -0.00034 -0.14195
0.00368 0.00535 -0.01870
-0.05771 -0.01307 0.01839
0.00858 0.00767 -0.07633
-0.04705 -0.01350 0.01530
-0.02866 0.01490 0.00567
-0.04721 -0.01126 0.01519
0.03851 0.00345 0.01587
-0.00952 -0.00036 -0.14737
0.03665 0.00892 0.07768
0.03481 0.01938 0.01824
0.03376 -0.00018 -0.14830
-0.00773 0.00197 -0.12766
-0.03399 0.00017 -0.00700
0.04566 0.00449 0.01543
0.03365 -0.00001 -0.14615
0.03481 -0.00032 -0.00370
-0.01328 -0.00790 0.00593
0.02585 -0.00291 -0.05517
0.00718 -0.00443 -0.09873
-0.02222 -0.00178 0.01144
-0.04787 0.00815 0.00210
-0.04896 -0.00246 0.00732
0.02865 0.00070 -0.03085
-0.06350 -0.00060 0.01383
0.03250 0.01248 -0.02077
-0.01047 -0.00000 -0.14375
0.04633 -0.00077 0.01627
0.02590 -0.00126 -0.02131
-0.02639 -0.00424 0.01050
-0.03719 0.00096 0.01174
-0.01206 0.00073 -0.13474
0.00345 -0.01467 0.01266
0.02896 0.00064 0.01530
-0.04840 -0.01339 0.01587
-0.04625 -0.01384 0.01851
0.02129 0.01462 0.00527
-0.01615 0.00181 -0.12343
-0.01969 0.01075 -0.03063
-0.01194 0.00034 -0.14040
-0.00976 -0.00037 -0.14572
-0.02923 0.00283 0.03519
0.02201 0.00296 0.01586
-0.04648 0.01459 -0.00420
0.04039 0.00832 -0.02112
-0.02493 -0.00067 -0.00748
0.03376 -0.00018 -0.14830
0.02919 0.01402 0.01340
0.02920 0.01399 0.01299
0.02891 0.01694 0.01749
0.00808 0.00259 -0.09266
0.01778 0.00107 -0.06589
-0.01337 0.02002 0.03259
-0.01849 0.01049 -0.06659
0.04872 -0.00018 0.01027
-0.01092 -0.00006 -0.14438
0.05495 0.00633 0.01212
-0.01228 0.00008 -0.13358
-0.04674 -0.01284 0.01656
-0.01058 -0.00072 -0.15074
-0.02727 0.00283 -0.02195
0.02963 0.00018 -0.01931
-0.05370 -0.01283 0.01494
-0.03239 0.01013 -0.00897
-0.00857 -0.00618 0.01056
-0.01421 0.00040 -0.13362
0.03309 -0.00023 -0.14671
0.01468 0.01644 0.02494
0.02503 0.00650 0.01634
-0.04942 0.01305 -0.00157
-0.00958 -0.00040 -0.14729
0.02616 0.01634 0.01699
-0.00956 0.00070 -0.13773
-0.00952 -0.00037 -0.14744
0.02624 0.00297 0.01639
-0.05688 0.01494 0.00178
0.02744 0.00273 0.01589
-0.00951 -0.00037 -0.14739
0.00481 0.00633 -0.08224
-0.02612 0.01540 0.00641
0.01388 -0.01413 0.01552
-0.02690 -0.00824 0.01337
0.03373 0.00207 -0.00313
0.01636 -0.00306 -0.08872
-0.00498 0.01222 0.00242
0.05696 0.00907 0.01142
0.05637 0.00810 0.01185
-0.04897 -0.01929 0.01714
0.00762 -0.00738 -0.09869
0.01707 -0.01820 0.01732
0.01908 0.01185 -0.03868
0.04253 0.01774 0.00557
0.00695 -0.01492 0.03495
-0.01603 0.02054 0.04669
-0.00573 0.01758 0.01910
0.00958 0.01572 0.00241
0.01461 0.01520 0.00339
0.01343 0.01886 -0.00889
0.01818 -0.00733 -0.02140
0.01158 0.01167 -0.03742
0.03377 -0.00016 -0.14832
0.02915 0.01381 -0.00818
0.01563 0.01279 0.01317
0.00071 0.00636 -0.10351
-0.02941 0.01144 -0.03435
-0.04612 -0.00452 0.02126
0.00921 -0.00050 -0.08390
0.03512 0.01234 0.01174
0.05756 -0.01051 0.01726
0.02962 0.01594 0.01453
0.00310 -0.00453 0.01005
0.00895 -0.00460 0.01019
0.04435 -0.00237 0.01667
0.04534 -0.00383 0.01516
-0.04563 -0.00204 0.01135
0.02318 -0.00172 -0.03377
-0.01159 -0.02215 0.08576
-0.03616 0.00438 0.00907
0.00592 -0.00353 -0.08316
-0.01194 -0.00850 -0.00047
0.03375 -0.00019 -0.14824
-0.01309 -0.01520 0.01665
-0.00661 0.00149 -0.13347
0.01330 -0.01602 0.01612
-0.00451 0.00334 -0.11973
-0.01573 0.00180 -0.12038
0.03377 -0.00018 -0.14834
-0.00896 0.00334 -0.10626
-0.00754 0.00333 -0.12084
-0.00783 -0.00370 -0.10728
-0.03401 -0.00881 0.03887
-0.01030 0.00071 -0.13899
-0.00812 0.00240 -0.12649
-0.00617 -0.00454 -0.09804
-0.00919 -0.00204 -0.13097
-0.01153 -0.00005 -0.14356
-0.00620 0.00161 -0.13256
0.02945 -0.00834 0.01279
-0.00763 0.00101 -0.13629
-0.01508 0.00277 -0.11951
0.00846 -0.00338 -0.07923
-0.01405 0.00096 -0.13402
0.03040 0.01987 0.00528
-0.01561 0.00273 -0.12035
-0.01001 -0.00002 -0.14331
-0.01538 0.00233 -0.12017
-0.01448 0.00188 -0.12476
-0.01503 0.00331 -0.10850
-0.01562 0.00316 -0.11375
-0.01140 0.00285 -0.12305
-0.00956 0.00043 -0.14040
-0.01491 0.00300 -0.11849
-0.01788 0.00366 -0.11487
-0.02351 -0.01182 0.01026
-0.01678 0.00260 -0.12579
-0.01726 0.00253 -0.12393
-0.06238 -0.01005 0.01549
-0.03482 0.01456 -0.01050
-0.01294 -0.01973 0.06425
0.03407 0.01456 -0.03252
-0.00952 -0.00037 -0.14744
0.01328 -0.00162 -0.09102
-0.03021 0.01447 0.00489
-0.01467 -0.01872 0.01556
0.02379 -0.00547 0.01383
0.00753 -0.00554 -0.10244
-0.06069 -0.01823 0.01700
0.01526 -0.01744 0.01584
0.02863 0.01610 -0.02965
-0.01038 0.00539 -0.10351
0.03082 -0.00570 -0.03590
-0.03607 -0.00953 0.03851
-0.02738 -0.00754 -0.00509
0.03585 -0.00946 0.04047
-0.00903 -0.00047 -0.14541
-0.04624 -0.01203 0.08365
-0.01009 0.01182 -0.05372
-0.02251 0.00964 -0.06373
-0.01149 0.00477 -0.09948
0.05338 0.00752 0.01566
0.02380 -0.00827 0.01420
-0.00646 0.01343 -0.06669
0.02329 -0.00744 0.01454
0.00640 -0.00347 -0.08710
0.03860 -0.00813 0.01667
0.02639 0.02744 0.06418
0.00377 0.00559 -0.07856
-0.06463 -0.00958 0.01975
-0.02754 0.01368 -0.03708
0.03080 -0.00610 -0.03586
0.01168 -0.01378 0.02355
-0.00663 0.01324 -0.04066
0.01922 -0.00522 -0.02873
0.01734 -0.00436 -0.04916
0.00683 0.00911 -0.08673
0.00683 0.00911 -0.08673
0.03699 0.02351 0.03156
0.01657 0.00674 -0.09421
-0.01602 -0.01481 0.01438
0.02731 0.01389 -0.03739
0.02934 -0.00680 -0.00310
0.00604 0.00734 -0.09310
0.01762 -0.00515 -0.04661
-0.04099 -0.00919 0.01507
0.02690 0.00420 0.01544
0.03192 0.02055 0.01267
-0.00082 0.00545 -0.10138
-0.02862 -0.00608 -0.02361
-0.01114 0.00981 -0.07961
0.02834 0.01331 -0.03343
-0.02509 -0.00742 0.01349
0.04404 -0.00075 0.01624
-0.10129 0.04399 0.19765
0.02758 0.02474 0.04309
-0.03429 -0.00755 0.01340
0.03639 -0.00748 0.01569
0.01415 0.01111 -0.08508
0.00318 0.01331 -0.05709
-0.00331 0.01004 -0.07400
0.00050 -0.01245 -0.02208
-0.00851 -0.02670 0.12322
-0.00433 -0.02019 0.05582
0.02519 0.01220 -0.03359
-0.04143 0.01184 -0.01566
0.00358 0.00521 -0.10983
-0.06422 -0.01025 0.01855
0.01110 0.00561 -0.10299
0.00331 0.01135 -0.06719
-0.06488 -0.00732 0.01857
0.03443 0.01577 0.01272
-0.02475 0.01135 -0.02281
0.02706 -0.00389 0.01473
-0.00689 0.01490 -0.02519
-0.02057 0.01060 0.01155
-0.06507 -0.02321 0.05109
0.00548 0.00547 -0.10200
-0.00267 -0.00199 -0.10654
-0.04661 -0.01171 -0.00113
0.00124 0.00365 -0.12363
0.00869 0.00452 -0.10644
0.00870 0.00464 -0.10544
0.01604 -0.01812 0.01543
0.01156 -0.01606 0.02528
-0.00027 0.00302 -0.12390
-0.05324 -0.01020 0.07983
0.05762 0.00749 0.01140
0.05032 -0.01917 0.01734
0.01189 -0.01836 0.04426
-0.02265 -0.00652 0.01319
-0.00997 -0.00012 -0.14539
0.04262 0.01501 -0.02462
-0.05739 -0.01980 0.01748
-0.00087 -0.00169 -0.11753
-0.02634 0.01393 0.00399
-0.03673 0.00234 0.03492
-0.00121 0.00886 -0.08211
0.05988 -0.02133 0.02569
0.01333 0.02794 0.06881
-0.00962 -0.00036 -0.14758
-0.02454 0.01157 0.00834
0.02710 -0.00632 -0.02242
-0.04505 -0.01145 0.03448
0.02760 0.00388 -0.00041
-0.02472 0.00543 -0.02149
-0.00166 -0.00161 -0.11455
-0.06238 -0.01120 0.01656
-0.08021 -0.01266 0.05666
0.00016 -0.00245 -0.11146
-0.09260 -0.02651 0.30162
-0.03777 -0.00539 0.04168
0.03376 -0.00018 -0.14834
-0.00222 0.00478 -0.11277
0.01273 0.00657 -0.09892
0.00936 0.01293 -0.04396
-0.00940 -0.00054 -0.14551
0.01311 0.01617 0.01096
0.00047 0.00256 -0.11286
0.00857 0.00458 -0.10588
-0.06600 -0.00556 0.01926
-0.06575 -0.00559 0.01870
0.05363 -0.01910 0.01759
-0.04929 -0.01968 0.01813
0.03925 0.00766 0.01600
0.03870 0.01586 0.00991
0.01795 0.00868 -0.08815
0.04807 -0.00369 -0.01749
-0.06535 -0.00650 0.01937
-0.06408 0.00173 0.01465
-0.06297 -0.01429 0.06458
0.02436 0.01182 -0.05203
-0.00137 0.00361 -0.11730
-0.02105 0.00773 -0.04755
0.04705 -0.00908 0.06249
0.01899 0.01065 -0.08124
0.03160 0.03403 0.32171
-0.00974 0.00038 -0.14183
0.00473 0.00629 -0.09547
-0.00975 0.00866 -0.08321
-0.02760 0.00091 0.01104
0.01071 -0.01821 0.04522
0.02722 0.01643 -0.02069
0.01161 -0.01806 0.05497
-0.04649 0.00813 0.05912
0.01709 -0.01548 0.01486
0.02040 -0.00405 -0.05905
0.00110 -0.01214 -0.00594
0.05061 -0.01742 0.00716
-0.02484 0.01252 0.00029
-0.00053 0.00781 -0.06195
0.01566 0.01064 -0.03346
-0.00091 0.00837 -0.05823
-0.00374 0.00532 -0.10879
0.01896 -0.00705 0.01571
-0.00922 0.00639 -0.09849
0.01462 0.00797 -0.08551
0.03234 0.00332 0.01456
0.04735 -0.01400 0.01883
0.02998 -0.00065 -0.03035
0.00525 -0.01686 0.02299
0.01006 -0.01897 0.05003
0.01611 -0.01886 0.01528
0.02057 -0.00589 -0.02349
-0.00087 0.01295 0.03808
-0.02302 0.00973 -0.02890
0.02590 0.01297 -0.01806
0.00086 -0.01828 0.03489
-0.04639 -0.01389 0.02193
0.02444 0.00711 -0.05929
-0.01949 0.01287 0.01247
-0.00189 0.00426 -0.11350
0.00149 0.01130 -0.06707
0.02392 0.01115 -0.05913
0.04751 -0.01025 0.02104
0.01617 0.00868 -0.08980
-0.03475 0.00215 0.00954
0.00885 -0.01557 0.03386
-0.04983 0.01129 0.02953
0.00091 0.00526 -0.10670
0.00495 0.01414 -0.03351
0.00091 0.01263 -0.05679
0.03646 0.03377 0.11246
0.05500 0.00033 0.01438
0.04635 -0.01452 0.02826
0.04635 -0.01452 0.02826
-0.01144 0.01339 -0.02762
-0.03790 0.00449 -0.00056
-0.00126 0.00394 -0.11481
-0.04590 -0.00915 0.01466
-0.03703 0.01889 0.00411
0.02629 -0.00045 0.01482
0.03821 -0.00034 0.01331
0.02965 0.00433 -0.03150
-0.00145 0.00313 -0.12084
0.02896 -0.00028 -0.03205
0.04646 -0.01282 0.02804
0.01954 0.01474 -0.00710
-0.00347 0.00783 -0.08672
0.01191 0.00437 -0.09328
0.00412 0.00724 -0.09522
-0.04727 -0.02234 0.01090
-0.00248 0.00700 -0.08988
-0.01279 0.01394 -0.03456
0.05348 0.00097 0.01557
-0.00757 0.00666 -0.09717
0.04721 0.01302 0.01522
0.00516 0.01593 -0.00110
-0.02328 0.01450 -0.01009
-0.00107 -0.02193 0.05762
-0.05817 0.01037 0.00382
-0.04623 -0.01477 0.02368
0.00783 0.00480 -0.10944
-0.00298 0.00351 -0.02602
0.03361 -0.00316 -0.01896
-0.01247 0.01872 -0.02429
-0.01532 0.01527 -0.00032
0.01372 0.00622 -0.06753
0.04926 0.01426 -0.01479
-0.01073 0.00693 -0.09829
0.04500 -0.00023 0.01519
0.00467 0.00350 -0.11795
0.00582 -0.02333 0.08569
0.03297 -0.00025 -0.14622
-0.06283 -0.00988 0.01824
-0.01454 -0.01901 0.01491
0.02494 -0.02496 0.06713
0.00941 -0.01912 0.04581
0.05406 -0.01119 0.02007
0.01489 0.00441 -0.09533
-0.00236 0.01255 0.01692
0.03626 0.01846 0.02009
0.01076 -0.01802 0.03931
0.03297 -0.00006 -0.14627
0.02307 0.01080 -0.05033
0.02052 0.04125 0.21346
0.03116 0.00021 0.01576
-0.02709 0.01334 0.00704
-0.00120 0.00382 -0.12106
-0.04431 0.00233 0.02972
-0.01671 0.01362 0.00287
-0.05389 -0.02823 0.02731
-0.00265 0.00136 -0.11345
-0.00912 -0.00505 -0.09431
0.02293 0.00561 0.01621
0.04654 -0.00928 0.02599
0.02024 0.01477 0.01956
-0.04927 -0.02315 0.01167
-0.00858 -0.00202 -0.12968
0.00682 0.00322 -0.07214
-0.02173 0.00885 -0.04832
0.00217 -0.02038 0.04379
-0.00586 0.00585 -0.09978
0.05324 0.00520 0.01544
0.00364 0.01118 -0.06563
0.03817 0.01121 0.04267
0.04167 0.00562 0.01498
-0.00258 0.00729 -0.09157
0.05748 -0.00026 0.01655
0.00053 -0.01824 0.03567
0.00037 -0.01877 0.03928
0.01311 -0.00881 0.00329
-0.04270 0.02064 0.01822
-0.01291 0.00842 -0.07869
-0.01657 0.00420 -0.08434
-0.00749 0.00636 -0.09663
0.00198 0.00399 -0.11318
0.01216 0.00176 -0.08439
0.01218 0.00727 -0.09298
0.02599 0.00169 -0.04139
0.03862 0.01596 -0.04534
0.03334 0.00836 -0.05168
0.02549 0.01462 -0.00260
-0.00193 0.01029 -0.01161
0.05829 0.00127 0.01652
0.03847 -0.01046 0.01622
0.00954 -0.01608 0.02561
0.00067 -0.00238 0.22849
-0.01828 0.01027 -0.06514
-0.04654 -0.02165 0.01095
0.04417 -0.01042 -0.01338
-0.00511 0.00551 -0.10449
-0.00135 0.00384 -0.11662
-0.01890 0.01258 -0.02701
0.03616 0.00548 0.01639
0.00209 0.00540 -0.11042
-0.04645 0.01585 -0.00397
-0.01133 0.00875 0.00997
0.00672 0.00552 -0.10688
-0.01781 -0.01340 0.01309
-0.01129 0.01819 -0.02740
-0.00054 0.00080 -0.11059
-0.01460 0.01174 0.00827
-0.01232 -0.01442 0.01424
0.06666 -0.00035 0.01731
0.04957 -0.01768 0.01785
0.04617 -0.00872 0.02118
-0.00315 -0.02214 0.05561
-0.01069 -0.02640 0.09811
0.00079 0.00413 -0.12272
0.02844 -0.00625 -0.02424
0.05142 0.01641 0.01453
0.05096 -0.00560 0.01590
0.00862 -0.01825 0.02352
0.04721 0.01608 0.01491
0.03749 0.01473 0.01476
0.03520 0.01495 -0.03130
0.00514 -0.01962 0.03077
0.00468 -0.02058 0.04271
0.06032 0.01651 0.01371
0.00973 0.00527 -0.09306
0.05089 -0.01142 0.01658
0.00914 0.00570 -0.10061
0.04547 -0.01562 0.02396
-0.00672 0.00512 -0.07646
-0.02628 0.01285 0.00573
-0.02866 0.00790 -0.03265
0.04336 0.01166 -0.01606
0.05050 0.01552 0.00603
0.03939 0.01591 0.00986
0.01423 0.01446 0.01757
0.05500 0.01456 0.01456
-0.04535 -0.01126 0.02048
0.00468 -0.02005 0.03525
-0.02409 0.05418 0.28174
-0.00870 -0.02736 0.09819
0.03376 -0.00018 -0.14828
0.03376 -0.00018 -0.14828
0.00719 -0.02076 0.04338
-0.00688 0.00494 -0.08089
-0.00973 0.00505 -0.10560
-0.04582 -0.01332 0.02034
-0.05956 -0.00365 0.00637
0.09179 0.05412 0.25081
-0.01029 -0.02098 0.06012
-0.00696 0.00518 -0.10989
-0.01419 -0.01370 0.01509
-0.05663 -0.02770 0.03596
-0.00015 -0.00118 0.01656
0.00643 -0.04823 0.37027
0.06590 -0.00957 0.01888
0.06584 -0.00959 0.01863
0.04562 0.01921 0.01766
0.03378 -0.00024 -0.14732
0.06646 -0.00106 0.01707
0.00613 0.00468 -0.10102
-0.00074 0.00064 -0.04688
0.03488 -0.00988 0.03938
0.01059 -0.01243 0.01880
0.00168 -0.05592 0.37173
0.02371 -0.00883 0.00019
-0.01536 0.01183 -0.05682
0.00320 0.01802 -0.01040
-0.02892 -0.00761 0.01504
-0.02541 0.00390 -0.02064
0.04467 -0.00789 0.02265
0.04024 -0.00743 0.01576
-0.00028 -0.02126 0.04682
-0.00951 -0.00037 -0.14739
0.00676 0.00787 -0.05102
-0.02220 0.00815 -0.02651
0.02292 0.01808 -0.01612
-0.05123 -0.01948 0.03032
-0.01036 0.01646 0.00282
-0.04891 0.01739 0.00677
0.02000 0.01766 0.02090
0.00109 0.01655 0.08520
-0.00444 0.01488 0.05171
-0.00032 0.01401 0.04015
-0.04805 -0.00885 0.02395
0.01733 0.00060 -0.05103
0.01195 0.04945 0.23836
0.00703 -0.01729 0.00710
0.03264 0.01598 -0.02351
0.02530 0.02460 0.03396
-0.01931 0.00801 -0.05349
-0.02216 0.01016 -0.02586
0.00837 -0.00289 -0.07962
0.02083 0.03015 0.08365
-0.12672 0.05249 0.27416
-0.00077 0.00314 -0.11935
-0.02685 0.01583 0.00616
-0.01738 -0.01428 0.01365
-0.03570 0.01134 -0.00270
-0.00906 0.00020 -0.14075
-0.02689 0.00914 -0.03173
-0.06034 -0.01374 0.01496
-0.00427 0.01710 0.05155
-0.00035 0.00084 -0.11093
-0.04805 -0.01523 0.03487
0.00412 0.00497 -0.10696
-0.03657 0.00860 0.00847
0.00306 0.01790 -0.00733
-0.04733 -0.00851 0.02321
-0.04970 -0.01202 0.02073
-0.00995 -0.02226 0.07458
0.00491 -0.01473 -0.00258
0.00241 0.00581 -0.10038
0.01127 0.02331 0.09022
0.01019 0.01471 0.00428
-0.02227 0.00898 -0.02744
0.03597 -0.00570 0.01743
-0.01349 -0.01143 0.01076
0.02863 -0.01569 0.03453
0.06344 -0.01580 0.01854
0.01623 0.00787 -0.04510
-0.00563 -0.00167 0.06497
0.00515 0.00131 0.01927
-0.01920 0.01259 -0.02668
-0.03086 0.01318 0.00591
-0.00520 0.00805 -0.05002
-0.00547 0.00530 -0.07360
0.05473 -0.02934 0.02522
0.05465 -0.02919 0.02493
-0.00251 -0.02343 0.04905
0.01311 -0.01728 0.04205
0.04446 -0.00901 0.00990
-0.02235 0.01314 0.01226
-0.02174 0.01116 -0.02924
0.00184 0.00470 -0.11600
-0.05261 0.01581 0.00081
-0.01891 0.00893 -0.02585
-0.03082 0.01473 -0.01209
-0.02375 0.01212 -0.03661
0.00533 0.00430 -0.11197
0.00035 -0.02043 0.03612
-0.01296 0.00125 -0.12758
-0.04553 -0.01379 0.02817
-0.01470 0.00654 -0.07664
-0.04749 -0.00871 0.01553
-0.01057 0.00010 -0.14190
-0.01825 0.00602 -0.06459
-0.01967 0.01114 -0.05090
-0.01980 0.01121 -0.05044
-0.00923 0.01359 0.00324
0.02176 -0.00517 -0.01683
0.00241 -0.02447 0.06767
-0.01211 0.00082 -0.13248
-0.00843 -0.02062 0.05009
-0.00362 0.00749 -0.00230
0.01463 -0.01598 0.01406
-0.05664 0.01189 0.03653
0.02352 -0.00530 -0.03118
-0.00677 -0.01766 0.06812
0.06594 -0.00637 0.01774
-0.04895 -0.01302 0.03292
-0.00894 0.00042 -0.14189
-0.01456 0.00347 -0.11279
0.07027 0.02385 0.12800
0.03877 0.01931 0.10838
-0.01654 0.00533 -0.04979
-0.00262 -0.00081 -0.07505
0.04926 -0.00852 0.03532
-0.00702 0.00493 0.01027
-0.00575 0.00034 0.08844
0.00593 0.01681 -0.01479
0.00769 0.00662 -0.07833
-0.00230 -0.01821 0.06017
-0.03145 0.01431 -0.01278
-0.00153 0.01334 0.04363
0.00081 0.02951 0.08692
0.03154 0.01486 -0.03802
-0.06549 -0.00408 0.01649
0.00793 -0.01998 0.06323
-0.04644 -0.01101 0.01510
-0.01862 -0.00950 0.01379
-0.00002 0.00271 -0.12683
0.00207 0.00212 -0.12846
0.00200 0.00218 -0.12838
-0.04108 -0.00788 0.01276
-0.06446 -0.00872 0.01698
0.01833 -0.01222 0.01407
0.06349 -0.00786 0.01629
0.01663 -0.01105 -0.05398
0.01663 -0.01105 -0.05398
0.05373 0.00856 0.01185
0.02743 0.01685 -0.01565
0.04082 -0.01418 0.03382
0.00064 0.00328 -0.12218
-0.03416 0.01322 -0.00698
0.05258 0.01067 0.01562
-0.01444 -0.00405 -0.09489
0.00977 0.00433 -0.10180
0.00598 0.00359 -0.11562
-0.00100 0.00329 -0.11760
0.00005 0.00378 -0.11822
0.00760 0.00611 -0.09934
0.02728 0.02306 0.03031
-0.00515 0.00852 -0.07770
0.00014 -0.00281 -0.11353
0.03368 -0.00015 -0.14816
0.02000 0.00720 -0.08713
0.00869 0.00864 -0.07417
-0.02197 0.00693 0.01098
0.01402 0.00924 -0.07539
0.04528 -0.00887 0.01971
0.04783 0.01016 0.07454
-0.08516 0.03632 0.13816
0.02403 0.00991 -0.07509
0.00089 0.00344 -0.12342
0.00053 0.00681 -0.10029
0.00124 0.00724 -0.09183
-0.00913 0.05487 0.12706
-0.06570 -0.00652 0.01884
0.00215 0.00144 -0.12328
0.00298 0.00557 -0.09423
0.10550 -0.02292 0.36642
0.00181 0.00450 -0.11589
0.03376 -0.00018 -0.14833
-0.00540 0.00370 -0.11539
0.00048 0.00469 -0.10838
-0.00357 0.06903 0.36069
-0.00006 0.00250 -0.12730
0.00456 0.01779 -0.01632
0.03340 0.01145 -0.04180
0.00538 0.00440 -0.11090
0.00726 0.00272 -0.11131
0.03030 -0.01567 -0.04311
0.04857 -0.01182 0.01869
0.01851 0.02210 0.02189
0.05651 0.01569 0.00658
-0.11554 -0.02447 0.38507
-0.05747 -0.01883 0.01483
0.02154 -0.00770 -0.05324
-0.01855 0.01177 -0.03793
0.01524 -0.01448 0.01293
-0.01192 -0.00031 -0.01766
-0.01580 0.01455 0.00142
0.04936 0.01206 0.11772
-0.02361 0.01037 -0.02522
0.00953 -0.00337 -0.08341
-0.02871 0.00026 0.01066
0.04301 0.01116 -0.02089
-0.01083 0.00812 0.00900
-0.01401 -0.00934 0.08198
-0.01506 -0.00888 0.00731
-0.02581 0.01419 0.00467
-0.02616 0.00087 0.01128
0.01990 0.01646 0.02060
0.02706 0.01881 0.03955
0.02089 0.01700 0.01572
0.02504 0.01415 -0.00005
0.00887 0.01547 0.01814
-0.00895 0.01478 0.00853
0.02806 0.00741 -0.00433
0.00325 0.01511 0.01246
0.06898 -0.00349 0.06109
0.05182 -0.00284 0.01519
0.00718 -0.01479 0.02188
0.02760 0.01606 0.01670
0.01341 0.02036 0.04027
0.04328 0.00449 0.01536
-0.04760 0.00126 0.06326
0.03361 0.00630 0.01491
0.04316 -0.00663 0.01211
0.00552 0.00029 -0.08820
0.02838 0.01685 0.02328
-0.06014 -0.01584 0.05248
-0.00967 -0.00038 -0.14734
0.04055 0.00078 0.01553
-0.00968 -0.00034 -0.14734
0.00436 0.00669 -0.07859
-0.00968 -0.00035 -0.14735
0.01566 0.01603 0.01590
-0.00966 -0.00034 -0.14732
-0.00962 -0.00040 -0.14722
-0.00969 -0.00036 -0.14733
-0.00972 -0.00036 -0.14708
0.01064 0.00102 -0.08044
-0.00968 -0.00034 -0.14734
-0.00968 -0.00034 -0.14734
-0.00961 -0.00037 -0.14724
0.03086 0.00060 0.01557
0.03338 -0.00687 0.01335
-0.02863 0.00584 0.13392
0.00451 0.00097 -0.08381
0.03514 -0.00659 0.01472
-0.01978 0.01226 -0.03046
-0.41209 0.00431 1.00000
0.03827 0.00842 0.01287
0.03293 0.00004 -0.14633
0.03491 0.00048 0.01572
0.05576 0.01886 0.01531
0.03831 -0.00095 0.01577
-0.02829 0.00058 -0.02147
0.00105 -0.00437 -0.01977
0.00853 0.00487 -0.08931
0.01447 0.01864 0.01147
-0.00512 0.00911 -0.04015
-0.04432 0.01035 -0.01012
-0.02909 0.00068 -0.00747
0.02691 0.01957 0.03891
0.01122 -0.00178 -0.08477
-0.00954 -0.00025 -0.14620
0.02210 0.00251 0.01646
-0.01225 0.00730 -0.05566
-0.00709 -0.00478 -0.10632
-0.00288 -0.00655 -0.08596
0.05150 -0.00202 0.01534
0.00226 -0.00416 -0.02573
-0.01036 0.00025 -0.14257
-0.00826 -0.00302 -0.12260
0.02773 0.01607 0.01854
-0.01022 0.00026 -0.14250
-0.00968 0.00137 -0.13423
-0.01128 0.00143 -0.13365
0.05289 -0.00452 0.01860
0.03373 -0.00013 -0.14822
-0.01057 0.00066 -0.13934
0.03169 0.00625 0.01522
0.05307 0.01595 0.00555
0.05145 -0.00942 0.01556
-0.01234 0.00019 -0.13912
-0.01024 -0.00003 -0.14419
0.00312 -0.01785 0.07169
-0.01271 0.00609 -0.09598
-0.01500 0.00383 -0.11062
-0.01010 0.00015 -0.14262
0.01626 0.01259 0.01299
-0.02462 0.01074 -0.02404
-0.00606 0.00129 -0.13208
-0.01046 -0.00001 -0.14454
0.01189 0.01592 -0.00914
0.06314 -0.00423 0.01698
0.07047 0.01868 0.06693
0.05814 0.01304 0.00785
0.02719 -0.00524 0.01482
0.02749 0.00750 -0.01833
0.00344 -0.01368 0.01584
0.05711 0.00282 0.01507
0.00330 -0.00090 -0.08431
-0.02319 0.00450 0.01022
0.00774 0.00458 -0.09352
0.00462 0.01432 0.00042
0.04634 0.01841 0.00275
0.05756 0.02019 0.01544
0.05730 -0.01047 0.01688
-0.01886 -0.00460 0.00942
0.03256 0.00249 -0.01814
0.01791 -0.00418 -0.07796
-0.02332 0.00966 -0.04558
0.02855 -0.00158 0.01740
-0.05373 0.00012 0.01248
0.05886 0.00807 0.01654
0.02078 0.00811 -0.08678
-0.01150 0.00542 0.05174
0.02097 0.00725 0.01587
-0.05027 -0.00118 0.01087
0.00530 0.00447 -0.09108
-0.02528 -0.00538 0.00839
-0.05130 -0.01115 0.01471
0.03417 0.00753 -0.00165
0.01277 0.00396 -0.09917
0.00433 0.01314 0.00455
0.00654 -0.00293 0.03156
-0.01004 0.01326 -0.02347
0.04772 0.01656 0.01484
0.01681 0.00825 -0.08352
0.00680 0.00581 -0.09427
-0.00064 -0.00368 0.07735
-0.01488 0.01200 0.00628
0.06785 -0.00003 0.03215
0.01044 0.00897 0.01104
-0.00073 0.01191 0.01213
-0.01731 -0.00386 -0.02115
0.02326 0.00054 0.01543
0.05881 -0.00059 0.01659
-0.06164 -0.00823 0.01651
-0.04847 0.01301 -0.00216
0.02858 -0.00383 0.01153
0.02901 -0.00213 -0.00151
0.01111 0.00224 -0.08434
0.04867 -0.01442 0.01810
0.00014 0.01701 0.03418
0.01631 0.00869 -0.03900
0.03744 0.01869 0.01879
0.05801 0.01681 0.01546
0.01917 0.01654 0.01709
0.01970 0.01641 0.01780
-0.04849 0.00511 0.06519
0.03360 0.00940 -0.04654
0.06188 -0.01022 0.01532
-0.00414 -0.00136 -0.12753
0.04142 -0.00821 0.01671
0.06298 0.01654 0.01761
0.05369 0.01952 0.01482
-0.00949 -0.00037 -0.14736
0.02038 -0.00542 -0.03580
0.01284 -0.01527 0.02000
0.03708 0.00024 0.01562
-0.01127 0.00692 0.00113
-0.05721 -0.01191 0.01725
-0.02573 -0.00178 0.00915
0.01657 -0.01858 0.01535
0.01764 -0.01247 0.01505
0.01852 -0.00927 0.01425
0.01690 -0.01462 0.01530
-0.04523 -0.01703 0.01704
-0.03319 -0.00810 0.03559
0.02696 -0.00693 0.01339
0.02104 -0.00264 -0.01657
-0.06450 -0.00192 0.01498
-0.01589 -0.01997 0.01606
-0.05723 -0.01424 0.01624
-0.06086 -0.01131 0.11184
-0.05666 -0.01163 0.02752
0.00377 0.01573 0.00242
0.06306 -0.01890 0.02078
0.06151 -0.01930 0.01973
0.05425 -0.01917 0.01727
0.05757 -0.01948 0.02077
0.06433 -0.01090 0.01841
0.05962 -0.01987 0.02041
0.02788 0.01508 -0.03745
-0.04540 -0.01651 0.02090
0.06186 -0.00900 0.01693
0.02236 -0.01092 0.01359
-0.00971 -0.00029 -0.14713
-0.00630 0.00052 -0.14158
-0.01031 0.00002 -0.14410
0.05549 -0.01382 0.01873
0.06249 -0.01284 0.01797
0.00757 -0.00294 -0.09179
0.01566 0.00989 -0.06779
0.01607 -0.01814 0.01530
0.00539 0.00309 -0.08105
0.04630 0.01790 0.01510
0.02283 -0.00393 -0.07609
0.06297 -0.01643 0.01782
0.05891 -0.00781 0.01644
0.02101 -0.00845 -0.07594
-0.01895 -0.00730 0.01195
0.04802 -0.01863 0.01787
0.01078 -0.00956 0.02988
0.06563 0.02072 0.01832
0.06413 0.02043 0.02194
0.01759 0.01717 0.02131
0.05946 0.02132 0.01685
0.05916 0.01143 0.01406
0.02733 0.00374 0.00994
0.05862 -0.01463 0.01694
0.03138 -0.00509 0.01435
-0.01068 -0.00548 -0.08329
-0.00971 -0.00030 -0.14721
0.01416 -0.01714 0.01524
-0.05058 -0.01888 0.02139
0.01465 -0.01540 0.01878
0.04756 -0.01733 0.02546
-0.00941 -0.01814 0.07495
0.05665 -0.00963 0.02313
0.02656 -0.00237 0.00930
-0.00965 -0.00027 -0.14663
-0.01105 0.00219 -0.12727
0.05095 -0.01919 0.01732
0.03372 -0.00023 -0.14808
-0.04369 -0.00830 0.02253
0.02293 -0.00730 0.01579
0.03058 -0.00735 0.01499
0.01986 -0.00849 -0.07754
-0.01062 0.00004 -0.13864
-0.00509 0.00079 -0.13955
0.00182 -0.01345 0.01158
0.01009 -0.00317 -0.08359
0.00944 -0.01353 0.00993
-0.04509 -0.01492 0.02447
-0.00969 -0.00025 -0.14689
0.03626 0.01344 -0.01671
-0.01134 -0.02004 0.05947
0.04615 -0.01402 0.01813
-0.00869 0.00019 -0.14532
0.02755 0.01760 0.01544
-0.02690 0.01196 -0.02107
-0.02103 -0.00726 -0.01991
-0.00108 0.01756 0.02524
-0.01917 0.01258 -0.02676
-0.07130 0.00275 0.07550
0.02534 0.00279 0.22677
-0.00951 -0.00037 -0.14737
0.00648 0.00114 -0.07594
-0.04093 -0.01337 0.01446
0.03889 -0.00729 0.00145
-0.00995 -0.02129 0.08870
-0.05885 -0.02025 0.02760
-0.00951 -0.00037 -0.14741
-0.04177 -0.00658 0.01231
-0.00913 -0.00044 -0.14547
0.02414 -0.00790 0.01432
-0.00951 -0.00037 -0.14740
-0.00971 -0.00030 -0.14721
0.02127 0.00328 0.01587
-0.00952 -0.00037 -0.14744
-0.04960 0.00963 0.07257
0.04552 -0.01582 0.02105
0.01607 -0.01940 0.01510
-0.04467 -0.01133 0.06909
-0.00951 -0.00052 -0.14606
-0.00698 -0.01522 0.11470
-0.01008 -0.00017 -0.14545
-0.02101 0.00021 -0.00682
0.03463 0.00046 -0.01767
-0.01008 0.00029 -0.14290
-0.00352 -0.02733 0.10346
0.04847 -0.01218 0.06536
-0.00397 -0.00019 0.00536
-0.00995 -0.00022 -0.14600
-0.00954 -0.00047 -0.14651
-0.01591 -0.03298 0.25257
0.02389 0.02266 0.01359
0.00623 0.01610 -0.00119
-0.04371 -0.00040 0.07390
-0.00982 -0.00026 -0.14543
0.01118 0.00025 -0.08379
0.00361 -0.01115 -0.03864
0.00827 -0.01317 0.00822
-0.04085 0.00190 0.06672
0.00945 -0.00113 -0.09707
-0.03681 -0.00031 -0.00364
-0.02421 0.00077 0.01060
-0.02313 0.00807 0.01213
-0.00953 -0.00037 -0.14736
-0.02267 0.00387 -0.03359
-0.03098 -0.00121 0.00930
-0.00342 -0.01522 0.08696
-0.01458 -0.02612 0.20746
-0.01424 -0.02600 0.20476
0.04652 -0.00671 0.02592
-0.00952 -0.00037 -0.14736
0.03849 0.00155 0.04063
-0.04109 0.00010 0.00952
0.02835 0.00086 -0.03101
0.02829 0.00574 -0.01848
-0.03720 0.01715 0.00114
0.00683 0.00093 -0.09254
-0.00950 -0.00037 -0.14738
0.02417 -0.00897 0.01671
0.00681 -0.00560 -0.10194
0.05151 -0.01923 0.01870
-0.00271 0.01175 -0.02959
0.00422 -0.00382 -0.09138
-0.02527 -0.00427 0.01696
-0.01960 -0.00376 -0.00615
-0.00947 -0.00040 -0.14656
0.03376 -0.00019 -0.14827
-0.03240 -0.00184 0.00688
0.03189 0.00902 -0.03886
-0.00875 0.01207 0.00515
0.02386 -0.00376 0.00650
0.02529 -0.00390 0.01322
0.03138 0.00182 0.07382
0.01899 -0.00667 0.01575
0.02840 0.00042 0.04053
0.01163 0.00017 -0.08372
-0.04434 0.01310 0.00043
-0.05465 -0.00802 0.08644
-0.02410 -0.00901 0.01308
0.02687 -0.00605 -0.03585
0.03165 0.00131 0.07339
0.01779 -0.00469 -0.08451
0.02217 0.00005 0.01648
-0.06107 -0.00682 0.00990
-0.04870 -0.01867 0.01511
-0.01034 0.00004 -0.14248
-0.06077 -0.01992 0.02669
-0.00138 0.00361 -0.11791
0.00645 0.00003 -0.09268
-0.00955 -0.00026 -0.14686
0.00430 0.00372 -0.11882
0.02919 -0.00438 -0.00303
0.00973 -0.00350 -0.10214
-0.00248 -0.01056 0.06775
-0.00954 -0.00046 -0.14652
-0.00952 -0.00037 -0.14743
-0.01638 -0.01123 0.01215
0.03894 -0.00341 -0.00325
-0.02411 0.00014 -0.02202
-0.02254 0.00286 -0.03344
-0.08116 -0.00714 0.11557
-0.13791 -0.01244 0.32415
-0.01904 0.00007 -0.03260
0.05312 0.00907 0.17616
-0.01765 0.02301 0.06249
-0.01024 -0.00036 -0.14356
-0.06103 -0.00068 0.00854
-0.00952 -0.00038 -0.14734
-0.01359 0.00639 -0.05541
0.02541 0.00486 0.01551
0.00943 -0.00380 -0.10149
-0.02034 0.00231 0.00705
-0.02926 0.00434 0.09929
0.00638 0.00085 -0.08715
-0.00975 -0.00018 -0.14583
0.02273 0.00844 0.01647
-0.01001 -0.01310 0.01233
0.00775 0.00068 -0.08723
-0.00722 -0.00117 0.01118
-0.01460 -0.00102 0.09116
0.03626 -0.00759 0.01682
-0.05367 -0.01993 0.01624
-0.00953 -0.00046 -0.14652
-0.00866 -0.01623 0.02491
-0.00954 -0.00036 -0.14736
-0.02790 0.00196 -0.03418
-0.05840 -0.01088 0.01062
0.02607 -0.00297 -0.02882
0.00225 0.00985 -0.00907
0.00739 -0.00260 0.07004
-0.01899 0.00048 -0.00678
-0.04366 -0.01602 0.01885
-0.01884 -0.00795 0.01213
-0.04607 -0.01689 0.01685
-0.04411 -0.01286 0.01662
-0.01027 -0.00058 -0.14352
-0.01002 -0.00001 -0.14482
-0.02069 -0.00871 0.01281
0.02806 -0.00200 0.00938
0.00775 0.00249 -0.07842
-0.00984 -0.00042 -0.14645
-0.03390 0.02357 0.03033
-0.00996 -0.00036 -0.14526
-0.02402 0.00369 -0.00563
-0.00952 -0.00036 -0.14741
-0.00962 -0.00038 -0.14746
-0.00025 -0.01123 0.04768
0.03876 -0.00343 -0.00837
-0.01708 -0.00233 -0.10852
-0.01038 -0.00056 -0.14302
-0.01020 -0.00067 -0.14474
-0.00063 -0.00235 -0.11039
0.00513 -0.05052 0.36364
-0.01026 -0.00068 -0.14465
-0.01030 -0.00001 -0.14307
-0.01022 0.00015 -0.14263
-0.01025 -0.00066 -0.14473
-0.01579 0.00329 -0.11338
0.05128 -0.01062 0.01368
-0.01319 0.00242 -0.11858
-0.01664 0.00285 -0.10776
-0.01018 -0.00066 -0.14474
-0.01001 0.00006 -0.14348
-0.01024 -0.00067 -0.14466
-0.01373 0.00210 -0.12152
0.03372 -0.00027 -0.14613
-0.01517 0.00149 -0.12857
-0.00951 -0.00037 -0.14744
0.00217 -0.00064 -0.10286
-0.01362 0.00162 -0.12653
-0.00901 0.00155 -0.12736
-0.01313 0.00296 -0.11868
0.03378 -0.00023 -0.14731
-0.04668 -0.01842 0.01875
0.02711 -0.00260 -0.06794
-0.00950 -0.00036 -0.14738
-0.01510 0.00300 -0.11758
-0.01202 0.00239 -0.12301
-0.00863 0.00060 -0.13712
-0.00953 -0.00037 -0.14737
-0.01347 0.00047 -0.11821
-0.01153 0.00101 -0.13241
-0.01151 0.00123 -0.13255
-0.01678 0.00163 -0.11656
-0.01324 0.00166 -0.13016
-0.00951 -0.00037 -0.14743
-0.01314 0.00144 -0.13028
0.03520 0.01098 -0.06331
-0.01239 0.00126 -0.13139
0.01509 0.04831 0.19617
-0.00957 -0.00034 -0.14716
-0.01747 0.00067 -0.11174
-0.00952 -0.00037 -0.14744
0.00054 0.03210 0.08517
-0.00952 -0.00037 -0.14744
-0.00947 -0.00025 -0.14597
-0.00950 -0.00027 -0.14607
0.02982 -0.00818 0.01421
0.03378 -0.00023 -0.14732
0.01333 0.00588 -0.09123
-0.00951 -0.00028 -0.14609
-0.03617 0.00925 0.03448
-0.00962 -0.00038 -0.14745
0.03376 -0.00019 -0.14830
0.03379 -0.00019 -0.14840
0.03386 -0.00023 -0.14730
0.03378 -0.00019 -0.14840
0.03179 0.01001 -0.06908
0.03386 -0.00020 -0.14808
0.03378 -0.00020 -0.14839
0.00694 0.01929 0.02401
0.03391 -0.00025 -0.14674
0.03378 -0.00019 -0.14840
-0.05024 0.01451 -0.00410
0.03320 -0.00018 -0.14585
0.03360 -0.00009 -0.14787
0.03385 -0.00012 -0.14736
0.03367 -0.00013 -0.14797
0.03378 -0.00006 -0.14764
0.03291 0.00000 -0.14666
0.03377 -0.00016 -0.14835
0.03337 -0.00017 -0.14735
0.03337 -0.00017 -0.14735
0.03337 -0.00017 -0.14735
0.03353 -0.00007 -0.14638
0.03377 -0.00016 -0.14836
0.03362 -0.00006 -0.14738
0.03373 -0.00015 -0.14813
0.03379 -0.00019 -0.14734
0.01879 -0.01034 0.01463
0.03371 -0.00020 -0.14824
0.03859 0.00331 0.01615
0.03374 -0.00015 -0.14826
0.03296 -0.00008 -0.14664
0.03376 -0.00017 -0.14830
0.03343 -0.00024 -0.14700
0.03352 0.00002 -0.14649
0.03379 -0.00017 -0.14840
0.03375 -0.00015 -0.14829
0.03378 -0.00016 -0.14838
0.03379 -0.00016 -0.14840
0.03369 -0.00016 -0.14784
0.03379 -0.00018 -0.14832
0.05083 0.02998 0.12663
0.03366 -0.00024 -0.14762
0.03332 -0.00000 -0.14667
0.00500 -0.00057 -0.08546
-0.03792 -0.00797 0.03624
-0.02006 0.00855 -0.05134
-0.04374 0.01407 0.02767
-0.00529 -0.00156 0.07371
-0.03451 0.01189 0.03313
-0.00167 -0.00108 -0.02903
-0.00227 0.01638 0.03223
-0.02927 0.01051 0.03748
0.02873 -0.00599 0.00758
0.02994 0.01468 0.00496
0.00902 0.01693 0.02819
0.00660 0.00457 -0.08147
-0.05355 0.01930 0.05571
0.02355 -0.00046 -0.01997
-0.02321 0.01054 -0.03246
-0.03382 -0.00018 0.01049
-0.04857 -0.00096 0.00855
-0.00412 0.01643 0.03001
0.01009 0.01342 0.00777
-0.02682 0.01067 -0.01722
-0.04340 -0.00121 0.01034
0.02792 0.00524 -0.00478
-0.00444 0.01440 0.00255
0.00751 -0.00433 0.00870
0.03347 0.01557 0.01795
-0.00982 -0.00038 -0.14570
-0.01006 -0.00028 -0.14370
0.00803 0.01723 0.00449
-0.00952 -0.00038 -0.14735
0.00578 0.01323 0.00821
-0.01904 -0.00941 0.01248
-0.02448 -0.00869 0.01345
0.01255 -0.01549 0.03410
-0.00016 0.01240 0.03563
-0.00952 -0.00037 -0.14743
-0.00953 -0.00036 -0.14735
0.00228 -0.00349 -0.12116
-0.04141 0.01053 0.00644
0.01596 0.01230 -0.02703
-0.04809 0.01092 -0.00174
-0.00952 -0.00037 -0.14744
0.02875 0.01532 -0.02543
0.07136 0.02419 0.08888
-0.00345 0.01423 -0.01032
-0.00952 -0.00037 -0.14744
-0.01198 -0.01459 0.00793
-0.00947 -0.00035 -0.14437
0.01510 -0.00457 -0.03904
-0.01254 -0.00515 -0.02923
-0.01859 -0.00861 0.01357
0.01808 0.02224 0.02371
0.00413 -0.00229 -0.05742
-0.01026 -0.02199 0.05940
0.03008 -0.00614 -0.00510
-0.02719 0.01522 0.00625
-0.00951 -0.00037 -0.14742
0.03376 -0.00020 -0.14680
0.01339 -0.01206 -0.00731
-0.00773 0.00139 -0.13434
0.02177 0.00268 0.01659
-0.00949 -0.00024 -0.14605
-0.04189 0.00248 0.03204
-0.00119 -0.01659 0.00981
-0.00949 -0.00036 -0.14737
-0.04847 0.00683 0.00075
-0.00025 -0.01750 -0.00610
0.01167 0.01436 -0.00794
-0.00952 -0.00037 -0.14744
0.00616 0.00602 -0.07302
-0.02825 0.00380 0.01088
0.04470 -0.00021 0.01249
-0.01153 -0.01274 0.01661
0.02850 0.00756 -0.01759
0.02850 0.00756 -0.01759
0.00314 0.00586 -0.08516
-0.06204 0.00342 0.04945
0.01105 0.00463 -0.09907
-0.00943 -0.00045 -0.14498
0.00914 0.01280 0.00910
-0.00946 -0.00056 -0.14568
0.00876 -0.00485 -0.10578
-0.00244 -0.00485 0.05305
-0.00951 -0.00037 -0.14740
-0.01684 0.00683 -0.05623
-0.01055 -0.00073 -0.15086
-0.00951 -0.00038 -0.14736
0.00436 -0.01505 -0.00643
-0.00952 -0.00037 -0.14743
0.04979 0.00802 0.16838
0.00686 0.00555 -0.09176
-0.00958 0.00010 -0.14440
-0.00203 -0.01003 -0.04761
0.02903 -0.00015 -0.00569
-0.00605 -0.00815 -0.06340
0.00759 0.00649 -0.06605
0.01247 -0.00779 0.01740
-0.01374 0.00351 -0.11112
-0.01885 -0.01074 0.01157
-0.04465 0.00083 0.03172
0.01750 -0.01363 0.01518
-0.00952 -0.00037 -0.14744
-0.00951 -0.00037 -0.14744
-0.00951 -0.00037 -0.14742
0.03252 -0.00262 -0.04239
0.03109 0.00937 -0.05265
-0.00952 -0.00037 -0.14744
0.00706 0.00716 -0.07097
0.00180 -0.01536 -0.00382
0.00197 -0.01469 -0.00955
-0.01023 -0.00006 -0.14496
0.01408 0.00697 -0.09479
0.01608 0.00753 -0.09079
0.00240 -0.01514 0.00308
-0.00168 -0.01336 -0.02002
0.00495 -0.00268 -0.07294
-0.00066 -0.00502 -0.08662
-0.00951 -0.00038 -0.14736
0.00773 -0.01909 0.03819
-0.00533 -0.01114 -0.02413
-0.00952 -0.00037 -0.14744
-0.00952 -0.00036 -0.14740
-0.00244 -0.01162 -0.03510
0.00545 0.00319 -0.08078
-0.00235 -0.01567 0.00136
-0.00956 -0.00044 -0.14684
-0.06021 -0.00647 0.02149
0.02018 0.00800 -0.08279
-0.00951 -0.00037 -0.14738
0.03374 -0.00021 -0.14569
-0.00936 -0.00073 -0.14434
-0.00950 -0.00027 -0.14583
-0.00961 -0.00036 -0.14756
-0.00018 -0.01508 -0.00629
0.02740 0.01739 0.02131
0.01959 -0.00106 0.01353
-0.00951 -0.00037 -0.14744
-0.05071 -0.01191 0.06716
-0.03248 0.00406 0.00892
-0.00952 -0.00037 -0.14744
-0.00951 -0.00038 -0.14736
0.00061 0.02455 0.01293
0.00548 0.01455 0.01559
0.00589 0.01412 0.00078
0.00538 0.00621 -0.07779
-0.00273 -0.01602 -0.00187
-0.00483 -0.00088 -0.06473
-0.00978 0.00094 -0.13408
-0.00012 -0.01770 0.00936
-0.04598 0.01869 0.02526
0.00556 0.01553 0.01226
0.01354 -0.01667 0.05087
-0.03523 -0.00911 0.01347
0.00682 0.00609 -0.08203
-0.01234 -0.02130 0.08730
0.00393 -0.01545 0.00749
0.01937 -0.00661 -0.02721
-0.00988 0.00072 -0.13748
0.00514 -0.01487 0.01178
0.00599 0.01375 0.00602
-0.00950 -0.00036 -0.14738
-0.00951 -0.00036 -0.14742
-0.00656 -0.00861 -0.03729
0.00613 -0.00962 -0.03526
-0.00380 -0.00802 0.00941
0.00897 0.00561 -0.09157
0.01436 -0.00229 0.02240
-0.00150 -0.01266 0.00048
-0.05243 -0.02128 0.01870
0.05270 -0.01283 0.01579
-0.00136 -0.01317 0.00700
-0.00004 0.00355 -0.01510
0.02764 0.00127 -0.05676
0.05219 0.01870 0.00349
-0.00971 -0.00035 -0.14741
0.01070 -0.01115 0.01896
-0.00865 -0.01918 0.07768
0.01897 0.01433 -0.00135
-0.00189 -0.01123 -0.02806
-0.01012 -0.00037 -0.14265
0.01429 -0.00725 0.01996
-0.00950 -0.00036 -0.14741
-0.00086 -0.01404 -0.02142
0.00384 -0.01404 0.01515
-0.00951 -0.00036 -0.14741
-0.01502 0.00103 -0.13151
0.02350 -0.00694 0.01542
0.03481 0.01961 -0.00517
-0.00952 -0.00036 -0.14738
0.03266 -0.00073 -0.01646
0.00511 -0.01532 0.00847
0.00321 -0.02548 0.07984
0.03365 0.00235 0.07574
-0.00951 -0.00037 -0.14744
0.00591 -0.01523 -0.01404
-0.03767 -0.00604 0.04407
0.00015 0.01056 -0.05161
0.02903 -0.00385 0.01597
0.01014 -0.00557 0.01342
0.02224 0.01306 -0.01768
-0.04100 0.01403 0.00289
-0.00951 -0.00038 -0.14736
0.01939 0.01444 0.00252
0.00864 0.01878 -0.00672
-0.00951 -0.00033 -0.14714
-0.06022 -0.01072 0.01228
-0.07721 0.00549 0.17747
0.00942 -0.00550 0.00643
-0.00951 -0.00038 -0.14735
0.00709 0.00601 -0.09055
0.00639 -0.01265 0.01328
-0.00962 -0.00042 -0.14708
-0.01453 0.00086 -0.13185
-0.04297 -0.00875 0.01199
-0.04789 0.00099 0.03060
0.01121 -0.00874 0.02379
-0.00819 -0.01356 -0.00739
0.01686 0.01584 0.00876
-0.00991 -0.00037 -0.14554
0.00692 -0.00092 -0.07649
-0.00114 -0.00676 0.01189
0.00840 -0.01704 0.00674
-0.01653 0.00229 -0.10766
-0.01014 -0.00039 -0.14260
-0.02579 0.01056 -0.02314
-0.00951 -0.00037 -0.14744
-0.00951 -0.00037 -0.14744
0.01688 -0.01394 0.02228
0.02569 0.01608 0.01583
0.00844 -0.00700 0.01512
0.00816 0.01882 0.01369
0.01613 -0.00794 0.01884
-0.01169 0.00401 -0.10954
-0.00952 -0.00036 -0.14740
-0.01342 0.00065 -0.13910
0.02683 0.00029 -0.01804
-0.00070 -0.01511 0.01251
0.00404 -0.01706 0.00879
0.00819 0.02098 0.00680
0.02996 0.06242 0.32207
0.02881 0.01854 0.02333
0.00704 0.01656 0.00092
-0.06373 0.04874 0.23136
0.00583 -0.01531 0.00368
-0.00505 -0.01712 0.00515
0.00317 -0.01854 0.01865
0.00339 -0.01734 0.00678
-0.04537 0.01662 0.02544
0.00338 -0.01548 -0.00615
0.01741 0.02375 0.01564
-0.00875 0.02230 0.08828
-0.00753 0.00019 -0.14293
0.02880 0.01600 0.01758
-0.01310 0.01538 0.00013
0.00638 0.01646 0.02096
0.04933 0.02773 0.07153
-0.01726 0.00287 -0.11298
0.00976 -0.01450 0.01548
-0.00293 -0.01322 -0.01517
-0.02526 0.01476 0.00726
-0.00953 -0.00052 -0.14613
0.00414 -0.01850 0.02266
0.00934 -0.01626 0.01361
-0.00951 -0.00037 -0.14737
0.00076 -0.00871 -0.04378
0.01059 -0.01349 0.01206
-0.00587 -0.01497 -0.00497
0.00617 -0.01469 0.01235
0.01062 -0.01099 0.01576
-0.00952 -0.00037 -0.14744
0.04668 0.01797 0.00113
0.00534 -0.01389 -0.01027
0.00888 -0.00943 0.01898
0.00835 -0.00190 -0.08121
0.01841 -0.00498 0.01174
0.01007 -0.00526 0.00430
-0.00144 -0.00510 -0.01312
-0.00098 -0.00933 -0.06426
0.02254 0.01620 0.01703
-0.01110 -0.00043 -0.13960
-0.06571 -0.00152 0.03886
-0.01694 0.00315 -0.11033
-0.01519 0.00092 -0.12719
-0.00251 -0.00834 0.00905
-0.00226 -0.01176 -0.03285
0.01627 -0.00332 -0.07737
-0.02329 0.01483 0.00608
-0.00004 -0.00327 -0.05578
-0.00113 -0.00807 -0.06519
0.00585 -0.00083 -0.14049
-0.00976 0.00171 -0.12801
-0.00951 -0.00037 -0.14738
0.01181 -0.00283 -0.08104
-0.00951 -0.00037 -0.14740
-0.00721 -0.01981 0.07533
-0.02353 0.01113 -0.02963
0.00364 0.00618 -0.08882
0.00362 0.00616 -0.08890
-0.04430 -0.00946 0.01196
-0.01429 0.01438 -0.00391
-0.02640 0.01146 -0.02274
-0.00455 0.01101 0.01426
-0.00951 -0.00037 -0.14740
-0.03194 -0.00132 0.01054
0.00474 0.00512 -0.09182
-0.01203 -0.00131 0.03268
-0.00951 -0.00037 -0.14744
