# .PCD v.7 - Point Cloud Data file format
VERSION .7
FIELDS x y z
SIZE 4 4 4
TYPE F F F
COUNT 1 1 1
WIDTH 1878
HEIGHT 1
VIEWPOINT 0 0 0 1 0 0 0
POINTS 1878
DATA ascii
-0.10963 -0.09660 0.07291
-0.00508 0.10162 -0.13753
-0.07066 -0.17131 0.16574
0.05467 0.05162 -0.06993
0.05432 0.05193 -0.07159
0.01308 0.11353 -0.14338
0.04451 0.15600 -0.19405
0.06673 0.09490 -0.12029
-0.04032 -0.11222 0.07134
-0.00575 0.06761 -0.10385
0.06822 0.11605 -0.14321
0.10141 0.00688 -0.01247
0.10539 0.05551 -0.07365
-0.01554 0.07516 -0.11206
-0.00669 0.05993 -0.10026
-0.09272 -0.11749 0.11810
0.04943 -0.13604 0.12468
-0.11151 -0.06405 0.04875
-0.04308 0.03294 -0.03728
0.08611 -0.01089 0.00372
-0.08154 0.07793 -0.10852
0.02424 0.08103 -0.10670
-0.05074 0.14384 -0.17391
0.03281 0.12071 -0.15665
0.08837 0.09358 -0.12125
0.10622 0.05745 -0.07684
0.02478 0.10202 -0.13564
0.03998 -0.13648 0.13465
0.07475 0.14610 -0.16628
-0.03798 0.11884 -0.14780
0.09423 -0.10830 0.12804
0.10106 -0.03382 0.02907
0.10065 -0.03335 0.02758
-0.01857 0.07739 -0.11576
0.00278 0.11439 -0.14058
0.04119 -0.03444 0.02463
-0.09234 -0.10934 0.11036
-0.01565 0.09509 -0.12045
0.10157 0.07411 -0.08773
-0.06532 0.07793 -0.09512
-0.02707 0.11220 -0.14009
-0.01704 0.13706 -0.14441
-0.01942 0.03805 -0.06992
0.02835 0.14392 -0.16945
0.08245 0.05248 -0.07387
0.12643 0.03697 -0.02789
-0.05034 -0.11516 0.09776
0.03313 0.12063 -0.15580
0.01622 0.10893 -0.14015
0.02182 0.09821 -0.13812
0.07944 0.12421 -0.15448
0.10600 -0.24342 0.25636
-0.01410 0.07326 -0.11367
0.03442 0.00285 0.00780
0.02049 0.13316 -0.15807
-0.05269 0.05884 -0.07324
0.06102 0.09477 -0.10288
0.05139 0.13054 -0.14354
0.01415 0.14175 -0.14921
0.12571 0.00921 -0.00401
-0.09636 0.00861 -0.01046
-0.03248 0.10702 -0.14455
0.03252 0.12305 -0.15660
0.00718 0.10473 -0.12493
0.02354 0.04692 -0.04499
0.03722 -0.06261 0.06158
-0.02818 0.08474 -0.13372
0.05485 0.14816 -0.18259
-0.00465 0.03215 -0.07627
0.04800 0.01090 -0.01542
-0.06142 0.07124 -0.08740
-0.06144 0.07121 -0.08727
-0.08452 0.08082 -0.10971
-0.01258 0.12534 -0.13926
0.11849 -0.02584 0.02342
0.09046 0.06799 -0.06618
0.01516 -0.03735 0.01649
-0.00137 -0.03639 0.00110
0.07122 -0.04481 0.03699
0.01271 0.08896 -0.12367
-0.04170 -0.04019 0.03025
-0.01105 -0.05189 0.02780
-0.06760 0.04101 -0.05651
-0.03969 0.11257 -0.15410
0.10501 -0.25089 0.27149
0.03061 0.11385 -0.14949
-0.09939 -0.03829 0.02935
0.06136 -0.04108 0.02852
-0.09074 -0.10376 0.12367
-0.05760 -0.05063 0.03548
0.00535 -0.08433 0.05853
0.07919 -0.13114 0.13417
-0.00708 0.08881 -0.11438
-0.08432 -0.14500 0.14970
0.12044 0.05660 -0.05724
0.00574 -0.05163 -0.00681
-0.01821 -0.04623 0.12395
-0.01098 0.13151 -0.13979
-0.00990 -0.06124 0.03344
-0.00939 -0.16465 0.28166
0.01712 0.09731 -0.13257
-0.12056 -0.12164 0.11327
0.01473 -0.02026 0.02908
-0.03013 -0.02226 0.08800
-0.05262 -0.18829 0.20895
-0.10765 -0.22707 0.23725
-0.10171 -0.09087 0.09325
-0.10768 -0.22687 0.23692
-0.11590 -0.00067 0.01490
0.02884 -0.02032 0.04282
0.13009 -0.04378 0.05221
-0.01766 0.01542 -0.04153
-0.12393 0.00185 -0.01733
0.10464 -0.21615 0.23532
-0.12926 0.00705 -0.01225
-0.14473 -0.13899 0.14349
-0.02991 -0.13813 0.15399
0.00941 -0.31161 0.39395
-0.01263 0.06579 -0.10678
0.10900 -0.14368 0.14335
0.10896 -0.14487 0.14386
-0.10447 -0.11420 0.10231
0.11046 -0.24715 0.25214
-0.04685 -0.28357 0.31642
-0.00466 -0.00525 -0.01926
-0.02614 0.08267 -0.12500
0.06917 0.04416 -0.04352
-0.06737 -0.03632 0.02682
-0.00872 -0.01929 -0.02955
0.04430 0.01890 -0.02416
0.08528 -0.11128 0.12045
-0.02644 0.04654 -0.04878
0.00763 -0.00089 -0.03519
-0.00988 -0.00410 -0.03238
-0.06055 -0.31755 0.31280
0.07307 -0.31334 0.31433
0.06579 -0.03569 0.02414
0.02568 0.03340 -0.19362
0.09766 0.00680 -0.01277
0.10862 -0.13135 0.15327
0.04882 0.09934 -0.10900
0.04941 0.02298 -0.03087
0.04940 0.02303 -0.03131
0.05252 -0.29503 0.27790
0.02600 0.06036 -0.06079
0.05526 -0.08707 0.07457
0.04603 0.07683 -0.08422
-0.02400 0.03221 -0.05919
0.00315 0.01336 -0.05926
-0.03418 -0.05834 -0.02574
0.07165 -0.03536 0.07910
0.10790 -0.09512 0.08747
0.05201 0.04475 -0.06100
-0.10025 -0.15427 0.14740
0.08924 0.00184 0.00194
0.09080 -0.00869 0.00641
-0.04962 -0.01136 -0.01342
-0.08817 -0.02972 0.02902
-0.08851 -0.03007 0.03018
0.01015 0.02634 -0.05489
0.03789 -0.04167 0.03872
0.01315 0.05419 -0.09477
0.02123 0.10170 -0.13910
0.01521 0.10051 -0.13360
0.00149 0.09797 -0.13304
-0.06046 -0.05832 0.04272
0.01431 0.04323 -0.08069
-0.10488 -0.09772 0.08337
-0.06178 0.04143 -0.06239
0.10754 -0.12146 0.11548
0.07111 -0.07880 0.06279
0.08655 0.01259 -0.06304
0.06103 -0.29372 0.29302
0.00977 0.05105 -0.11155
0.02401 0.10463 -0.14676
0.02011 0.09556 -0.13294
0.04907 0.05889 -0.07057
0.07027 0.01074 0.00837
0.05005 0.05664 -0.07102
0.08748 -0.02482 0.02797
0.10098 -0.05377 0.04455
0.07678 -0.06948 0.06849
-0.10808 -0.03392 0.02258
-0.04928 -0.15162 0.13635
0.04083 -0.10847 0.10018
0.10695 -0.02519 0.01440
0.08384 0.08292 -0.11044
-0.09784 -0.02178 0.08354
-0.04096 -0.27763 0.28763
-0.07170 -0.03517 0.02365
-0.03164 0.02288 -0.01642
0.02275 0.09071 -0.12186
0.04642 0.09116 -0.09998
-0.01121 0.02886 -0.03722
0.04281 -0.08260 0.07880
0.00900 0.06164 -0.09438
0.08638 -0.06920 0.07480
0.04630 0.08446 -0.09011
0.07970 -0.03193 0.03415
0.03236 0.03664 -0.02643
-0.02676 -0.04313 0.05176
0.05895 0.03178 -0.04856
-0.05894 0.06533 -0.08484
0.03463 0.06448 -0.06047
0.05393 0.05946 -0.08012
-0.02394 0.08994 -0.13646
0.01156 0.10624 -0.13070
0.05367 0.09902 -0.11383
-0.07970 -0.02961 0.02597
0.02127 0.08962 -0.12598
-0.01141 0.11114 -0.13934
-0.00079 0.09118 -0.12630
-0.10831 -0.22671 0.23299
0.02959 0.02227 -0.00918
-0.10471 -0.06177 0.04743
-0.00455 0.02787 -0.07062
0.00885 0.10028 -0.12148
-0.04414 -0.07642 0.06875
-0.04312 -0.08980 0.07541
-0.09725 0.02163 -0.02255
-0.03726 -0.19552 0.19369
-0.11963 -0.00152 -0.01312
-0.05106 -0.03661 0.02315
0.04624 0.08770 -0.09582
0.05116 0.07969 -0.09784
0.04589 0.08759 -0.09313
-0.04435 -0.10730 0.10223
-0.01756 0.11289 -0.14008
-0.01861 0.06198 -0.10616
-0.00375 0.07909 -0.11774
-0.06531 0.04274 -0.06235
0.08139 0.05836 -0.08317
-0.10330 0.04676 -0.05634
-0.01478 -0.00286 -0.03186
0.01562 0.00523 -0.02799
-0.00936 0.04690 -0.09246
0.02839 0.10671 -0.14585
-0.06898 0.00020 0.00012
0.10188 -0.01425 0.00491
0.13088 -0.03493 0.04465
0.00118 -0.03447 -0.09968
0.00246 0.03063 -0.21964
0.07517 -0.04921 0.04581
-0.06521 0.01919 -0.02673
-0.02761 -0.09167 0.11169
-0.00408 -0.10156 0.07939
0.02083 -0.01163 0.01166
0.13105 0.06869 -0.05393
0.00790 0.19467 -0.17671
0.11996 -0.11742 0.11752
0.07765 0.13123 -0.16285
0.07871 0.13017 -0.16417
0.08371 0.14804 -0.17001
0.13065 0.07039 -0.05412
-0.00979 0.19913 -0.18593
-0.00980 0.19927 -0.18557
0.06940 0.08751 -0.11203
-0.00991 0.20053 -0.18642
0.02976 0.17073 -0.18775
-0.01926 0.19286 -0.17672
-0.01084 0.19780 -0.18236
-0.01492 0.18988 -0.18854
-0.01547 0.19332 -0.17942
-0.03387 0.16936 -0.18285
0.03429 0.11310 -0.14339
0.03432 -0.08759 0.09042
-0.01213 0.19579 -0.18792
0.05775 0.15257 -0.19479
0.08210 0.13436 -0.16684
0.12644 0.11922 -0.10209
0.02280 0.16688 -0.18001
-0.01783 0.19396 -0.17585
-0.00147 0.20248 -0.18663
0.06316 0.13484 -0.17465
0.06296 0.13008 -0.16375
-0.01655 0.19586 -0.17305
0.07002 -0.07152 0.06380
0.06163 0.14457 -0.15183
0.09730 0.07978 -0.08922
0.04208 -0.17079 0.17653
0.08251 0.09660 -0.11100
0.02828 0.17624 -0.19303
0.10858 0.07788 -0.09267
0.00363 0.19473 -0.17932
0.02046 0.11135 -0.14486
-0.00168 0.20161 -0.18511
0.06493 0.12861 -0.18194
0.08362 0.13072 -0.16652
0.02404 -0.00306 -0.00484
0.09886 -0.05341 0.04579
0.02741 0.17770 -0.18750
0.01187 0.16360 -0.14245
0.08533 0.09466 -0.11376
0.02288 0.17408 -0.17887
0.07837 0.16926 -0.18134
0.08442 0.13528 -0.16535
0.08381 0.13508 -0.16687
0.02101 0.17624 -0.18165
-0.07197 -0.15379 0.16750
0.02650 0.17729 -0.19142
0.09687 0.08113 -0.08959
0.06195 0.14177 -0.19245
0.00362 0.19261 -0.17863
0.00109 0.17760 -0.15704
0.07846 0.14919 -0.15896
0.04763 0.13048 -0.17688
0.09550 0.07061 -0.08478
0.12088 0.09037 -0.09036
0.01280 0.18679 -0.17334
0.07783 -0.02983 -0.01519
0.09759 0.07699 -0.08873
-0.05726 0.12527 -0.14569
0.08206 0.15178 -0.17595
0.01505 0.17195 -0.16352
-0.03428 -0.14269 0.14176
-0.04367 0.11948 -0.16250
-0.00491 0.15009 -0.13739
-0.01238 0.19548 -0.17837
-0.01238 0.19551 -0.17811
0.06021 0.11978 -0.13139
0.04573 0.15594 -0.19345
0.05814 0.14161 -0.16212
0.06474 0.12124 -0.12787
0.12274 0.08710 -0.08095
-0.00989 -0.06151 0.03419
0.03202 0.16875 -0.18888
0.08478 0.09311 -0.10350
-0.02082 0.18800 -0.17477
0.07462 0.13459 -0.16739
0.06262 0.08063 -0.08579
-0.00108 0.20110 -0.18724
0.04060 0.15098 -0.18381
0.10058 0.08251 -0.08710
0.01313 0.15596 -0.14497
0.00778 0.15076 -0.14440
0.06389 0.15975 -0.18742
-0.01151 0.09460 -0.11450
0.08077 -0.13021 0.13890
0.11901 -0.06807 0.06219
0.07650 0.13387 -0.16268
0.12728 -0.05599 0.06818
0.04214 0.16368 -0.19120
0.04755 0.13346 -0.14535
0.03100 0.17052 -0.17849
0.05505 0.14366 -0.18065
0.10164 0.08168 -0.09241
-0.02961 0.07718 -0.10321
0.04671 -0.04629 0.03626
0.10637 -0.00906 -0.00018
-0.02342 0.19031 -0.17496
0.10887 -0.02759 0.02087
-0.01711 0.15849 -0.14351
0.01697 0.15723 -0.16393
0.02640 0.13817 -0.15863
0.07828 0.15266 -0.17881
0.12485 0.11075 -0.09891
0.06446 0.11132 -0.10894
-0.05048 0.14785 -0.18614
-0.00276 0.17838 -0.16562
-0.01581 0.06724 -0.10822
0.01963 -0.05928 -0.00391
0.04875 0.12879 -0.14002
-0.01559 0.16715 -0.15391
0.03544 0.12797 -0.16152
0.01250 0.18882 -0.17266
-0.03412 0.16654 -0.17862
-0.02707 0.20010 -0.18569
0.04923 0.05450 -0.06785
0.07342 0.09192 -0.11605
0.03888 -0.07320 0.07055
-0.00632 0.08882 -0.11691
-0.00606 0.08880 -0.11896
0.07863 0.08972 -0.10973
0.02959 0.15766 -0.18087
-0.02007 0.16684 -0.15670
0.02458 0.16128 -0.17715
0.05792 -0.08323 0.09004
0.02912 0.16471 -0.18061
0.04614 0.10312 -0.13741
-0.00353 0.09439 -0.11992
0.03005 0.16638 -0.18423
-0.00492 0.14119 -0.13184
-0.00119 0.08985 -0.12428
-0.01509 0.05071 -0.09745
0.02029 0.16539 -0.19038
-0.04375 0.18371 -0.20213
0.04578 0.04907 -0.05518
-0.04467 0.11887 -0.15579
0.07394 0.17122 -0.18472
-0.01829 0.15533 -0.14259
0.00033 0.00226 -0.03856
0.06468 0.13017 -0.17327
0.08084 0.06070 -0.08485
0.00120 0.09259 -0.12752
0.08456 0.00620 0.02453
0.02389 0.15725 -0.17118
0.08528 0.09312 -0.11537
-0.11480 -0.15410 0.18659
0.02105 0.17464 -0.18900
-0.06042 0.06547 -0.08460
0.00088 0.09913 -0.13620
-0.02520 0.16390 -0.17007
0.04390 0.16355 -0.19215
0.09875 0.07430 -0.08591
-0.03257 0.17417 -0.18614
0.04352 -0.04466 0.03619
0.05719 0.13776 -0.18119
0.05794 0.13785 -0.17917
-0.06938 -0.00402 0.00637
0.03965 -0.04626 0.03880
0.01094 0.17760 -0.15767
-0.04347 0.18844 -0.20663
0.07642 0.07863 -0.10733
0.07392 0.14652 -0.16568
0.06606 0.12822 -0.17947
0.05519 0.16497 -0.19047
0.12657 0.07068 -0.04949
-0.00572 0.15649 -0.15704
-0.02096 0.10667 -0.13271
0.04757 -0.01611 0.01339
0.10184 0.08095 -0.08853
-0.00008 0.16144 -0.15041
-0.00008 0.16144 -0.15041
0.03546 0.12213 -0.15551
0.03189 0.12115 -0.15554
0.08398 -0.01739 0.01786
-0.02538 -0.07857 0.06980
-0.02223 0.15100 -0.14492
-0.06580 -0.11116 0.09881
-0.06753 0.11271 -0.12109
-0.07268 -0.08144 0.07295
0.03281 0.12525 -0.15854
0.06141 -0.04109 0.02884
0.01997 0.17312 -0.17801
0.04923 0.15209 -0.19358
0.10500 0.07601 -0.08471
-0.05198 0.09181 -0.10321
-0.05130 -0.07198 0.05681
0.08450 -0.08284 0.06852
0.08066 0.08981 -0.10892
0.10142 -0.02734 0.01776
0.02980 0.16796 -0.18336
0.13646 0.05937 -0.03562
-0.04856 -0.10410 0.09251
-0.07280 -0.09288 0.08501
0.08736 -0.02483 0.02786
-0.01128 0.09320 -0.11884
-0.08116 0.07018 -0.07452
0.01362 0.02917 -0.06527
0.00989 0.19479 -0.17566
0.09934 0.01890 -0.02580
0.03994 -0.11755 0.11315
-0.09494 -0.04033 0.03215
0.05142 0.13055 -0.14350
0.01903 0.15801 -0.17296
0.10371 0.06062 -0.07141
0.01920 0.10715 -0.15229
0.02792 0.17015 -0.18165
0.07822 0.08882 -0.10946
-0.03415 0.16770 -0.18122
0.04751 -0.10250 0.09019
0.02218 0.08132 -0.10316
0.05743 0.15666 -0.19064
-0.10883 -0.12671 0.11413
-0.10703 -0.12227 0.10556
0.04280 0.16592 -0.19268
-0.02820 -0.08526 0.10377
-0.00043 0.09332 -0.12825
-0.01475 0.05134 -0.09833
0.04000 -0.04610 0.03839
0.13023 0.00774 0.00065
0.01540 0.01669 -0.04624
0.13005 0.01045 -0.00004
0.05520 -0.13607 0.12218
0.01323 -0.04083 0.00888
0.13060 -0.01604 0.02591
0.02976 -0.07610 0.09840
-0.08305 -0.10508 0.11213
0.02160 0.00008 0.00606
0.01462 -0.31840 0.40137
-0.13753 -0.01171 0.01319
0.03966 -0.46259 0.62475
0.02098 0.01697 -0.03499
-0.00483 -0.26690 0.32933
-0.11517 -0.25699 0.25227
-0.11824 -0.26601 0.26679
0.01435 0.18667 -0.17399
0.03698 0.16482 -0.18763
-0.07502 0.12336 -0.15518
-0.11655 0.07862 -0.10337
-0.01081 0.21146 -0.20573
-0.07890 0.13027 -0.16829
-0.02775 -0.09201 0.11264
0.13562 0.10159 -0.07464
0.02993 0.17095 -0.18713
-0.00167 -0.30674 0.37887
-0.02950 -0.11532 0.13365
-0.00465 0.20917 -0.19681
-0.00943 0.19850 -0.18446
-0.08742 0.11542 -0.15380
0.02200 -0.35608 0.46620
0.07425 0.19776 -0.20381
0.07253 0.20133 -0.20377
0.07031 0.19942 -0.20849
0.07458 0.19167 -0.20407
0.02357 0.17922 -0.16008
-0.01088 0.21241 -0.19693
0.07169 0.20601 -0.20965
-0.09449 0.07957 -0.11231
0.08701 0.06996 -0.08055
0.14320 0.10943 -0.07517
0.02736 0.10316 -0.13862
0.09341 -0.03400 0.02877
-0.11718 0.06445 -0.08814
0.05720 0.03176 -0.05380
0.05732 0.03167 -0.05308
-0.01417 0.19145 -0.17301
-0.02142 0.03421 -0.06642
0.02786 -0.28337 0.33684
0.04698 0.15134 -0.19433
-0.03190 0.09714 -0.13498
0.14138 0.10256 -0.07273
0.14103 0.10266 -0.07354
0.06570 0.12911 -0.18016
0.06846 0.19858 -0.20825
0.00046 0.21237 -0.20046
-0.01020 0.19647 -0.17432
0.04726 0.14402 -0.18743
-0.02367 0.18671 -0.17215
-0.03816 0.10724 -0.14422
-0.02869 -0.02695 0.05082
0.10978 0.08001 -0.09151
0.07869 0.10892 -0.14817
-0.01612 0.09689 -0.12328
-0.08190 0.12949 -0.16738
0.07868 0.13018 -0.16367
-0.05705 0.14971 -0.19661
-0.05959 0.16504 -0.20392
0.04819 0.13351 -0.14309
-0.04413 0.21389 -0.21316
0.06765 0.19266 -0.20391
0.01377 -0.08189 0.09240
0.07795 0.10983 -0.15212
0.01924 0.18036 -0.18427
0.01904 0.17835 -0.18813
-0.03393 0.16938 -0.18184
-0.09257 -0.05572 0.06376
0.06241 0.13300 -0.18044
0.11156 0.07820 -0.08976
-0.10911 0.06769 -0.10937
0.03259 0.17508 -0.19552
0.07361 0.19766 -0.20586
0.07966 0.14306 -0.16411
0.01143 0.19388 -0.17991
0.06958 0.17320 -0.19475
0.01477 0.18624 -0.17784
0.14252 0.10638 -0.07579
0.04883 0.20343 -0.22610
0.05271 -0.26701 0.27525
0.12632 0.09341 -0.08209
0.14097 0.10629 -0.08028
0.04725 0.04923 -0.06404
0.00187 0.19405 -0.17929
0.05745 -0.29437 0.30211
0.08072 -0.03812 0.03811
0.02461 0.20023 -0.19640
-0.12993 0.06904 -0.07021
-0.08884 0.13574 -0.15917
-0.04715 0.18851 -0.20349
-0.00737 0.21244 -0.20231
0.06951 -0.05212 0.04442
0.07853 0.13272 -0.16551
-0.13245 0.03570 -0.03489
-0.00788 -0.04754 -0.04938
-0.04709 0.19317 -0.20749
-0.09980 -0.21742 0.23333
-0.05237 -0.09707 0.08013
0.12233 -0.10687 0.10507
0.12657 0.11484 -0.09843
0.03879 -0.07967 0.07502
0.03305 -0.44351 0.59118
0.02046 0.17315 -0.18287
0.08749 0.13966 -0.17182
-0.07675 0.14208 -0.17747
-0.07662 0.14197 -0.17753
0.01041 0.10055 -0.12582
-0.01930 0.19042 -0.17492
0.01661 0.21886 -0.20025
0.01490 0.09587 -0.12961
0.01494 0.09589 -0.12960
0.04777 0.14398 -0.18776
0.00210 0.21272 -0.19968
0.00210 0.21272 -0.19968
-0.00852 0.21154 -0.20808
-0.05577 0.14309 -0.19096
-0.11544 -0.27070 0.26956
-0.06817 0.15369 -0.19695
-0.05156 0.11132 -0.12006
-0.11767 -0.15406 0.15530
0.01508 0.19394 -0.18102
-0.03568 0.03420 -0.02427
-0.01390 0.19644 -0.18323
0.01939 0.16191 -0.20153
-0.01232 0.19009 -0.17458
0.06989 -0.11707 0.10840
-0.06261 0.13820 -0.17878
-0.00272 0.21046 -0.20159
0.09576 0.03805 -0.03411
0.01105 -0.05869 0.02806
-0.08094 0.12827 -0.16711
0.02938 0.11856 -0.15526
0.00813 0.19874 -0.18075
-0.00578 0.21392 -0.20840
0.00919 0.19719 -0.17889
0.07876 0.09419 -0.12373
0.04745 0.04489 -0.05927
-0.06295 0.13196 -0.18254
-0.01022 0.02191 -0.05998
-0.01454 0.09028 -0.11455
0.06262 0.15833 -0.18982
-0.08449 0.12461 -0.16413
0.07555 0.14847 -0.16748
0.01547 0.18527 -0.18086
0.06821 -0.20047 0.19464
0.05469 0.10071 -0.11822
-0.00509 0.21053 -0.20237
0.05518 0.07803 -0.09360
0.04787 0.08576 -0.08554
0.01528 0.04072 -0.06776
0.13249 0.01415 0.00101
0.01721 0.18284 -0.17385
0.00918 0.11337 -0.14354
-0.10851 0.07607 -0.09210
-0.02392 0.21091 -0.20467
-0.01673 0.19942 -0.18101
0.05575 0.08653 -0.21446
0.02050 0.13586 -0.15790
-0.05964 0.07510 -0.09369
-0.07226 0.11878 -0.12566
0.02446 0.15831 -0.17579
0.01826 0.17168 -0.17593
0.05295 0.14589 -0.17962
-0.08979 -0.05957 0.06075
0.03628 0.15929 -0.18429
-0.01074 0.17718 -0.15457
-0.01273 0.16754 -0.15008
0.03138 0.17047 -0.18770
-0.08589 0.07647 -0.10801
0.04923 0.05449 -0.06782
-0.00025 0.20050 -0.18494
0.09746 0.12344 -0.14261
-0.04499 0.15795 -0.18806
0.07336 0.19408 -0.20229
-0.06383 0.14080 -0.18615
-0.08318 0.12586 -0.16458
0.02142 0.20662 -0.19434
0.08351 0.17318 -0.19032
0.07213 0.19777 -0.20693
0.07672 0.19405 -0.19728
0.05332 0.16589 -0.20073
0.01706 0.09743 -0.13339
0.04653 0.08428 -0.09196
0.05501 0.14364 -0.18068
0.02103 0.16213 -0.17763
0.04345 0.16494 -0.19274
0.13071 -0.05609 0.06384
0.02475 0.19019 -0.19016
-0.06629 0.05085 -0.05790
0.10006 0.07974 -0.08926
0.33156 -0.10508 0.43711
0.00417 -0.25494 0.34557
0.11079 0.05998 -0.07041
-0.07061 -0.04733 0.03454
-0.07070 -0.04753 0.03467
-0.05041 0.08195 -0.09257
0.08386 0.08815 -0.11173
0.06483 0.03734 -0.03970
0.04376 0.10588 -0.10510
0.04376 0.10588 -0.10510
0.01034 -0.30614 0.37303
0.00332 0.11425 -0.13911
-0.00341 0.18791 -0.18009
0.02639 0.13866 -0.17012
0.02644 0.13867 -0.16988
0.02056 0.16364 -0.17343
0.00270 0.09522 -0.12875
0.11134 0.09947 -0.10586
-0.04042 0.11329 -0.15401
-0.01071 0.19021 -0.17112
-0.12078 -0.17914 0.19494
-0.06715 0.15396 -0.19639
-0.00381 0.16733 -0.14510
-0.02193 0.21408 -0.19937
-0.03943 0.11008 -0.14922
0.05242 0.07018 -0.08596
-0.07751 0.12756 -0.16534
0.03903 0.11266 -0.12176
0.02268 -0.37310 0.49658
-0.07908 0.07997 -0.11565
-0.08110 0.07945 -0.10798
0.13629 0.05177 -0.02466
0.00330 0.15612 -0.14384
-0.03874 0.14208 -0.17328
0.04509 0.14406 -0.18661
-0.10683 0.06696 -0.08567
-0.03606 0.15737 -0.17826
0.05937 0.12148 -0.13379
-0.00237 0.20165 -0.18868
-0.10502 -0.00246 -0.01197
0.02298 0.09416 -0.12993
0.00989 0.19684 -0.17736
0.07342 0.18977 -0.19161
-0.05081 0.08890 -0.09923
0.08250 0.14850 -0.17126
-0.11220 0.09177 -0.11060
0.06369 0.13317 -0.17979
0.12603 0.10186 -0.08975
0.01343 0.19333 -0.18144
0.00217 0.19801 -0.18297
0.06993 0.13955 -0.17161
-0.10127 -0.14301 0.13807
0.01398 0.04072 -0.06892
0.02630 0.19084 -0.19069
0.07812 0.10658 -0.14615
-0.00902 0.21348 -0.20231
-0.08128 -0.07242 0.07305
-0.00019 0.20095 -0.17962
0.11868 0.03516 -0.10520
-0.06557 0.14031 -0.18470
-0.05152 0.07023 -0.07727
0.01918 0.13444 -0.15563
0.01733 0.16345 -0.16962
0.07588 0.17197 -0.19036
-0.05757 0.02112 -0.02821
0.06894 -0.03281 0.02472
0.07067 0.14477 -0.17026
-0.01322 0.19069 -0.16765
0.10656 0.05692 -0.07661
0.04249 -0.08997 0.08376
0.03588 -0.45193 0.60066
-0.00592 0.06633 -0.09818
0.06668 0.12933 -0.16762
0.06043 0.04476 -0.06064
0.06101 0.04463 -0.05925
-0.08611 0.09950 -0.14342
-0.04690 0.19176 -0.20997
-0.01181 0.19714 -0.18256
0.00192 0.09421 -0.13534
0.03252 0.13385 -0.16791
-0.03282 0.10018 -0.13885
-0.03266 0.10012 -0.13896
-0.05083 0.07106 -0.08222
0.04754 0.05275 -0.06514
0.04172 -0.07032 0.06324
0.04728 0.09572 -0.10327
-0.10139 -0.07708 0.06754
0.00525 0.02172 -0.06346
-0.12486 -0.03968 0.02690
-0.05425 0.04880 -0.06772
0.04990 -0.30482 0.31234
0.12280 -0.01287 0.00582
0.11601 -0.22693 0.23102
0.05145 -0.19105 0.19034
-0.05177 0.07151 -0.08385
0.04695 0.14431 -0.18689
-0.00690 0.10914 -0.13973
0.12785 0.00415 0.00008
0.00556 0.10078 -0.11868
0.03187 -0.10862 0.13172
0.07372 0.09703 -0.12030
0.11937 -0.21578 0.22508
0.13082 -0.06108 0.06919
0.09659 -0.03226 0.02520
0.05490 0.03219 -0.05482
0.00862 0.06577 -0.10427
-0.09934 -0.27237 0.27151
0.06149 -0.27983 0.27957
0.00930 -0.06662 0.03674
0.01485 -0.31182 0.39878
-0.02615 -0.12679 0.12628
0.02064 -0.04569 0.03589
-0.02069 -0.03100 0.05652
-0.01745 0.02423 -0.05949
0.01296 -0.07274 -0.02469
0.12342 -0.01944 0.01732
0.10984 -0.13015 0.22648
0.10428 -0.18412 0.17217
0.01945 -0.32734 0.42093
-0.13691 0.04680 -0.04458
-0.00825 -0.06610 0.03754
-0.13176 0.05780 -0.06326
-0.12258 -0.11017 0.09950
0.00756 -0.32212 0.40968
-0.08064 -0.25131 0.27927
0.00077 -0.30038 0.40958
0.00736 -0.08763 0.06738
0.03663 -0.17500 0.19224
-0.12672 0.05980 -0.07341
0.03228 -0.11846 0.13855
0.01460 -0.03655 0.02142
0.38609 -0.02628 0.42627
0.11472 0.07135 -0.08154
-0.01362 0.04790 -0.09748
0.00117 -0.30560 0.38096
-0.03437 -0.19094 0.20026
0.09864 -0.04614 0.03776
-0.06077 -0.27036 0.27982
-0.02182 -0.30686 0.36739
0.00520 -0.31790 0.41834
-0.03612 -0.28464 0.31769
0.00579 -0.31386 0.40287
0.05724 -0.25540 0.25882
0.00920 0.05369 -0.10340
0.11783 -0.17186 0.15961
-0.06747 0.02259 -0.02931
-0.01337 -0.03745 0.01775
0.09925 -0.14756 0.14437
0.36510 -0.12062 0.47461
-0.00609 -0.34179 0.46708
0.03076 0.11464 -0.14952
0.10555 -0.27226 0.27358
-0.02214 -0.03736 0.03933
0.33378 -0.08840 0.38955
0.04390 -0.21723 0.24694
-0.04297 -0.20119 0.19197
0.00769 0.05496 -0.09690
-0.06404 0.13229 -0.18565
-0.00673 -0.31901 0.41807
-0.06708 0.04645 -0.05183
-0.08499 0.09716 -0.13556
0.04549 0.14380 -0.18780
-0.01774 0.05431 -0.09950
0.05271 -0.19094 0.18263
-0.01445 0.02139 -0.05106
-0.09746 -0.22430 0.24109
-0.04347 -0.32116 0.31278
0.06405 0.02356 -0.02879
0.11071 -0.22290 0.23524
0.06223 0.01811 -0.02549
0.06618 -0.31685 0.31063
-0.07636 0.11438 -0.14711
-0.09992 -0.27636 0.27307
-0.06229 0.04601 -0.06604
-0.00131 0.03724 -0.21968
-0.05490 -0.32032 0.30994
-0.07283 0.04038 -0.04532
-0.09355 0.10727 -0.14439
-0.11268 -0.01301 -0.00045
-0.02617 0.04208 -0.03231
-0.09616 0.06471 -0.09464
-0.09637 0.06453 -0.09412
0.10821 -0.19592 0.19863
-0.06566 0.08505 -0.09945
-0.00089 -0.07311 0.06120
0.08616 -0.03736 0.03825
-0.07104 0.03160 -0.03766
-0.00009 -0.03900 0.00193
0.00069 -0.09126 0.10189
0.01118 0.04810 -0.09215
-0.00694 -0.02214 0.00022
0.09753 0.04900 -0.05650
-0.11230 -0.14440 0.12604
-0.05073 -0.26790 0.26852
-0.02057 0.06598 -0.10730
0.01486 0.09595 -0.12971
-0.06188 0.08569 -0.11434
0.05074 0.04646 -0.06257
-0.08611 0.09945 -0.14331
-0.04485 -0.03250 0.03189
-0.11945 0.06912 -0.09069
-0.02178 0.06796 -0.10943
-0.05703 -0.03613 0.02058
-0.12403 -0.00797 -0.00442
0.04131 -0.07879 0.05798
-0.10633 -0.02531 0.01121
0.06826 -0.04350 0.03492
-0.01580 0.02600 -0.05819
-0.06930 0.07157 -0.07482
-0.00873 0.09954 -0.13555
0.09992 0.01424 -0.01967
0.02840 0.10426 -0.12310
0.00146 0.09780 -0.13702
0.06156 0.08773 -0.09476
-0.10625 -0.00907 0.01092
0.03780 0.14267 -0.17157
-0.06342 0.13333 -0.18243
0.05919 0.04569 -0.06087
-0.07506 0.10805 -0.13710
-0.01194 0.05028 -0.09882
0.11686 -0.21523 0.27789
0.04606 0.07692 -0.08466
-0.09778 0.12170 -0.16075
-0.06207 0.02643 -0.04618
0.02682 0.13458 -0.16350
0.00561 0.04904 -0.09466
0.01059 0.08606 -0.12275
0.03250 0.12321 -0.15733
-0.05549 0.02504 -0.03546
-0.07194 0.12265 -0.15846
0.02743 0.09748 -0.13309
-0.10808 0.06796 -0.08560
-0.02073 0.08337 -0.12106
0.11336 0.03701 -0.04127
-0.00241 0.05945 -0.10111
-0.03198 0.11379 -0.14822
-0.10097 -0.02290 0.01214
0.00239 0.04125 -0.08949
-0.11811 0.01600 -0.02814
-0.01520 0.06614 -0.09615
0.03057 0.11969 -0.15385
-0.06259 0.07357 -0.08984
-0.00777 0.03494 -0.08406
-0.09251 0.12317 -0.16395
0.08201 0.12724 -0.15963
-0.09692 -0.01296 0.00505
0.05023 0.04901 -0.06626
-0.09395 -0.17428 0.17378
-0.11037 -0.01765 0.00497
-0.03730 0.11822 -0.15356
0.02801 0.04765 -0.04349
-0.00065 0.12365 -0.14130
0.03968 0.03408 -0.03506
0.03877 0.03704 -0.04738
-0.04689 0.12802 -0.17051
-0.11193 -0.02154 0.00632
-0.08749 0.11285 -0.15293
0.10079 0.07669 -0.08667
0.11215 -0.00929 0.00300
-0.05032 0.01174 -0.02175
-0.05023 0.01197 -0.02259
0.07791 0.12314 -0.15536
0.04623 0.09259 -0.09960
-0.02013 0.10569 -0.12981
-0.02081 0.11794 -0.14219
0.03345 0.13442 -0.16828
0.06483 -0.20904 0.21058
0.05547 0.00049 0.04262
-0.01014 -0.26671 0.31867
-0.10973 0.07463 -0.09147
-0.10009 -0.02678 0.01464
0.00887 0.10027 -0.12142
-0.11485 -0.11849 0.10645
-0.05807 0.10632 -0.12785
-0.08497 0.12823 -0.16401
0.06182 -0.00050 -0.00820
0.09020 0.01913 -0.01529
0.06685 0.12758 -0.15561
-0.05270 0.05874 -0.07292
0.00685 0.06859 -0.11014
0.07381 0.00494 -0.00259
0.03741 0.00210 0.00000
-0.09568 -0.01563 0.00207
0.10114 -0.01084 0.00455
0.03070 0.11136 -0.14692
0.04825 0.07595 -0.08572
-0.05661 0.13336 -0.18230
-0.10264 -0.02691 0.01464
0.00398 0.10082 -0.13491
0.00366 0.13472 -0.14657
-0.04653 -0.04702 0.03376
-0.05902 0.06529 -0.08458
0.07022 -0.03838 0.03038
0.05754 0.13554 -0.18082
-0.06517 0.04734 -0.06609
-0.13678 0.06290 -0.03211
-0.10760 -0.02708 0.01063
-0.00062 0.10216 -0.13852
-0.03067 0.10626 -0.14076
-0.00264 0.04861 -0.08904
-0.10356 -0.02218 0.00873
0.05737 0.03532 -0.04206
-0.03859 -0.05444 0.04655
-0.10112 -0.01904 0.00933
-0.10897 0.06403 -0.08642
-0.05251 0.02099 -0.02182
-0.06477 0.05950 -0.07089
-0.04364 -0.04669 0.03522
0.02804 0.13530 -0.16486
-0.09497 -0.26339 0.27231
0.00840 -0.06380 0.02831
0.05451 -0.29966 0.31021
-0.00739 -0.26463 0.31777
-0.13460 -0.02494 0.02031
0.03606 0.12377 -0.15874
-0.11476 -0.14280 0.13355
-0.04651 0.11354 -0.13858
-0.06495 -0.01324 0.00218
-0.01617 0.07537 -0.11436
0.10694 -0.03217 0.02422
0.01873 0.03147 -0.05960
0.05646 -0.05210 0.03824
0.00866 0.06591 -0.10405
-0.00850 0.06934 -0.10824
0.00111 -0.08356 0.09344
0.01868 -0.25549 0.30931
0.10427 0.08990 -0.12900
-0.13250 0.03642 -0.03938
-0.13215 0.03331 -0.03614
0.04747 -0.00627 -0.00430
0.09845 0.04842 -0.05213
0.09331 0.00357 0.00637
-0.05245 0.12563 -0.14703
0.02789 0.04861 -0.04385
-0.06525 0.05062 -0.06744
0.07850 0.10898 -0.14877
-0.08515 -0.09861 0.11227
0.02666 -0.07305 0.10262
-0.02597 -0.02653 0.05150
0.10611 -0.03656 0.02719
0.10791 -0.10799 0.10125
0.02993 -0.08459 0.11124
0.09464 -0.14924 0.15639
-0.10284 -0.26424 0.28210
0.03132 0.12743 -0.15764
0.01829 0.10239 -0.13626
0.09890 -0.24755 0.25205
0.10389 -0.14176 0.13256
0.14569 -0.02087 0.05222
0.00276 0.03912 -0.08611
0.02373 -0.00613 0.01182
0.05087 0.04044 -0.04530
0.01505 0.02217 -0.06413
-0.07873 -0.13731 0.14296
0.03353 -0.04991 0.04618
0.11468 -0.26953 0.27322
-0.02205 0.04103 -0.05328
0.11322 -0.06627 0.04738
-0.12324 -0.03706 0.02572
-0.09432 -0.01015 0.00515
-0.07230 -0.03676 0.02811
-0.07356 -0.08313 0.07640
0.01559 -0.03603 0.00872
-0.01452 0.00805 -0.04572
0.07447 -0.17024 0.17049
-0.01700 0.04214 -0.07227
0.08472 0.07037 -0.08833
-0.02218 0.04054 -0.04453
0.08278 0.04989 -0.07487
0.03176 0.12568 -0.15937
0.11928 -0.15001 0.16069
0.06900 -0.26120 0.26711
0.00609 -0.32968 0.44069
0.04448 0.14713 -0.18515
-0.04173 -0.31755 0.31444
0.03105 0.08363 -0.05269
-0.06736 0.04300 -0.05823
-0.02483 0.05749 -0.08345
0.04741 0.05128 -0.06626
0.09870 -0.00559 0.00550
-0.05356 0.03092 -0.05602
0.07123 -0.26859 0.33313
-0.07782 -0.09780 0.07340
0.09783 0.04304 -0.04457
0.05753 -0.31861 0.31786
-0.00861 -0.05281 0.02283
-0.04610 -0.32302 0.31685
-0.06264 0.04786 -0.06745
0.03309 -0.05994 0.06317
-0.11226 -0.13328 0.12279
0.00696 -0.06477 0.03049
-0.06114 0.04828 -0.07076
-0.12505 -0.13260 0.13007
-0.10764 -0.14760 0.11401
-0.02735 -0.12879 0.14512
0.10576 -0.07921 0.06912
0.00668 -0.08024 0.07438
-0.06634 -0.05991 0.04441
-0.07346 -0.15397 0.15341
-0.06309 -0.04751 0.03282
0.10476 -0.23652 0.25404
-0.05171 0.13145 -0.15878
0.04544 0.04853 -0.07288
0.01337 0.02523 -0.06268
0.02322 0.12991 -0.15753
-0.06693 0.05223 -0.06145
-0.05602 0.14921 -0.19580
-0.02059 0.05865 -0.08459
0.12253 -0.26640 0.27054
-0.07919 -0.00626 0.05530
-0.07518 -0.14057 0.13971
-0.07877 0.03546 -0.03508
-0.13910 -0.34082 0.40774
0.01906 0.08819 -0.13835
0.03258 0.12196 -0.15455
0.08958 -0.03586 0.05004
0.12066 -0.00370 -0.00408
-0.04829 -0.13879 0.12611
-0.04828 -0.13859 0.12570
-0.01911 -0.03546 0.09957
0.03901 0.15106 -0.18363
-0.00152 -0.03882 -0.00148
-0.01455 -0.00277 -0.02744
0.06133 -0.15565 0.14431
-0.05082 0.04772 -0.06634
-0.06408 -0.02235 0.00652
0.04946 0.02299 -0.03118
0.08076 0.07037 -0.08840
-0.07462 -0.15604 0.17849
-0.11907 -0.26498 0.27140
0.06713 0.09482 -0.11890
-0.12663 -0.15451 0.15784
-0.02289 0.05281 -0.08711
0.01138 -0.04307 0.01224
0.00779 -0.17414 0.16563
0.02071 -0.30805 0.40234
0.01514 0.10043 -0.13838
-0.06420 -0.04115 0.02529
-0.08051 0.04108 -0.03823
-0.08051 0.04108 -0.03823
0.04650 -0.08293 0.06910
-0.06011 0.13218 -0.14839
0.04541 -0.06834 0.05763
0.03051 0.12605 -0.15827
0.11932 -0.27015 0.27680
0.02738 -0.06125 0.08128
-0.09481 -0.26617 0.27161
-0.06464 -0.04354 0.03022
0.04802 0.05627 -0.06972
0.10555 -0.22737 0.25023
-0.01501 0.11872 -0.14267
0.12400 -0.13503 0.14145
0.11517 -0.27349 0.27587
0.10257 -0.25522 0.27482
0.12008 -0.25088 0.26219
-0.07253 -0.10918 0.10053
-0.01079 0.04702 -0.09739
0.00379 0.07456 -0.11206
-0.02565 -0.01457 0.04777
-0.00822 0.09490 -0.31472
-0.01262 0.09779 -0.32224
-0.01262 0.09779 -0.32224
0.03783 -0.07622 0.07373
-0.06648 -0.04202 0.02674
-0.02721 -0.07226 0.09167
-0.00587 -0.08732 0.06306
0.01380 -0.23541 0.27737
-0.00870 -0.02774 0.00814
-0.02458 -0.05187 0.05022
-0.08324 -0.14618 0.14580
-0.01773 0.01706 -0.04703
-0.04779 0.12731 -0.16222
-0.02013 0.01125 -0.06515
-0.02166 -0.00066 -0.00944
-0.05424 0.14061 -0.19697
-0.01361 0.09465 -0.12009
-0.05739 0.13368 -0.17797
-0.06581 0.12484 -0.17790
-0.00105 -0.05132 0.01659
0.01460 -0.31430 0.43061
0.08919 -0.13773 0.14742
-0.07297 0.12945 -0.16028
-0.09323 0.14498 -0.17187
0.03424 -0.13109 0.14929
0.03760 -0.13287 0.13446
-0.03262 -0.12584 0.12811
-0.03033 -0.13313 0.15003
-0.07573 0.12611 -0.19171
-0.01769 0.00999 -0.03726
-0.06538 0.13667 -0.18707
-0.08616 0.14688 -0.17073
-0.06657 0.13987 -0.18787
-0.05461 0.13421 -0.18224
-0.02601 -0.00531 0.03734
-0.07434 0.12677 -0.15828
-0.06530 0.13987 -0.18736
-0.09138 0.14377 -0.16382
-0.09531 0.14579 -0.15361
-0.10340 0.10123 -0.12260
0.03169 -0.06911 0.05985
-0.03386 -0.19308 0.19765
-0.03377 -0.14379 0.14447
-0.04193 0.11408 -0.16013
0.04816 -0.18798 0.18147
-0.09280 0.14555 -0.16020
-0.08631 0.14188 -0.15671
-0.05009 0.11759 -0.12760
-0.00975 0.19883 -0.18108
-0.08900 0.14456 -0.16419
-0.08277 0.14175 -0.17901
-0.00466 -0.05419 0.02320
-0.07971 0.12297 -0.16822
0.04854 -0.15231 0.15251
-0.02635 0.08098 -0.12134
-0.03000 -0.02344 0.04769
-0.09310 0.14699 -0.17263
-0.08596 0.05909 -0.09584
-0.05406 0.13135 -0.13867
-0.00975 0.19461 -0.17963
0.01132 -0.04991 0.01719
-0.09068 0.14130 -0.17165
-0.06506 0.15274 -0.19272
-0.06708 0.13390 -0.18401
0.02631 0.18961 -0.18959
-0.00512 0.14961 -0.13911
-0.00480 0.20754 -0.20150
-0.01148 0.20756 -0.21100
-0.06506 0.13278 -0.19336
-0.04117 -0.28828 0.29329
0.04404 -0.16754 0.16783
0.01020 -0.30623 0.39614
-0.07029 0.15227 -0.19348
-0.09689 0.05917 -0.07885
0.00361 0.19505 -0.17874
0.03592 0.11931 -0.14930
-0.09621 0.14592 -0.15807
-0.06181 -0.14708 0.14239
-0.09259 0.14368 -0.15654
-0.02124 0.18563 -0.17223
0.02764 0.09593 -0.13301
0.02981 0.09537 -0.11306
-0.03512 0.16737 -0.18710
-0.09594 -0.04322 -0.03300
0.02608 0.16758 -0.19176
0.01440 0.18659 -0.17363
0.04608 0.13489 -0.14377
0.03024 0.09944 -0.12676
0.10779 -0.11797 0.11282
-0.05506 0.12929 -0.17768
-0.02178 0.17663 -0.15653
-0.07314 0.14924 -0.18631
0.00365 0.14746 -0.13403
-0.08089 0.13923 -0.18487
-0.10742 0.01527 -0.02673
-0.00331 0.06577 -0.10558
-0.14021 0.07543 -0.06470
-0.06376 0.14964 -0.19712
-0.07760 0.16430 -0.18408
-0.12181 0.07258 -0.09033
0.04172 -0.16214 0.13518
-0.10176 0.12739 -0.14933
-0.09450 0.12543 -0.16522
0.07716 0.03478 -0.02725
-0.00373 0.09026 -0.12064
-0.00312 0.15466 -0.13667
-0.03401 -0.18621 0.19668
0.10301 -0.03569 0.02693
0.03485 -0.08742 0.12555
-0.00066 0.01407 -0.06101
0.02469 0.20167 -0.19600
-0.02149 0.19124 -0.17798
0.05505 -0.13390 0.11575
-0.08425 0.14097 -0.16877
0.05188 0.08751 -0.10645
-0.12658 0.03412 -0.03576
-0.09552 0.10689 -0.14043
-0.08898 -0.04436 0.04497
-0.06971 0.13626 -0.17899
0.00878 0.07918 -0.11740
0.01006 0.03514 -0.07907
-0.02823 0.16714 -0.20709
-0.08414 0.14449 -0.17104
-0.00229 -0.14242 0.15644
0.09475 -0.14868 0.16159
0.01923 -0.23922 0.26757
-0.09645 -0.27123 0.26877
0.02906 0.12306 -0.15736
-0.03908 0.10573 -0.14010
0.01143 0.06654 -0.10561
0.09216 -0.13976 0.15340
-0.01002 0.03606 -0.07081
-0.04998 0.14890 -0.18829
0.02981 0.12206 -0.15674
-0.04161 0.18385 -0.19715
-0.03273 0.17813 -0.18855
-0.08218 0.17274 -0.16654
-0.02308 0.19762 -0.18577
-0.08173 0.07918 -0.10626
0.01279 -0.30893 0.39906
-0.08542 0.01659 -0.00018
-0.00252 0.14226 -0.12587
0.01188 0.18860 -0.16989
-0.02971 0.04642 -0.04334
0.03215 0.11832 -0.14356
-0.13227 0.03627 -0.03939
-0.11399 0.04422 -0.05740
-0.00796 0.21575 -0.20815
0.02014 0.05740 -0.06538
-0.06956 0.02232 -0.03013
-0.07506 0.10805 -0.13710
-0.00516 0.08464 -0.11002
-0.02200 0.05296 -0.07473
-0.10461 -0.14636 0.13641
-0.04722 0.08445 -0.08897
-0.00898 -0.02210 0.00003
0.00886 0.14352 -0.14200
-0.00408 0.08745 -0.11743
0.04372 -0.06120 0.05213
0.04743 0.08611 -0.08970
0.05594 -0.13131 0.11847
0.00785 -0.04631 0.00903
0.09507 -0.05322 0.04902
0.10332 -0.03675 0.02889
0.00418 0.09892 -0.13465
-0.07616 -0.03813 0.03553
0.01918 -0.07078 -0.04176
0.03328 -0.06857 0.07187
-0.00302 0.05437 -0.08663
0.02765 -0.04346 0.03952
0.03558 -0.08114 0.08007
0.03735 -0.42963 0.58463
0.06078 0.07409 -0.08322
-0.13420 0.05069 -0.05133
0.05705 -0.18289 0.19385
-0.13610 0.08265 -0.07989
-0.12607 0.06859 -0.05949
0.13533 0.10512 -0.08139
0.37803 -0.11019 0.52156
-0.13481 0.07048 -0.06796
-0.13751 0.00695 -0.00467
-0.13044 0.08623 -0.09375
0.39068 -0.08576 0.48702
0.01180 -0.32030 0.41878
0.07305 -0.17027 0.17157
0.12772 -0.05975 0.06368
0.04052 -0.18783 0.20271
0.37669 -0.06087 0.45796
0.03930 -0.62608 1.00000
-0.27533 0.11519 0.03110
-0.09280 -0.14000 0.14095
0.37085 -0.08611 0.47129
-0.06219 -0.27659 0.30123
0.00206 -0.09432 0.07103
-0.12222 -0.15378 0.14794
0.12097 -0.15032 0.15175
0.11669 -0.20541 0.21636
-0.13521 0.06391 -0.07063
-0.07824 0.12407 -0.18001
-0.06644 0.13948 -0.18589
-0.15062 0.13150 -0.11801
-0.11636 -0.17983 0.18058
0.04570 -0.21544 0.21195
0.01534 0.04074 -0.06792
0.01538 0.04162 -0.07196
-0.15778 0.14912 -0.11343
0.05114 0.01949 -0.04081
0.05114 0.01949 -0.04081
0.11248 0.07887 -0.08854
0.12438 -0.03428 0.03414
-0.00989 -0.02848 0.01237
-0.05224 -0.20343 0.19169
0.12022 -0.11624 0.13376
0.08406 -0.04039 0.04638
-0.04038 -0.08936 0.06490
-0.11007 -0.02466 0.00971
0.07492 -0.08856 0.08450
-0.03223 -0.08957 0.09098
-0.09395 -0.02019 0.01419
-0.13403 0.11245 -0.11188
0.02215 0.08373 -0.10819
-0.10227 0.13418 -0.17126
0.11662 0.14012 -0.13328
-0.09601 0.12267 -0.16073
0.04878 -0.07069 0.09162
-0.06142 -0.07897 0.06267
-0.07860 -0.02815 0.02101
0.06635 -0.38763 0.44624
-0.04377 -0.13665 0.12507
0.08235 0.12785 -0.16040
-0.07716 0.12257 -0.18442
0.04371 -0.04517 0.03698
0.10386 0.12302 -0.14361
0.11212 -0.23865 0.25282
0.10995 -0.23149 0.23754
-0.08463 -0.02584 0.02486
-0.08717 0.07332 -0.10577
-0.08952 -0.05444 0.05475
-0.04797 0.13075 -0.17605
-0.04851 -0.15899 0.17105
-0.11620 0.10071 -0.12033
0.03715 0.13259 -0.16648
-0.14804 0.15191 -0.13803
-0.03947 0.13310 -0.16586
0.11356 0.12730 -0.12614
0.01123 0.00368 -0.03406
-0.10763 0.04056 -0.05206
-0.01475 0.06719 -0.10737
-0.12559 0.01887 -0.02126
-0.07925 0.14714 -0.17342
-0.08215 0.12624 -0.16463
-0.06407 0.14852 -0.19570
-0.06329 -0.22686 0.28519
-0.07965 0.14634 -0.17298
-0.12803 -0.02418 0.01302
-0.00906 -0.06909 0.04245
0.03327 -0.12800 0.14765
0.12143 -0.06390 0.06143
-0.13066 -0.01226 0.00385
-0.04777 -0.19394 0.18249
0.10334 -0.21642 0.24082
-0.01876 0.07682 -0.11373
-0.04207 -0.30024 0.30672
0.00963 0.05743 -0.09683
0.04652 -0.07669 0.06450
-0.00254 0.06636 -0.10478
0.05572 -0.16875 0.15673
-0.03470 0.10661 -0.14351
-0.05468 0.02928 -0.05669
0.06722 -0.03298 0.02545
-0.13288 -0.03363 0.03182
-0.05320 0.05259 -0.07070
-0.10008 -0.20310 0.21114
0.10465 -0.23234 0.24187
-0.04386 -0.28197 0.28444
-0.12441 -0.13922 0.13609
-0.01968 0.04157 -0.07789
0.09905 -0.10695 0.10340
0.10466 -0.14326 0.13976
-0.13114 0.05427 -0.05999
-0.09323 0.14440 -0.17159
0.10511 0.08435 -0.10295
0.05900 0.04726 -0.06299
0.01481 0.05968 -0.08653
0.06032 0.15704 -0.19356
-0.07854 -0.13398 0.13460
-0.09963 -0.04849 0.04033
0.09308 0.06351 -0.05678
-0.05224 0.07122 -0.08295
0.07639 0.14488 -0.16458
0.02040 0.11138 -0.14534
-0.00073 0.01316 -0.05715
0.08849 -0.05344 0.05245
-0.10203 -0.04557 0.03824
-0.04180 -0.06794 0.05592
-0.06187 -0.09623 0.12091
0.09416 -0.00210 0.01390
-0.09141 -0.08498 0.08480
0.08347 0.01301 -0.03889
-0.06702 -0.07110 0.05682
0.11991 -0.10179 0.12161
-0.09503 -0.17825 0.18521
0.04533 0.04748 -0.06033
-0.09503 -0.04036 0.03223
-0.05063 -0.19484 0.20308
0.01513 0.09123 -0.12750
0.04516 -0.06427 0.05455
-0.10130 -0.09130 0.08061
0.07274 0.10845 -0.13988
0.10579 -0.18282 0.18387
-0.10019 -0.18763 0.18862
-0.01615 0.10135 -0.12443
-0.01615 0.10135 -0.12443
0.01452 -0.01307 -0.07251
0.08349 0.12936 -0.16523
0.09764 -0.08565 0.07890
0.09772 -0.10283 0.13263
-0.09223 -0.04535 0.04303
0.04943 0.05173 -0.06432
-0.10115 -0.08228 0.07135
-0.09151 -0.08069 0.08043
-0.06664 -0.05607 0.04165
-0.04647 -0.13357 0.11830
0.10402 -0.14395 0.14155
-0.01225 0.00357 -0.01901
0.01333 0.03143 -0.06842
0.06164 0.07110 -0.24156
-0.03731 -0.09841 0.09065
-0.11423 -0.01981 0.00334
-0.04980 -0.05595 0.03989
0.02965 -0.02149 0.05670
-0.04388 -0.00698 0.00504
-0.10993 -0.16192 0.15598
0.07925 0.14524 -0.16419
0.07928 0.14529 -0.16493
0.04987 0.05074 -0.06708
0.01844 0.03749 -0.06227
-0.05001 0.04341 -0.05881
0.07348 0.14696 -0.16918
0.05809 -0.08328 0.07102
0.02702 0.11617 -0.15273
0.09590 -0.05911 0.05564
0.08057 0.11368 -0.15124
-0.09760 -0.17484 0.17642
0.07231 0.10776 -0.13979
0.01038 0.06001 -0.09824
0.08671 0.13866 -0.17242
-0.12539 -0.08702 0.07612
0.05447 0.08123 -0.09885
-0.06048 -0.04294 0.02690
-0.09554 -0.06492 0.05713
-0.12797 -0.05138 0.04026
0.10573 0.10614 -0.12081
-0.08866 -0.03797 0.03430
0.05262 -0.26543 0.27589
0.07450 0.07087 -0.03049
0.07756 0.11217 -0.15031
-0.09276 -0.02683 0.02332
-0.00738 0.09527 -0.12069
-0.00016 0.01930 -0.06532
0.09904 -0.04671 0.03756
-0.10269 -0.05958 0.04526
-0.07396 -0.03175 0.05731
0.02048 -0.02143 -0.10131
-0.05262 -0.20971 0.19895
-0.03662 -0.16508 0.18652
0.04929 -0.13558 0.12398
-0.12706 -0.06954 0.05864
0.09124 -0.14484 0.15773
-0.06383 -0.09595 0.11957
0.05065 -0.15692 0.18050
0.10419 0.10774 -0.11914
-0.00011 0.11456 -0.13899
0.07296 0.13077 -0.16351
-0.11573 -0.04511 0.02929
0.12017 -0.05299 0.07435
-0.11562 -0.16243 0.15458
0.04283 -0.09885 0.09224
0.09986 -0.10015 0.09552
0.07318 0.09108 -0.11474
-0.10929 -0.07641 0.05975
0.06465 -0.10678 0.12845
0.06810 -0.11279 0.10172
0.05872 -0.09421 0.08347
-0.02261 0.07640 -0.11711
0.04621 0.04707 -0.06135
-0.09987 -0.09548 0.08322
-0.10379 -0.08410 0.06962
-0.09908 -0.09375 0.07979
0.00582 0.04631 -0.09308
-0.09877 -0.25821 0.26614
-0.05316 0.12929 -0.17671
0.01220 -0.04780 0.01664
-0.11600 -0.01704 0.00274
-0.09678 -0.07843 0.08951
-0.07952 0.00345 -0.01556
0.05986 -0.10200 0.08869
-0.10476 -0.18449 0.18793
0.07835 0.11017 -0.15076
-0.13856 -0.09467 0.13593
0.12438 -0.27786 0.36483
-0.06165 -0.30720 0.31601
-0.02985 -0.13156 0.15290
-0.00355 0.02376 -0.06908
-0.01459 0.06455 -0.10442
0.08716 -0.10091 0.13216
-0.05180 -0.18374 0.19111
0.13040 -0.04408 0.05348
0.00482 -0.14400 0.18360
0.00416 -0.12762 0.15011
0.13009 -0.06274 0.07194
0.36454 -0.11190 0.46808
0.35924 -0.11018 0.45476
0.03563 -0.32874 0.43031
0.04446 -0.09795 0.08830
0.36033 -0.14985 0.50387
0.35881 -0.14900 0.50047
0.00933 -0.28112 0.35275
-0.03328 -0.13444 0.13467
0.03507 -0.09670 0.09883
0.13018 0.04056 -0.04206
0.36907 -0.11352 0.46085
0.03460 -0.08758 0.09070
0.10322 -0.25222 0.26803
0.04297 -0.14045 0.17449
-0.10260 -0.20670 0.21674
-0.02005 -0.30775 0.41325
0.36252 -0.14906 0.49771
0.11729 -0.26724 0.27349
0.36439 -0.10262 0.50233
0.32073 -0.12790 0.48725
0.12739 -0.10802 0.11748
0.04809 -0.13653 0.14237
0.36527 -0.11597 0.46946
-0.09064 -0.14087 0.15077
-0.09983 -0.11025 0.10199
0.34795 -0.12053 0.46813
0.03806 -0.14090 0.14112
-0.06748 -0.09097 0.07738
-0.05400 -0.12437 0.10831
-0.05412 -0.12451 0.10875
0.35349 -0.09383 0.47990
0.06934 -0.13371 0.12474
0.04854 -0.33573 0.44539
0.09658 0.03108 -0.06439
-0.09812 -0.27159 0.26819
-0.09822 -0.27170 0.26888
-0.04217 -0.13497 0.12185
-0.04230 -0.13539 0.12305
0.12300 -0.11039 0.10871
0.35836 -0.09059 0.45168
0.04237 -0.13821 0.14401
0.35860 -0.09079 0.44301
-0.02785 -0.07658 0.09634
0.34740 -0.04201 0.41191
0.05574 -0.07430 0.03389
0.04050 -0.11844 0.11753
0.13571 0.02995 -0.01696
0.05303 -0.31822 0.38480
0.34719 -0.01546 0.38710
0.09049 0.04770 -0.05201
0.05795 -0.11383 0.11497
0.09705 0.01435 -0.02021
0.10129 -0.06191 0.05335
0.10129 -0.06191 0.05335
-0.00166 -0.30945 0.38661
0.04637 0.09132 -0.09909
0.07658 -0.13981 0.13390
0.10585 -0.08345 0.07374
0.10635 -0.08382 0.07561
0.09049 0.11418 -0.14319
0.05551 -0.18630 0.30230
0.06324 0.12867 -0.17964
0.03734 -0.06276 0.06219
0.02001 0.09554 -0.13378
-0.04798 -0.18838 0.17961
-0.04798 -0.18838 0.17961
0.34898 -0.11805 0.49172
0.05082 0.09848 -0.11493
0.08579 -0.09791 0.12852
0.05584 -0.13881 0.17909
0.35815 -0.12107 0.46987
-0.05634 -0.10311 0.09532
0.13156 -0.03298 0.04322
0.12712 -0.11977 0.12925
0.34852 -0.09574 0.44603
-0.06024 -0.12375 0.10828
0.36738 -0.09210 0.48790
-0.09780 -0.19306 0.20078
0.35268 -0.12552 0.47699
0.11789 -0.27250 0.27785
0.12387 0.03044 -0.03368
-0.10401 0.13521 -0.17135
0.03104 0.21802 -0.21240
0.03171 0.22051 -0.20876
0.12392 -0.10408 0.10056
0.07858 -0.14652 0.14978
0.31127 -0.13572 0.49523
-0.08559 -0.00700 0.01386
-0.05217 -0.32299 0.31709
0.07176 0.12386 -0.15068
-0.09971 -0.25262 0.26467
0.09786 -0.04595 0.03809
0.04876 -0.30852 0.31269
0.00562 -0.06941 0.03866
-0.00587 0.09233 -0.11951
0.09380 -0.03438 0.02959
0.05611 -0.07754 0.06445
-0.06778 0.15006 -0.19706
0.03092 -0.06910 0.06207
0.09048 -0.06847 0.06965
-0.12248 0.09666 -0.10971
0.09145 -0.09759 0.13689
-0.00205 -0.12451 0.24492
0.11016 -0.19061 0.20844
0.11134 -0.22344 0.24173
0.06211 -0.27151 0.28621
0.11951 -0.07258 0.06715
-0.13880 -0.01994 0.02133
0.12524 -0.01795 0.01752
-0.13774 -0.01243 0.01661
0.12009 0.07308 -0.06740
0.10641 0.04274 -0.05355
-0.14084 -0.07784 0.13483
-0.00362 -0.08815 0.07117
0.05954 -0.18259 0.16929
0.11692 -0.15121 0.14997
-0.07209 0.10685 -0.12646
0.09826 -0.18026 0.20158
-0.01973 0.07237 -0.11144
-0.08019 -0.04464 0.04584
0.06263 -0.21459 0.20795
0.15188 0.07065 -0.03534
0.03372 -0.17183 0.16886
-0.02444 0.07065 -0.11010
0.12960 0.07221 -0.06455
-0.04729 0.11377 -0.13362
0.11321 -0.15136 0.14555
-0.06626 0.13977 -0.18627
-0.13941 -0.09187 0.14428
0.00889 -0.05967 0.19496
0.04836 0.04843 -0.06140
0.00256 -0.03875 0.00113
0.09500 -0.13768 0.13821
-0.02381 -0.03477 0.05749
0.05146 -0.27356 0.27676
-0.00118 -0.32275 0.39476
0.13134 0.06931 -0.05581
0.09919 0.01938 -0.02535
-0.12713 -0.03126 0.01485
0.07428 0.09291 -0.11537
0.06041 -0.20312 0.19560
0.11089 -0.15384 0.14634
0.10827 -0.17108 0.17170
-0.18651 -0.10969 0.42539
0.00418 0.10050 -0.13417
-0.01694 0.05912 -0.10094
0.09567 -0.14051 0.15111
0.12028 -0.19111 0.19999
0.07688 -0.04035 0.03123
0.02291 0.10389 -0.13935
0.09496 -0.04426 0.04031
-0.10408 0.10905 -0.12877
-0.10400 0.10908 -0.12761
0.05586 -0.23301 0.23079
0.07746 -0.01739 0.05659
-0.01659 0.05020 -0.09551
-0.02445 0.09466 -0.13027
-0.00992 0.00115 -0.00846
0.03790 0.12952 -0.16447
0.01636 -0.38930 0.55211
-0.11378 0.11208 -0.13718
0.03237 -0.06728 0.06872
-0.03344 0.11631 -0.15054
-0.05704 0.15028 -0.19734
0.04495 -0.21696 0.22013
0.05870 -0.24462 0.24573
0.00983 0.05392 -0.09873
0.10078 -0.18073 0.18926
0.09554 -0.06233 0.05843
-0.05019 0.05161 -0.06447
-0.11017 0.07057 -0.09101
-0.09423 0.12300 -0.16435
-0.04227 0.01820 -0.02419
0.11708 -0.18288 0.19019
0.09799 -0.10609 0.10441
-0.00660 0.06265 -0.10284
-0.07865 0.10837 -0.14248
-0.03391 0.10703 -0.14480
0.10391 -0.06103 0.05309
-0.08706 0.12349 -0.16384
0.07720 0.02593 -0.02653
-0.12022 0.01573 -0.02371
0.00864 0.06103 -0.10103
-0.10265 0.02697 -0.02309
0.08376 0.08822 -0.11187
0.06316 -0.10273 0.08940
0.06312 -0.10263 0.08914
0.09058 -0.00871 0.00612
-0.01407 0.09928 -0.12478
-0.05537 -0.32093 0.31643
-0.04191 -0.25975 0.26470
0.03506 0.12495 -0.15969
-0.10513 0.12623 -0.15172
-0.09662 0.09875 -0.12024
0.03638 0.14129 -0.17388
-0.12307 -0.00765 -0.00466
-0.11577 0.08538 -0.11061
0.01725 0.02548 -0.06304
-0.00048 0.09513 -0.12923
0.05761 -0.20050 0.19515
-0.06621 0.15075 -0.19683
-0.05776 -0.26252 0.26435
-0.11168 -0.23638 0.23631
-0.05524 -0.28562 0.28616
-0.00655 0.10386 -0.13800
0.04685 -0.11097 0.10175
-0.12102 0.07690 -0.09015
-0.12092 0.07699 -0.09171
-0.13016 -0.04242 0.03659
-0.03116 0.10478 -0.14263
0.00004 -0.03794 0.00196
0.05401 -0.09543 0.08265
0.10297 -0.26668 0.27037
-0.06122 -0.29345 0.30137
-0.05161 0.08502 -0.09667
-0.06488 0.15102 -0.19678
0.00793 0.05405 -0.09786
-0.02678 -0.05814 0.06899
-0.08959 0.11153 -0.15188
-0.02871 -0.10982 0.13107
-0.00170 0.00206 -0.02309
0.11882 -0.08604 0.07622
0.09885 -0.18642 0.19987
0.14077 -0.22118 0.25498
0.10226 -0.19915 0.21170
-0.18825 -0.00858 0.15670
-0.01736 -0.03955 0.02699
-0.09878 -0.01436 0.00525
-0.05192 -0.00503 -0.00755
0.02214 0.00398 0.00745
-0.00374 0.07734 -0.10765
0.12156 -0.26261 0.26706
-0.08955 0.18740 -0.18438
-0.00556 -0.30357 0.37025
0.03372 0.21683 -0.21534
-0.04344 0.21677 -0.21737
-0.00821 0.12007 -0.35508
0.13248 -0.00641 0.01754
-0.02360 -0.30828 0.36200
-0.04774 0.21261 -0.21271
0.06385 -0.20953 0.24585
0.00680 0.09206 -0.12034
0.00502 -0.28732 0.32256
-0.12676 0.13699 -0.14316
0.08809 0.21640 -0.22220
0.10140 0.17220 -0.20086
0.08878 0.20618 -0.21017
0.03708 0.21534 -0.21710
-0.14985 0.16715 -0.15381
0.07969 0.13938 -0.16329
0.04629 0.19108 -0.21411
-0.07039 0.10367 -0.10788
-0.13233 0.10692 -0.15435
0.13078 0.14856 -0.11034
0.09306 0.04096 -0.04481
0.10835 -0.00121 0.00018
0.07434 0.20073 -0.21075
0.14912 0.01870 -0.03016
-0.05489 -0.00700 -0.00640
-0.13835 0.10456 -0.14276
-0.05726 0.18989 -0.21380
0.04320 0.21212 -0.22297
0.07523 0.19359 -0.19427
-0.00957 0.21591 -0.20436
-0.05208 0.20791 -0.21505
0.06687 0.18570 -0.20095
0.04453 0.12044 -0.11792
0.02640 0.20374 -0.23561
-0.08318 0.09675 -0.12554
0.01960 0.20022 -0.18787
-0.05469 -0.08894 0.07298
-0.14830 0.16476 -0.16010
0.03371 -0.08955 0.09610
0.10852 -0.12339 0.11952
-0.04684 0.19240 -0.20665
0.07796 0.09851 -0.11895
0.03353 0.21496 -0.21173
0.03353 0.21496 -0.21173
-0.05509 -0.07982 0.06497
0.07211 0.17035 -0.18872
0.04654 0.13506 -0.14607
-0.06593 -0.10649 0.14142
0.14495 0.10246 -0.06629
-0.01094 0.21582 -0.20614
0.08109 -0.00086 0.00764
0.09119 0.21214 -0.21754
0.10042 0.17488 -0.20331
-0.00726 0.21189 -0.20324
0.02453 0.15843 -0.17516
0.00823 0.10335 -0.12216
0.06516 0.19454 -0.21461
-0.03156 0.02313 -0.01778
-0.06657 0.13926 -0.18875
0.04809 0.12818 -0.13623
0.10606 -0.13706 0.13300
-0.04480 0.12240 -0.16207
0.09962 0.20511 -0.21730
0.09928 0.20492 -0.21834
0.03499 0.18161 -0.19893
-0.05189 0.08096 -0.08673
0.03737 0.21555 -0.22427
0.00687 0.01061 -0.04623
-0.05624 0.15139 -0.19579
-0.12645 -0.08912 0.08273
0.03060 0.11491 -0.15087
-0.06525 -0.12601 0.11145
-0.10599 -0.05306 0.04016
-0.04755 -0.12215 0.10604
-0.04760 -0.12225 0.10706
0.06036 0.09480 -0.10676
0.09387 0.03653 -0.03794
-0.11932 -0.04369 0.02940
0.04891 0.01893 -0.02359
0.07875 -0.05051 0.01222
-0.04371 0.10522 -0.14843
0.00839 -0.04134 0.00842
-0.01121 -0.01141 -0.02464
-0.02383 0.19206 -0.17685
-0.00985 -0.30454 0.36733
-0.04101 0.11753 -0.15438
0.02999 0.10758 -0.14354
-0.00098 0.20050 -0.18091
-0.07077 0.14911 -0.18992
-0.00753 0.21888 -0.21262
0.00444 0.09654 -0.12822
0.07138 0.19666 -0.20852
0.02986 0.02214 -0.00741
0.04813 0.19469 -0.21445
-0.00277 0.14517 -0.14106
0.08782 0.21610 -0.22434
0.09143 0.22078 -0.21852
-0.04187 -0.09184 0.08029
-0.06437 0.07832 -0.09798
0.03337 0.20989 -0.20998
0.05381 0.03432 -0.05764
0.01597 0.19806 -0.18517
0.04939 -0.06319 0.05245
0.03286 0.14742 -0.17513
-0.00506 0.20834 -0.20028
