# .PCD v.7 - Point Cloud Data file format
VERSION .7
FIELDS x y z
SIZE 4 4 4
TYPE F F F
COUNT 1 1 1
WIDTH 1874
HEIGHT 1
VIEWPOINT 0 0 0 1 0 0 0
POINTS 1874
DATA ascii
-0.18370 -0.02952 0.04719
0.09097 0.01698 0.03356
0.01889 -0.02114 0.11189
-0.21668 -0.02612 0.04273
-0.04377 -0.02019 0.02658
-0.01578 0.01379 -0.04614
-0.05582 0.09536 -0.30006
0.11620 -0.10906 0.15384
0.11586 -0.10914 0.14954
0.08162 0.06267 -0.18720
-0.20946 -0.08900 0.08144
-0.20944 -0.04662 0.04851
-0.21184 -0.15723 0.22370
-0.23279 -0.12053 0.12917
0.30068 -0.03529 0.48729
-0.14370 0.00728 -0.00126
-0.20533 -0.09360 0.09887
-0.22187 -0.07656 0.06268
-0.21903 -0.02223 0.04105
0.15420 -0.03445 0.12836
-0.01439 0.04454 -0.17348
-0.20349 -0.05418 0.03361
-0.02138 0.05241 -0.18328
-0.02143 0.05241 -0.18328
-0.18976 -0.00467 0.02658
-0.03086 0.06692 -0.22987
-0.18464 -0.01993 0.05172
0.03858 0.01498 -0.04398
0.05675 -0.05092 -0.87284
-0.05880 0.04138 -0.14524
-0.19722 -0.02158 0.03637
0.01352 0.06375 -0.24676
-0.02836 -0.01314 0.04421
-0.22361 -0.07706 0.08633
-0.04683 0.01885 -0.04524
0.02343 0.06194 -0.23608
0.02972 0.05938 -0.21635
0.02967 -0.08208 0.14274
-0.19684 -0.13855 0.17026
0.11586 -0.09985 0.14948
0.12419 -0.09572 0.16096
0.06391 -0.00492 0.02873
0.01894 -0.01846 0.08383
-0.19552 -0.11064 0.13901
-0.00134 0.01163 -0.04397
0.01325 0.01432 -0.04711
0.02120 0.02476 -0.09300
-0.01664 0.01895 -0.07343
-0.05011 0.02268 -0.06689
-0.06056 0.06247 -0.18957
0.07280 0.03504 -0.09339
0.08306 0.06660 -0.20199
-0.04002 0.03736 -0.13343
-0.10105 0.04436 -0.10923
0.13046 -0.09379 0.17650
0.04525 0.02137 -0.06772
-0.00652 0.05378 -0.18743
0.01432 0.05143 -0.18450
-0.04330 0.04524 -0.15073
-0.01400 0.04985 -0.17961
-0.05365 0.05008 -0.15970
0.04452 0.06178 -0.21541
-0.03472 0.03935 -0.13309
0.01107 0.04268 -0.15892
0.03232 0.03915 -0.13588
0.02295 0.05939 -0.21191
-0.06003 0.05479 -0.16969
0.01663 0.04553 -0.17363
0.04851 0.04246 -0.14788
-0.14658 -0.09027 0.12651
0.03299 0.03586 -0.12623
-0.04661 0.02558 -0.08118
0.00842 0.03381 -0.12048
-0.03755 0.04747 -0.16028
-0.00329 0.05045 -0.18631
0.03387 0.05283 -0.19160
0.04737 0.04124 -0.14336
0.23440 -0.09619 0.45458
-0.02782 0.04599 -0.15938
0.04174 0.05394 -0.20028
0.03713 0.05066 -0.18484
0.09012 0.05697 -0.16025
0.03173 0.05464 -0.19374
-0.04734 0.03960 -0.12870
0.01692 0.05600 -0.08619
0.08467 0.06757 -0.20169
-0.00926 -0.07948 0.21213
-0.08558 -0.10875 0.07249
-0.04402 0.05221 -0.17697
0.02987 0.05266 -0.19112
0.00012 0.04543 -0.15707
0.05762 0.05460 -0.18837
0.03165 0.05004 -0.17961
0.04345 0.04392 -0.14631
-0.05958 0.04919 -0.14663
0.04349 -0.06376 0.16266
-0.00965 0.03585 -0.12443
-0.00963 0.03543 -0.12772
0.03633 0.02713 -0.09277
0.03750 0.05518 -0.19712
-0.00035 -0.00059 0.00245
-0.00035 -0.00059 0.00245
0.12363 0.07052 -0.20403
0.02166 0.01672 -0.06636
0.02159 0.01670 -0.06561
-0.02873 0.04238 -0.15138
0.04542 0.06476 -0.22509
-0.03190 0.04099 -0.14366
0.05596 -0.10762 0.18338
0.04563 -0.06692 0.16246
-0.10090 -0.12177 0.09525
0.17881 -0.06712 0.27030
0.04460 0.05151 -0.18775
-0.00993 0.06168 -0.23259
-0.03765 0.03900 -0.13029
0.05421 0.05643 -0.19562
0.21425 0.08969 -0.20742
0.05347 0.04888 -0.16106
-0.04905 -0.10958 0.16534
0.00410 -0.05560 0.19983
-0.03637 -0.10888 0.15801
0.07664 -0.11706 0.22279
-0.05420 -0.03874 0.03150
-0.10236 0.06910 -0.20571
-0.00640 0.08507 -0.29682
-0.01716 0.06229 -0.21703
0.02405 -0.01391 0.04742
0.03490 -0.10566 0.18077
-0.04960 0.00201 -0.02895
-0.02021 0.06420 -0.22024
-0.01475 0.05945 -0.21408
0.03173 -0.01811 0.07213
0.02331 -0.01365 0.04208
-0.01388 0.05901 -0.21101
0.00663 0.00552 -0.01693
-0.14752 0.07994 -0.17192
0.04285 -0.08430 0.16872
0.04285 -0.08430 0.16872
-0.01152 0.00046 0.00197
0.06478 -0.11002 0.19333
0.10149 -0.03788 0.11503
0.05985 -0.01312 -0.80567
-0.09274 -0.10329 0.07686
0.04233 -0.07483 0.15437
0.01874 0.06419 -0.25457
0.18203 0.06873 -0.06235
-0.11725 -0.10386 0.11060
-0.09489 -0.08990 0.07788
-0.04526 -0.12469 0.18842
-0.01205 -0.00257 0.01316
0.18813 0.06331 -0.15035
-0.03340 -0.10438 0.17570
0.02639 0.00326 -0.00046
-0.14436 0.07777 -0.46484
-0.02087 0.05836 -0.20630
0.01388 0.06076 -0.24787
0.29724 -0.01043 0.36464
-0.18539 0.01805 -0.07215
0.01554 0.00205 -0.00335
-0.08123 -0.11260 0.07330
0.29847 -0.01004 0.36845
0.04431 -0.04526 -0.94862
-0.07129 0.07490 -0.50138
-0.04326 0.05068 -0.15724
0.03809 -0.08625 0.17071
0.02784 0.02959 -0.11037
-0.06742 0.03241 -0.08410
-0.05946 0.02527 -0.07407
-0.01687 0.00259 -0.00751
-0.03443 -0.00396 0.01429
0.10603 0.04263 -0.06941
-0.17414 0.02596 -0.09571
-0.17971 -0.10649 0.16084
-0.02578 0.00448 -0.02052
-0.17752 -0.13770 0.19788
0.06229 0.03775 -0.11610
0.02955 -0.10156 0.18252
0.02786 -0.09875 0.13376
-0.05820 -0.12209 0.14339
-0.05087 0.09055 -0.27622
0.02626 0.06460 -0.26500
-0.04948 0.08678 -0.29382
-0.18343 0.02483 -0.08626
0.14845 0.03406 0.03684
-0.14234 0.05039 -0.12874
0.04236 -0.07986 0.16315
-0.01456 0.04789 -0.15804
0.02314 0.02646 -0.09474
-0.10618 -0.02262 -0.00598
-0.03037 0.04541 -0.14900
-0.17605 0.02318 -0.09075
-0.16636 0.04321 -0.11568
-0.15740 0.02439 -0.07609
0.07766 0.04357 -0.11967
-0.09240 -0.12528 0.08971
-0.01497 -0.07365 0.20619
-0.05843 0.04405 -0.13180
-0.10216 -0.10041 0.08576
0.03338 0.03795 -0.13192
-0.17868 0.02764 -0.08939
-0.14443 0.03939 -0.10171
0.00245 -0.09994 0.24544
-0.03651 0.07492 -0.43198
-0.01190 0.06152 -0.21478
0.00558 -0.00381 0.01792
0.01388 -0.00751 0.03786
0.06560 0.03414 -0.09487
0.05880 0.04062 -0.13341
0.02234 -0.02600 0.13984
-0.14651 0.05000 -0.12372
0.05322 0.03867 -0.13580
0.02733 -0.00055 0.00677
-0.08664 -0.10545 0.07593
-0.09571 0.05442 -0.12393
-0.00818 -0.02174 0.04860
0.05633 0.03708 -0.12421
0.00972 0.02790 -0.10164
0.02015 -0.01127 0.05900
-0.05696 0.03459 -0.09654
-0.14612 0.04654 -0.11782
0.08012 0.00201 -0.74318
-0.18303 0.02020 -0.07312
0.04300 -0.09684 0.18347
-0.00252 -0.09414 0.21684
0.05653 0.01176 0.00289
0.05288 0.03433 -0.11226
-0.11449 -0.11232 0.08090
0.05394 0.03523 -0.11345
-0.09368 -0.09050 0.07800
-0.22795 -0.12519 0.13769
-0.01947 0.04436 -0.15406
-0.05767 0.04613 -0.12100
-0.10049 -0.09210 0.08516
0.05765 -0.05656 0.16008
0.04907 0.03070 -0.10966
-0.19761 -0.06924 0.07717
-0.16476 0.05305 -0.13215
0.14904 -0.00641 0.10438
0.01827 0.00736 -0.02439
0.12653 -0.03038 0.13196
-0.00486 0.07027 -0.27740
0.02486 0.08954 -0.21014
-0.09208 -0.14327 0.11933
0.08204 -0.05184 0.14142
-0.06142 -0.07840 0.07574
0.00914 0.07541 -0.27939
-0.01917 0.06313 -0.21836
0.08217 -0.12284 0.21330
0.27579 -0.02853 0.35759
-0.01935 0.03899 -0.13281
0.00013 0.05351 -0.19756
-0.18039 0.02506 -0.09782
0.05022 0.03707 -0.11267
-0.05402 0.04726 -0.15382
0.02287 -0.03851 0.16515
-0.05042 -0.12680 0.18618
0.02683 0.04377 -0.15484
0.28835 0.00039 0.33641
-0.11485 -0.07001 0.05705
-0.04307 -0.12189 0.17195
-0.20898 0.01181 -0.03620
0.04303 -0.02588 0.07424
-0.14934 0.04366 -0.09893
0.06415 0.01974 -0.53979
-0.10727 -0.09869 0.09318
-0.16054 0.10735 -0.26688
0.26127 -0.04908 0.43259
0.12792 0.09014 -0.25854
0.01803 0.00500 -0.00961
-0.07783 -0.08422 0.07478
-0.13722 0.08285 -0.26025
0.10369 -0.01167 0.11522
-0.05679 0.07305 -0.24094
-0.14440 -0.13059 0.24998
-0.09394 0.03626 -0.14813
0.02285 0.06029 0.16879
-0.00034 0.07648 -0.27530
-0.00757 -0.00313 0.01152
-0.06763 0.05997 -0.22720
0.11355 -0.09420 0.15314
-0.11040 -0.00014 -0.01816
0.24810 -0.10027 0.48068
0.23316 -0.11187 0.48442
0.12686 0.10421 -0.29836
-0.02202 0.03841 -0.13781
-0.02485 0.06407 -0.22245
0.10740 -0.08090 0.16685
-0.01705 -0.09621 0.21602
-0.00135 -0.07960 0.21626
-0.04400 0.05957 -0.22341
-0.05954 0.05265 -0.15937
-0.13344 0.08016 -0.24062
0.16753 0.02227 0.06823
-0.05542 -0.12052 0.17455
-0.08805 0.04317 -0.11817
0.02449 -0.03950 -0.92824
-0.08813 0.05476 -0.12932
-0.00633 0.06627 -0.23901
0.04162 -0.09642 0.14886
0.00492 0.00300 -0.00427
-0.05882 -0.12463 0.17838
-0.09274 -0.02662 -0.00177
0.00337 -0.08319 0.22474
0.01749 -0.04544 -0.92441
0.09579 -0.11918 0.19950
-0.16995 0.05795 -0.15209
-0.10021 0.06719 -0.16204
-0.03270 -0.11055 0.17501
-0.09455 0.07271 -0.21328
-0.06373 0.07595 -0.25471
-0.00146 -0.06488 0.20440
-0.11367 -0.02415 -0.00864
0.03262 -0.08863 0.17720
0.01032 0.06530 -0.24887
-0.18744 0.06557 -0.17499
0.01828 -0.03301 0.15375
-0.09949 0.00991 -0.08851
0.25636 0.01370 0.28604
-0.07294 -0.12490 0.07710
0.09881 0.03641 -0.05912
0.25636 0.01370 0.28604
-0.04117 -0.09401 0.15267
-0.04765 -0.12033 0.17793
-0.03153 -0.11506 0.19521
-0.05972 0.07484 -0.25533
-0.01429 -0.08694 0.21281
0.13442 0.08948 -0.23109
0.02536 0.06159 -0.23482
-0.21890 0.04873 -0.13168
-0.07590 -0.12269 0.08768
-0.06677 -0.12899 0.10418
-0.09589 0.10377 -0.26404
-0.21004 0.11278 -0.21253
-0.03331 0.04750 -0.16501
0.09030 0.08591 -0.22732
-0.09543 -0.12140 0.09615
-0.13809 0.08543 -0.38907
-0.04686 -0.07465 0.09297
-0.04102 -0.02264 -0.72992
-0.07735 -0.11662 0.08398
-0.08053 0.07380 -0.26583
0.01286 0.07319 -0.14295
-0.03295 -0.10529 0.13701
-0.17258 -0.03655 0.04257
0.02272 -0.05391 -1.00000
-0.03904 0.08753 -0.28673
0.11956 0.02966 -0.03518
0.03280 -0.08470 0.17569
-0.00334 -0.07730 0.21005
-0.10661 0.06846 -0.21110
-0.10644 0.06853 -0.21234
0.16773 0.06400 -0.39146
-0.01858 0.05533 -0.19418
-0.05659 0.06709 -0.23648
-0.16487 0.08310 -0.16363
0.04203 -0.08238 0.16819
0.20513 -0.07634 0.29741
-0.24064 0.07696 -0.15548
0.00032 0.05060 0.07182
-0.06192 -0.10742 0.07377
-0.03856 -0.09051 0.15103
-0.06762 -0.08322 0.08402
-0.14467 0.09211 -0.22677
-0.09099 0.07508 -0.49336
-0.08660 0.03593 -0.11009
-0.04200 -0.10916 0.16563
0.00117 -0.07573 0.20830
-0.01394 0.01638 -0.06317
-0.15833 0.10489 -0.25722
-0.06465 -0.10778 0.08263
0.11376 0.04375 -0.07564
0.00066 0.01677 -0.06633
-0.03283 -0.08390 0.16283
0.24329 -0.13659 0.52094
0.03028 0.05804 -0.21759
-0.24373 0.07775 -0.15722
-0.08694 -0.09934 0.06902
-0.06064 0.06256 -0.18858
-0.03133 -0.11603 0.19627
0.03151 -0.09927 0.17281
0.03145 -0.09953 0.17631
-0.24487 0.07895 -0.14302
-0.18014 0.09848 -0.21709
-0.16762 0.00657 0.01272
-0.15185 0.09986 -0.24641
-0.16177 0.02800 -0.08258
-0.20184 0.07543 -0.16342
-0.09566 -0.04107 0.01695
0.27363 -0.09960 0.48657
0.05609 0.04462 -0.15508
-0.03037 -0.11375 0.19469
0.01106 -0.03420 0.14511
0.04630 -0.04031 0.13363
0.08434 -0.01049 0.08707
-0.03167 0.05497 -0.26344
-0.00420 -0.09759 0.23094
-0.22861 -0.12899 0.14204
-0.00109 -0.08451 0.24029
0.11703 0.07003 -0.18276
0.02480 0.00375 -0.00439
0.02062 -0.09524 0.23818
-0.15317 0.08886 -0.18757
0.00955 0.05684 -0.20999
-0.04129 0.02898 -0.09340
-0.18162 0.01070 -0.05100
0.05970 -0.00959 0.03134
0.13885 -0.10206 0.17748
0.03705 -0.10094 0.17421
0.07682 -0.05802 0.14736
0.00996 -0.08159 0.23149
-0.15693 -0.11977 -0.09126
0.13417 -0.11962 0.20040
-0.23762 -0.15349 0.19996
0.12929 -0.12005 0.18899
0.03227 -0.09996 0.17626
0.03072 -0.10478 0.18664
0.03081 -0.10441 0.17968
-0.07894 -0.12607 0.08354
0.03328 -0.09235 0.17222
-0.08495 -0.11254 0.07134
-0.05794 -0.10880 0.10260
-0.16509 -0.14970 0.25245
0.02614 0.00939 -0.02510
0.01430 -0.08593 0.23360
-0.10468 -0.11171 0.09861
-0.08380 -0.09232 0.07252
-0.08375 -0.09223 0.07215
0.01097 -0.07470 0.23614
-0.04819 -0.10974 0.16708
-0.04052 0.03425 -0.11484
-0.03799 -0.10932 0.17151
-0.04364 -0.07840 0.13525
-0.03417 -0.07646 0.13684
0.02822 0.04172 -0.14943
-0.01930 -0.08446 0.20883
-0.03813 -0.10422 0.14909
0.04081 0.00653 -0.00846
0.02380 0.07117 -0.28464
-0.06543 -0.10666 0.08842
-0.08954 0.04366 -0.10558
-0.05241 -0.10675 0.13675
-0.03147 -0.11852 0.20045
0.06938 -0.00528 0.03558
-0.05095 0.00511 -0.02579
-0.05109 0.00554 -0.02200
0.12728 -0.04485 0.13411
-0.20787 -0.15514 0.22062
-0.01728 0.01724 -0.07072
0.01369 0.00241 -0.02368
-0.19905 -0.03472 0.05042
-0.07426 0.02077 -0.04796
-0.04159 -0.07513 0.10537
-0.02705 0.00671 -0.01563
-0.22046 -0.12504 0.14301
-0.07866 -0.12989 0.08467
0.04224 0.00742 -0.02007
-0.00095 0.06214 -0.24060
0.07349 -0.11974 0.21676
-0.17771 0.00741 -0.05012
0.01353 -0.07538 0.22775
-0.04880 0.01178 -0.04186
-0.14478 -0.07594 0.08474
0.02996 0.06347 -0.23952
-0.04971 0.00139 0.00144
-0.05063 -0.11855 0.18786
0.08665 0.03135 -0.05545
0.04590 -0.06837 0.15972
0.04283 0.06467 -0.23189
-0.17169 -0.13243 0.19578
0.00270 -0.07884 0.21716
-0.08964 -0.07460 0.06232
0.04981 -0.08723 0.16081
-0.11678 -0.03383 0.00392
-0.02213 0.01471 -0.05102
-0.04236 -0.10957 0.17136
-0.12157 0.07796 -0.20329
0.02273 -0.00083 0.00932
-0.13350 -0.06153 0.05083
-0.02270 0.01129 0.02223
0.03734 0.00178 0.00793
-0.13710 0.02477 -0.00471
-0.06960 -0.06341 0.04872
0.02016 -0.03415 0.15968
0.30071 -0.03322 0.41910
0.14150 -0.10566 0.17798
0.02555 -0.07578 0.22225
-0.18972 -0.11627 0.17744
-0.00389 -0.07916 0.17974
0.04277 -0.06772 0.16018
0.05321 -0.04404 0.15257
0.07092 -0.11684 0.21304
-0.01444 -0.10446 0.26767
-0.00484 -0.05126 0.15667
0.07621 -0.11554 0.20374
0.12600 -0.03685 0.13103
-0.24353 -0.14146 0.19485
0.30423 -0.07236 0.51560
-0.05263 -0.08333 0.11310
-0.04230 -0.12399 0.18040
0.01166 0.08452 -0.28461
0.02902 -0.08742 0.17059
-0.03743 -0.12078 0.18551
0.11956 -0.08911 0.15041
0.02558 -0.00459 -0.67803
0.10598 0.02739 -0.00557
0.17579 -0.10840 0.35077
-0.08599 -0.10347 0.03982
0.13731 -0.03974 0.13317
-0.05110 -0.10597 0.17011
-0.00191 -0.01270 0.02617
-0.00479 -0.08265 0.20302
0.00478 0.06743 -0.21673
0.14972 0.07101 -0.15637
0.03966 -0.08962 0.17284
-0.08254 -0.10734 0.07724
-0.00232 -0.09529 0.22020
-0.24900 -0.13716 0.19141
-0.03871 -0.09586 0.15328
0.00180 -0.05804 0.21650
0.16548 0.10827 -0.07910
-0.06312 -0.10757 0.09381
-0.16822 -0.07243 0.06925
0.16768 -0.01564 0.10580
-0.17960 -0.15957 0.28210
-0.05655 -0.10961 0.09571
-0.07744 0.07048 -0.28317
-0.08231 -0.11156 0.07568
-0.01068 -0.01590 0.06147
0.08229 0.05982 -0.35117
-0.09522 0.09686 -0.29433
0.17960 0.07925 -0.34938
0.02712 -0.05027 -0.94898
0.16240 -0.02726 0.12803
0.01371 -0.05220 -0.96978
-0.05561 -0.10971 0.10016
-0.03536 -0.11288 0.17796
0.19085 -0.11230 0.38390
-0.05652 0.05578 -0.36193
0.12049 -0.04847 0.13513
-0.05556 0.05645 -0.08308
0.13016 -0.08900 0.17359
0.27189 -0.01490 0.32865
-0.16677 -0.08414 0.08880
-0.10709 0.03875 -0.10896
0.20681 -0.08345 0.31208
0.26122 0.00535 0.28647
0.14965 -0.03369 0.13870
-0.03355 -0.10007 0.18419
0.06839 -0.11181 0.20336
0.35817 -0.07991 0.60224
0.24737 -0.02491 0.31923
0.03692 -0.04581 0.15553
0.15812 -0.02185 0.10878
-0.05902 -0.09146 0.09541
0.29336 -0.00667 0.29485
0.31887 -0.03404 0.34842
0.37966 -0.11041 0.57912
0.01856 -0.05274 -0.99629
0.17695 -0.01412 0.12149
-0.03556 -0.10465 0.17102
0.26378 -0.06348 0.47019
0.01470 0.00412 -0.01625
-0.00282 -0.00097 0.00287
-0.00282 -0.00085 0.00200
-0.20305 -0.05113 0.06500
0.04848 -0.09258 0.15741
0.29710 -0.02595 0.37543
-0.09986 -0.07094 0.06731
0.12300 0.08066 -0.39280
0.01400 0.00487 -0.20448
0.14179 0.07240 -0.17868
0.00925 0.00808 -0.02989
0.06762 0.07473 -0.25683
0.13451 0.03751 0.07793
-0.12215 -0.12503 0.13909
0.00393 -0.00616 0.04071
0.00366 -0.00621 0.03082
-0.04362 -0.07853 0.13925
-0.01453 0.04675 -0.16677
0.01729 0.05615 -0.21243
-0.06828 0.05204 -0.17124
-0.02300 0.00952 -0.02598
-0.16345 -0.14179 0.22921
0.02988 0.00534 0.00758
0.01741 0.00669 -0.01564
0.05122 0.01012 0.00178
-0.14578 0.10219 -0.28792
0.01789 0.00766 -0.02561
0.03836 0.00294 0.02267
-0.01092 0.00176 -0.00336
-0.01262 0.00264 -0.00364
-0.04329 0.00652 -0.00344
-0.04326 0.00666 -0.00226
0.01316 -0.01967 0.09861
-0.00327 0.01220 -0.03042
-0.00327 0.01220 -0.03042
-0.01419 -0.00770 0.05173
-0.00163 0.00827 -0.02914
-0.09179 -0.12658 0.09086
0.12709 0.09238 -0.26111
0.01793 0.00863 -0.02871
-0.02486 0.01704 0.02286
0.00724 0.00014 -0.00022
-0.22051 -0.16053 0.20217
0.00268 0.05119 -0.18892
-0.01367 0.04386 -0.15631
0.02427 0.03982 -0.14646
0.01967 0.03720 -0.13827
0.02184 0.03637 -0.13800
-0.00633 0.06335 -0.23683
0.01977 0.03968 -0.14150
0.03597 0.04177 -0.14532
0.03597 0.04177 -0.14532
0.01363 -0.00535 0.02876
-0.00844 0.00090 -0.00573
0.06692 0.04085 -0.12870
0.01437 0.01428 -0.04931
0.02329 0.04723 -0.16989
0.02590 -0.01603 0.07762
0.02590 -0.01603 0.07762
0.04202 0.04460 -0.15122
0.02952 0.01282 -0.04777
0.02931 0.01275 -0.04741
-0.14777 -0.09650 0.13688
0.11818 0.07131 -0.17624
-0.01048 0.01044 -0.03638
0.03560 0.04813 -0.17979
0.02003 0.04812 -0.15466
0.02073 0.04844 -0.15528
-0.10472 -0.11187 0.09965
0.06681 -0.09542 0.16903
-0.00787 0.05790 -0.20452
0.02273 0.01156 -0.01646
0.04943 0.04597 -0.16121
-0.01243 0.00203 -0.00105
0.03573 0.06609 -0.23873
0.13136 0.06840 -0.15592
0.01149 0.06380 -0.24282
0.00250 0.04222 -0.15714
0.02888 0.06176 -0.23236
0.00742 0.05637 -0.20442
-0.00970 0.06189 -0.22228
0.01411 0.00689 -0.02947
-0.00924 0.05641 -0.20143
0.11591 0.07188 -0.18287
0.01362 -0.02071 0.09436
0.08184 -0.12279 0.21168
0.00803 0.00882 -0.03307
-0.00561 0.04663 -0.16918
0.00882 0.00760 -0.01707
-0.10593 0.07073 -0.17542
0.07669 0.05579 -0.17301
0.01482 -0.01963 0.08826
-0.01208 0.05029 -0.18074
-0.01194 0.05894 -0.21022
-0.01244 0.00901 -0.02854
0.03232 0.03918 -0.13601
-0.00186 0.04746 -0.17008
0.00424 0.04236 -0.14520
0.21669 0.02663 -0.07764
0.01410 -0.00339 0.01959
-0.00371 0.00710 -0.02790
0.01743 0.06064 -0.22029
0.13097 0.06084 -0.15520
-0.01051 0.00501 -0.01740
0.00257 -0.01964 0.04391
0.02566 0.04294 -0.15273
0.02821 0.01193 -0.02953
0.02685 0.04382 -0.15407
-0.00043 0.05000 -0.18382
0.01772 0.05484 -0.20351
0.01873 -0.01394 0.07596
0.14172 0.07229 -0.17947
-0.00006 0.00477 -0.01894
0.00038 0.00515 -0.00968
0.20509 0.01017 0.12744
0.01913 -0.01554 0.07163
0.04113 0.00523 -0.00094
0.00356 -0.00170 0.00352
-0.00347 0.04885 -0.17561
0.02837 0.06094 -0.22669
-0.02546 0.07449 -0.23614
0.00250 0.05290 -0.19403
0.01411 -0.00633 0.02951
0.04885 0.06511 -0.22672
-0.03417 0.00313 0.00774
-0.00953 0.04134 -0.15259
0.00485 0.01186 -0.03598
0.06773 0.05326 -0.17173
0.11496 0.06643 -0.15818
-0.00978 0.01494 -0.05253
0.07329 0.05277 -0.17212
-0.02328 0.01042 -0.02339
0.11415 0.06043 -0.15809
0.12481 0.03352 -0.26960
0.03480 -0.00308 0.03596
-0.14972 -0.08791 0.12352
0.04741 0.05712 -0.19944
0.03784 0.01156 -0.02619
0.05768 0.05767 -0.20446
0.01015 -0.00286 0.01394
0.12377 0.07130 -0.18931
-0.03756 0.01179 -0.02876
0.04925 0.00815 0.00602
0.06001 0.05397 -0.18489
0.03555 0.00713 -0.01386
0.13591 0.07058 -0.17119
0.03474 0.05517 -0.19597
0.03904 -0.01194 0.04748
0.09326 0.06969 -0.21050
0.21967 -0.09753 0.45767
-0.04425 0.00544 0.00242
-0.04438 0.00520 -0.00036
-0.01278 0.00399 -0.01123
0.00672 -0.00323 0.01135
-0.02966 0.01636 -0.04995
0.14803 0.07289 -0.16959
-0.00382 0.04049 -0.13397
-0.05278 0.09869 -0.30899
0.05314 0.05905 -0.20857
0.00698 0.03650 -0.12750
0.00102 0.01190 -0.04017
0.05611 0.04987 -0.16816
0.00460 -0.03708 -0.85876
0.09091 0.02970 -0.05334
0.05150 0.05738 -0.20296
0.03021 -0.00061 0.01693
0.07971 0.04665 -0.13295
0.08691 0.05996 -0.18817
0.07736 0.05494 -0.16853
-0.01472 -0.00708 0.05018
-0.06132 0.01283 -0.02021
0.06972 0.04876 -0.14801
-0.13974 -0.13406 0.26117
0.14151 0.07124 -0.17800
-0.02368 0.05568 -0.18905
0.05881 -0.04844 0.14101
0.05836 -0.04827 0.13674
0.00560 0.00236 -0.00433
-0.02826 -0.04618 0.07243
0.02365 0.00633 -0.00849
0.02956 0.00447 0.00039
0.02555 -0.02198 0.12171
-0.07216 -0.01548 0.00454
0.01617 -0.07280 0.22874
0.04053 -0.02013 0.02228
0.04237 -0.02043 0.04560
0.02874 -0.01801 0.10033
0.03078 0.00135 0.00934
0.03078 0.00135 0.00934
0.06067 0.06341 -0.21490
0.02091 0.00509 -0.01059
-0.05594 -0.11018 0.10719
-0.03294 0.01668 -0.03643
0.10091 0.06970 -0.18906
0.18642 0.04483 0.09941
0.04113 0.00861 -0.35707
0.01187 -0.00475 0.02677
-0.08587 -0.12483 0.08105
-0.04359 -0.09692 0.15294
-0.14913 -0.08112 0.10105
0.00428 -0.09461 0.22785
-0.15235 -0.09904 0.14331
-0.15142 -0.09849 0.13494
-0.15069 -0.10180 0.15231
-0.14993 -0.10069 0.14551
0.01444 0.00845 -0.02440
-0.07688 -0.00953 -0.01663
0.01546 -0.00402 0.02040
0.06250 0.06695 -0.22010
-0.10076 -0.04592 0.02097
0.02487 -0.01397 0.06924
0.00882 0.06271 -0.24349
-0.00012 0.00274 0.00022
-0.01094 -0.00050 0.00494
-0.13189 -0.12242 0.15118
0.01816 -0.01986 0.09728
0.00634 0.00885 -0.02788
-0.00105 0.01481 -0.03021
0.01470 -0.07472 0.22705
0.03337 0.06174 -0.22950
-0.20498 -0.14271 0.12626
0.14709 -0.03159 0.12306
-0.00702 0.01490 -0.04782
0.01506 -0.10021 0.22493
0.02054 0.00408 0.02362
-0.03409 -0.11404 0.18855
-0.05489 0.02258 -0.06575
0.17215 -0.04274 0.14927
0.24354 -0.02325 0.31810
0.01813 -0.01295 0.05803
-0.00754 -0.02464 0.00890
0.01446 0.00620 -0.02400
-0.05050 0.09255 -0.28255
0.01696 -0.01479 0.06838
0.02362 0.07811 -0.29481
0.01536 -0.02766 0.12504
-0.03351 0.07749 -0.28741
0.04934 -0.08251 0.16072
-0.02653 -0.10894 0.19318
0.04635 -0.05728 0.15978
0.04590 -0.06839 0.15971
0.22062 0.09044 -0.06230
0.22127 0.09107 -0.05835
0.01795 -0.03980 -0.89681
0.04781 -0.02285 0.05350
0.01238 -0.01793 0.07770
-0.04832 -0.00318 0.01807
-0.03976 0.01237 -0.02455
-0.01586 0.04248 -0.15100
0.08442 -0.01371 0.08030
0.03125 0.01263 -0.03307
0.10548 0.06959 -0.20067
-0.09196 -0.02014 -0.00146
0.00480 -0.00183 0.00474
-0.12464 -0.06185 0.04783
-0.12462 -0.06183 0.04799
0.02464 0.00882 -0.02721
0.02300 -0.01552 0.07111
0.02300 -0.01552 0.07111
-0.14606 0.07873 -0.17830
-0.05186 -0.10666 0.16445
0.02645 -0.01980 0.10667
0.02028 0.01363 -0.04161
0.01578 -0.05004 0.21911
0.01312 0.00767 -0.01725
0.00683 -0.00407 0.01081
-0.00161 -0.00205 0.00325
-0.00161 -0.00205 0.00325
-0.01163 0.00044 -0.00348
0.02554 0.05849 -0.21228
-0.14922 -0.13282 0.24037
-0.00088 0.00697 -0.02654
-0.05236 -0.02040 0.02528
-0.06366 -0.12940 0.17663
-0.05533 -0.00780 0.01193
0.02010 -0.03220 0.14871
-0.14467 -0.07590 0.08360
-0.05441 -0.10747 0.16904
-0.03302 -0.08849 0.16164
-0.08815 -0.10666 0.07793
0.00197 0.01550 -0.05343
0.01778 0.00121 -0.00058
-0.00740 -0.01734 0.03550
0.03146 0.00958 -0.01994
0.03581 0.06438 -0.22294
-0.04779 0.00328 -0.03520
0.03956 -0.09738 0.17586
0.00015 0.01330 -0.05343
-0.00473 0.03856 -0.13506
-0.19305 -0.08002 0.10952
0.01808 0.00351 -0.00773
-0.01781 0.01674 -0.04542
-0.12054 -0.03756 0.01159
0.04038 0.00914 -0.01262
0.00629 0.00027 0.00119
-0.14250 0.02459 -0.03405
-0.05690 -0.03880 0.02862
-0.05690 -0.03880 0.02862
0.06287 -0.08197 0.16911
-0.00023 0.00062 0.01012
0.01231 0.01144 -0.04202
0.18871 0.07486 -0.31394
-0.00850 -0.00367 0.01304
0.04217 0.01355 -0.01013
-0.00087 0.07788 -0.26895
-0.16701 0.04656 -0.11824
0.02835 0.01065 -0.01655
-0.20169 -0.01868 0.05386
-0.04200 0.00666 -0.00224
-0.02685 -0.03000 0.05860
-0.05464 0.01792 -0.00151
-0.17450 -0.13985 0.26177
-0.00041 -0.00071 -0.00018
0.16679 0.02143 0.06569
-0.14803 -0.01664 0.02648
0.01317 -0.01043 0.04900
0.11385 0.04727 -0.11535
0.08285 -0.01921 0.07003
0.14478 0.06852 -0.43276
0.08288 -0.01912 0.06932
0.13989 0.07772 -0.37664
0.04952 -0.00543 -0.73336
-0.22424 0.07111 -0.13082
-0.09712 -0.04331 0.01572
-0.07659 0.00169 -0.01844
-0.09711 -0.12401 0.10271
0.03918 -0.04523 0.15293
-0.07681 0.01391 -0.02318
0.05482 -0.08105 0.15938
0.02243 -0.02373 0.13663
-0.11630 -0.10231 0.10172
-0.14332 -0.07015 0.07179
0.21897 -0.12708 0.51706
-0.05527 0.04702 -0.33081
-0.01640 0.00347 -0.00510
0.01085 -0.00084 -0.00461
0.02213 -0.01601 0.07648
0.01646 0.01250 -0.01967
-0.25965 0.07238 -0.08349
-0.00889 -0.05814 0.20195
0.09150 -0.03538 0.10958
-0.10754 -0.05114 0.02826
0.01439 -0.00414 0.02383
-0.01172 0.00156 0.01064
-0.01394 -0.00681 0.04965
0.16795 0.05798 -0.05395
-0.07531 -0.02187 0.00789
-0.07482 -0.02155 0.00175
-0.14736 -0.09347 0.12540
0.02537 -0.07579 0.22039
0.01028 -0.03250 0.13859
-0.00648 0.01554 -0.05568
0.01467 -0.03139 0.15190
-0.09820 0.09474 -0.25234
-0.04470 0.08658 -0.16735
0.13424 -0.09029 0.17915
0.11530 0.02577 0.04432
0.12596 -0.12155 0.18815
-0.08539 -0.12065 0.07993
-0.07633 -0.01903 0.00449
-0.02021 0.01038 -0.03012
0.16524 -0.02460 0.12183
0.10982 -0.03555 0.11047
0.13248 0.06592 -0.40413
-0.10071 0.06231 -0.15206
0.00578 0.00470 -0.00588
-0.02574 -0.09281 0.18010
0.04556 -0.02591 0.06062
0.03530 0.00827 -0.00871
0.02316 -0.01634 0.07094
-0.06774 0.06815 -0.19111
0.02209 0.00425 -0.01050
-0.07136 0.04589 -0.15041
-0.10011 0.05611 -0.11976
-0.12464 0.01736 0.01322
-0.04698 0.00601 -0.03579
-0.00262 -0.02197 0.03941
0.09241 0.07644 -0.22651
-0.00276 -0.00157 0.00064
-0.15151 -0.10370 0.15894
0.27295 0.01337 0.29755
0.02875 -0.02873 0.14072
0.10850 -0.06657 0.13458
-0.11641 -0.05716 0.03749
0.03196 0.00428 -0.00124
-0.13593 -0.06680 0.06266
-0.25063 0.10472 -0.13974
-0.03501 -0.11269 0.17567
0.01773 0.01282 -0.04339
-0.05199 0.00259 -0.04007
-0.05199 0.00259 -0.04007
0.00921 -0.01734 0.08309
0.13974 -0.09728 0.18569
-0.00232 0.00023 0.00436
-0.11377 0.06276 -0.17866
0.01305 -0.03241 0.14845
-0.11366 -0.02416 -0.00865
-0.12994 0.00197 -0.01935
-0.01061 0.00037 -0.00617
0.01768 -0.02028 0.09440
-0.10744 -0.01528 -0.00476
-0.10731 -0.01523 -0.00666
-0.01899 -0.00251 0.02097
0.15062 0.08717 -0.22306
-0.12231 -0.02110 -0.00807
-0.12221 -0.02109 -0.00862
0.02427 -0.01997 0.10407
0.10257 0.01987 -0.01005
0.10362 0.02088 0.00576
0.01058 -0.01527 0.07095
-0.11261 -0.01764 -0.00914
-0.11261 -0.01764 -0.00914
0.01570 -0.00276 0.02001
0.00508 -0.09598 0.24510
0.01919 -0.01665 0.07653
0.01630 -0.01200 0.05614
0.05569 -0.03487 0.03260
0.06924 -0.06937 0.15562
0.10138 -0.12770 0.19133
0.07070 -0.06670 0.15565
0.00688 -0.01178 0.05472
0.00827 -0.01160 0.08224
-0.15656 -0.03813 0.03102
-0.21333 0.05000 -0.14350
0.05922 0.05844 -0.20271
0.08824 -0.12411 0.20888
0.01213 0.00502 -0.01484
-0.08512 -0.10728 0.07707
0.10738 0.03764 -0.09134
-0.00023 -0.00197 0.00396
-0.07614 -0.08428 0.07846
-0.00513 -0.02135 0.04955
0.01466 -0.01556 0.07114
-0.12721 0.05663 -0.17351
-0.07993 0.08055 -0.42060
-0.01738 0.07215 -0.27970
-0.07757 0.06857 -0.47877
0.01728 -0.02375 0.11383
0.05146 -0.08617 0.16006
-0.14621 -0.13089 0.23176
-0.12443 -0.01670 -0.00771
-0.02397 0.01167 -0.03712
0.01623 -0.07416 0.22790
-0.11025 0.07073 -0.31078
-0.00750 -0.02395 0.04936
0.04874 -0.05029 0.14757
-0.16264 -0.09887 0.11828
0.01248 -0.07412 0.22527
-0.04531 0.00525 0.00321
-0.14978 -0.08294 0.10839
-0.00049 -0.05177 0.20186
0.02135 0.00690 -0.00595
0.00737 -0.01038 0.04395
0.08687 -0.11365 0.19324
-0.22521 0.07444 -0.13507
-0.17236 0.00934 -0.01288
0.00610 0.00376 -0.00974
0.03335 -0.02063 0.11584
-0.15156 -0.08480 0.11918
-0.09501 0.04109 -0.08369
0.01889 -0.00246 0.00289
-0.12704 0.01189 0.00022
-0.12562 0.01142 -0.01316
0.01828 0.00126 -0.00245
0.04627 -0.08451 0.14038
0.07338 -0.06665 0.16013
0.19922 -0.00670 0.13367
-0.08308 0.03822 -0.12490
-0.07942 -0.01090 -0.01465
0.19277 0.07550 0.04344
-0.14642 0.08299 -0.17532
0.03648 -0.07747 0.17415
0.02572 -0.01490 0.06841
-0.04150 0.08297 -0.30949
-0.04780 0.00080 -0.06179
-0.00292 0.08685 -0.32062
-0.15037 -0.09433 0.13581
-0.12423 -0.01833 -0.00397
-0.12386 -0.01836 -0.00722
-0.07124 -0.00107 -0.01674
0.07802 -0.01491 0.07744
0.07661 -0.01417 0.06128
-0.01687 0.00259 -0.00751
0.00866 -0.03581 -0.85905
-0.15604 -0.13693 0.21999
0.03904 0.02001 -0.48632
0.22102 0.08795 -0.08815
0.11632 0.03751 -0.09382
-0.02202 0.01041 -0.03138
0.32049 -0.03290 0.32671
-0.16894 0.10034 -0.23096
0.02076 0.00189 -0.00225
-0.16627 0.05909 -0.15349
-0.00900 0.02533 -0.51555
0.01042 -0.00680 0.03423
0.00796 -0.00989 0.04092
-0.13035 -0.00103 -0.00694
0.02647 -0.09595 0.18660
0.15707 -0.05504 0.15424
0.02015 -0.01207 0.05531
0.02807 0.00605 -0.00135
-0.02078 -0.00180 0.01872
0.07963 -0.02113 0.07051
-0.09072 -0.02164 -0.00509
0.00700 -0.00148 0.01046
-0.11376 -0.10212 0.10390
-0.04878 0.00323 -0.02213
-0.04844 0.00281 -0.03687
0.06294 -0.09550 0.18582
0.03833 -0.02065 0.11759
0.05833 -0.05302 0.14584
-0.16694 0.06880 -0.17034
-0.02995 -0.01335 0.04351
-0.05412 0.01027 -0.03228
-0.07208 -0.00067 -0.02370
0.09299 0.09158 -0.38851
0.06544 -0.11177 0.20187
-0.03571 -0.09727 0.15934
0.01170 0.00206 -0.52418
0.02726 -0.05020 -0.93039
-0.09578 -0.09527 0.09034
-0.01440 0.00795 -0.02017
0.05282 -0.01294 0.08147
0.10405 -0.07562 0.15153
0.01894 -0.03697 0.09150
0.01496 -0.00428 0.01123
0.02071 0.00537 -0.02143
-0.06581 -0.01355 0.00911
-0.13471 -0.06650 0.06064
-0.04410 -0.08831 0.13269
-0.05691 -0.11180 0.16407
0.06027 -0.09378 0.16908
0.01139 -0.04455 0.20137
-0.22444 0.04976 -0.13862
-0.12203 -0.00897 -0.00509
-0.10490 0.06124 -0.18982
0.00114 0.00575 -0.01482
-0.12500 0.09879 -0.30969
0.09254 -0.03490 0.12567
-0.02864 -0.03010 0.05669
-0.16599 0.06120 -0.16074
-0.05805 0.07613 -0.25840
-0.05819 0.07630 -0.25727
-0.15007 0.08922 -0.21798
-0.13505 -0.01609 0.00010
-0.10578 0.09694 -0.40888
-0.02994 0.00014 -0.02371
-0.02995 0.00011 -0.02551
-0.10729 -0.03404 0.00140
-0.10808 0.01542 0.04033
0.10044 -0.04695 0.12111
-0.01464 0.05031 -0.41853
-0.26026 -0.04418 0.13532
0.03936 -0.06709 0.16305
-0.14188 -0.06950 0.07051
0.00140 0.00697 -0.02230
-0.02796 0.01563 -0.05975
0.03567 0.00643 -0.01035
-0.15394 0.01119 -0.01134
0.06628 0.01456 -0.00573
-0.05992 -0.11618 0.10024
0.01682 -0.03789 -0.89990
0.04952 -0.00932 0.05131
-0.17212 0.06713 -0.19648
-0.09593 -0.02873 -0.00354
0.00437 0.00528 -0.04893
-0.10126 -0.01100 -0.01591
0.03991 -0.05038 0.15973
-0.01519 0.01099 -0.03415
-0.00447 0.00015 0.00382
0.04798 0.00811 0.00963
-0.05492 -0.12705 0.18513
-0.01426 -0.00615 0.04638
0.03142 -0.00125 0.02871
-0.11999 0.00382 -0.01102
-0.07496 0.01246 -0.02152
-0.09720 0.00439 -0.04169
0.06611 -0.00489 0.02861
-0.07215 0.02662 -0.04978
0.02449 -0.01529 0.07050
0.00801 -0.00434 0.02177
0.09459 -0.00551 0.06960
-0.18169 -0.03222 0.04825
-0.03225 0.01109 -0.04314
-0.21698 0.08388 -0.17501
-0.00468 -0.04761 0.20019
-0.22524 0.07762 -0.12881
0.09492 -0.11629 0.18774
-0.12439 -0.01495 -0.00629
-0.09413 -0.00282 -0.01747
0.07722 -0.01782 0.05705
0.03020 0.00731 -0.01189
0.07577 -0.11673 0.20722
-0.12395 -0.12445 0.13579
-0.02010 -0.00158 -0.02317
0.02454 0.00785 -0.01632
0.01106 0.01346 -0.04410
-0.02060 0.00181 0.00406
-0.00851 0.00048 -0.00374
-0.07220 -0.01865 -0.00137
-0.17598 -0.13337 0.19006
-0.03665 -0.07400 0.13828
0.02815 -0.02344 0.11570
0.11025 -0.05416 0.12290
0.04519 -0.06357 0.15673
-0.09886 -0.00912 -0.06723
-0.16988 -0.14058 0.23182
-0.00553 -0.09705 0.22115
0.04257 -0.03528 0.14185
0.32790 -0.02882 0.31849
0.09519 -0.10716 0.18000
-0.10273 -0.00977 -0.01565
-0.07381 0.01152 -0.02169
-0.01214 -0.00600 0.03306
-0.07775 -0.12405 0.09827
0.02856 -0.02502 0.13257
0.11325 0.07949 -0.41721
-0.08743 0.00506 -0.01717
-0.00809 -0.09725 0.21079
-0.03882 0.00676 0.00037
0.01757 -0.05146 0.21354
0.00475 -0.04243 -0.06218
-0.11503 -0.01842 -0.01190
0.01300 -0.04312 0.20062
-0.13349 -0.02239 0.00342
-0.12319 0.00142 -0.01002
-0.01385 -0.00560 -0.04669
0.09088 -0.12825 0.24741
-0.04595 0.00628 -0.02000
0.10712 -0.05619 0.12690
0.03046 0.00033 0.01050
0.02823 -0.01446 0.07693
0.00907 -0.00444 0.02216
0.00181 -0.05616 0.21309
-0.10349 0.00933 -0.00345
0.07434 -0.11484 0.20250
-0.05749 -0.02146 0.01334
-0.03411 -0.07629 0.13709
0.27378 0.01847 0.30151
-0.09521 -0.11632 0.09305
0.09045 0.00041 0.04019
-0.12751 -0.02170 -0.00624
0.05587 0.05549 -0.18636
0.01024 0.01035 -0.03113
0.01656 -0.01232 0.04624
0.01780 -0.01218 0.05634
-0.15022 -0.08915 0.12525
-0.13452 0.01439 -0.01877
0.01143 0.00143 -0.00108
-0.12006 -0.01997 -0.00956
0.02001 -0.02855 0.09195
0.02088 -0.02861 0.10624
0.00554 0.01514 -0.04848
0.01551 -0.02538 0.11708
-0.12907 -0.00104 -0.00696
-0.01845 -0.00063 0.00983
-0.11239 -0.01524 -0.01162
0.00997 -0.00575 0.01882
-0.08329 -0.00743 -0.01909
-0.17775 -0.15949 0.27737
-0.05128 -0.02112 0.02368
-0.13214 0.00400 -0.00544
0.04199 -0.05906 0.16277
0.05137 -0.01557 0.05472
0.04585 -0.00868 -0.68621
-0.04050 0.00432 0.00136
-0.12404 -0.07077 0.07886
-0.05198 -0.00235 0.00623
-0.07561 0.02183 -0.03491
0.01886 -0.00245 0.00254
0.01472 0.00556 -0.01730
-0.12697 -0.03772 0.01282
-0.14241 -0.07938 0.09235
-0.00219 -0.05807 0.20151
-0.00350 -0.05785 0.21867
0.02130 -0.01538 0.07313
-0.04025 -0.10990 0.17172
-0.05945 -0.03085 0.02585
-0.05948 -0.03086 0.02612
-0.11558 -0.01692 -0.00790
0.22731 -0.11905 0.47890
-0.11383 0.00410 -0.01297
0.02319 -0.02490 0.14230
0.01105 0.04264 -0.15923
-0.10487 -0.01151 -0.01443
0.01834 -0.03814 0.16750
0.01843 -0.03810 0.16906
-0.00290 0.00915 -0.03582
-0.00888 -0.05815 0.20265
0.02730 -0.01115 0.05442
0.06822 -0.06849 0.15449
-0.02141 -0.01632 0.05696
0.18685 -0.06003 0.27427
-0.02141 -0.01632 0.05696
-0.05681 -0.02117 0.02006
-0.12337 0.00400 -0.01612
0.02035 -0.01118 0.05925
0.28478 0.01582 0.32744
0.28600 -0.02069 0.39828
0.22198 -0.08087 0.31770
0.06261 -0.09418 0.12838
0.01465 -0.03908 0.17237
0.18583 -0.00735 0.11742
-0.00028 -0.09564 0.22198
-0.00717 0.00809 -0.02595
-0.11388 -0.01150 -0.01015
-0.04459 0.00468 0.00611
0.03335 -0.04923 0.15092
0.03737 -0.04502 0.15982
-0.15274 -0.10102 0.15092
0.13495 -0.03156 0.13281
-0.02822 -0.09142 0.18035
0.07744 -0.00983 0.09218
0.00075 0.00400 -0.01061
-0.06643 -0.01382 0.00385
-0.09570 0.01401 -0.04949
0.00319 -0.00530 0.02457
-0.15183 -0.08588 0.12137
-0.08623 -0.00899 -0.01866
0.15429 -0.01331 0.11301
0.15451 -0.01290 0.11627
-0.11255 -0.00253 -0.01672
0.18528 -0.06862 0.27893
0.01035 -0.01334 0.06124
-0.00780 -0.01880 0.04695
0.13649 -0.08454 0.18208
0.06723 -0.09938 0.17190
0.01530 -0.00603 0.02854
0.01140 -0.03131 0.12189
0.14172 -0.09964 0.18077
0.06296 -0.08187 0.16791
-0.05249 0.00692 -0.05737
0.25799 -0.11755 0.50338
0.05013 -0.05145 0.14919
0.28770 0.00501 0.33404
0.07698 0.02219 -0.02879
0.20947 0.00788 0.13875
0.15709 -0.03197 0.12453
0.13551 0.01734 0.09107
-0.01656 0.03038 -0.39758
-0.09227 -0.12202 0.09147
0.08344 -0.02387 0.06823
-0.16410 -0.14162 0.23741
-0.09819 -0.00524 -0.01825
-0.14729 -0.09060 0.12616
-0.10401 -0.01372 -0.01736
0.16196 -0.02748 0.12719
0.09609 -0.11918 0.18126
0.29322 -0.00692 0.34522
0.29495 -0.00585 0.35499
0.13505 0.00979 0.10027
-0.12077 -0.01314 -0.00856
0.32740 -0.08557 0.55801
-0.22599 -0.09328 0.10894
0.03216 -0.09243 0.17481
-0.04384 -0.02021 0.02730
-0.02092 -0.08596 0.20757
-0.12742 -0.01695 -0.00558
-0.10086 -0.02134 -0.01111
-0.06921 -0.02347 0.01264
-0.06924 -0.02351 0.01120
0.05275 -0.08000 0.16545
-0.06733 -0.02436 0.01637
0.07138 -0.00611 0.04211
-0.07754 0.09431 -0.28248
-0.04822 0.00366 -0.04353
0.29455 -0.00390 0.32936
-0.12293 -0.03480 0.00679
-0.06076 -0.01200 0.00732
-0.11118 0.00555 -0.06689
0.04198 -0.06101 0.15232
-0.11962 -0.07041 0.04504
0.17383 0.02010 0.10231
-0.06405 -0.05243 0.03506
0.02007 0.00539 -0.02479
-0.11154 -0.07172 0.06276
0.02349 -0.00469 0.00030
0.05745 -0.04907 0.14176
-0.00926 -0.01752 0.05515
0.00539 -0.00458 0.02564
0.21631 0.03051 0.12062
-0.14793 -0.08451 0.11696
0.01396 -0.01207 0.05837
-0.00981 -0.01112 0.04635
0.09693 -0.12237 0.18415
0.07169 -0.11160 0.15588
0.28131 -0.11136 0.49295
0.08350 0.00967 0.02049
0.27410 -0.00067 0.32549
0.27413 -0.00063 0.32557
-0.06350 -0.02338 0.01747
-0.00123 -0.07382 0.21467
-0.00078 -0.07392 0.21621
0.06797 -0.06519 0.16665
0.02726 -0.09871 0.20268
0.17449 0.03272 0.08605
0.10057 -0.04227 0.11688
-0.05332 -0.04794 0.03600
0.08716 -0.02105 0.06811
-0.12921 -0.00728 -0.00420
-0.03289 0.00964 -0.02504
-0.07850 -0.01760 -0.00066
0.00223 -0.04606 0.21366
0.06103 -0.07659 0.16451
-0.12254 -0.01571 -0.00823
-0.03886 0.08072 -0.30371
-0.14188 -0.05019 0.02752
-0.14188 -0.05019 0.02752
-0.00495 -0.02700 0.06603
0.08278 -0.02072 0.07442
0.10237 -0.02769 0.10625
-0.14579 -0.07151 0.07903
0.13919 -0.01635 0.11111
0.13528 0.03441 0.05010
-0.03452 -0.09882 0.16843
0.03050 -0.00190 0.02079
-0.08811 -0.00095 -0.01675
-0.00087 -0.00399 0.01913
0.20264 0.00457 0.13550
-0.02922 0.07085 -0.25068
-0.00700 -0.02483 0.04801
-0.05562 -0.03998 0.02963
-0.05562 -0.03998 0.02963
-0.13044 0.01048 -0.00540
-0.14490 -0.07218 0.07672
-0.05881 -0.10933 0.09844
-0.12035 -0.01925 -0.01401
-0.12731 -0.04813 0.02451
-0.12253 -0.00770 -0.00605
0.03220 -0.09362 0.17721
0.06289 -0.09251 0.16736
-0.00275 0.04508 -0.16423
-0.09044 -0.10685 0.08570
-0.09090 -0.10681 0.09555
0.16581 -0.08322 0.30823
-0.00767 -0.01622 0.05126
0.24990 -0.00209 0.27827
0.06024 -0.09504 0.16927
0.02379 0.01283 -0.03440
-0.06484 -0.02456 0.01704
-0.09824 0.00700 -0.01331
-0.05559 -0.02805 0.02441
0.01275 -0.00132 0.00092
-0.00225 -0.08409 0.21493
0.02739 -0.04054 0.15858
0.07332 -0.00846 0.07978
0.04453 -0.06210 0.15547
0.05336 -0.08762 0.16687
0.26098 -0.06563 0.44180
0.02209 -0.07537 0.22382
-0.07421 -0.12885 0.08386
0.07281 -0.08948 0.16550
0.02006 -0.01512 0.06913
0.17694 -0.01848 0.12450
-0.10760 -0.01450 -0.01359
0.03593 -0.00481 -0.72071
-0.12865 -0.02083 -0.00648
0.11878 0.07837 -0.38965
-0.10593 -0.01599 -0.01308
-0.11106 -0.01425 -0.01330
-0.12318 -0.01515 -0.00815
-0.12527 0.09910 -0.30869
-0.11234 -0.01680 -0.01165
-0.12947 -0.11906 0.13759
0.03668 -0.06425 0.16961
-0.08873 0.01773 -0.01430
0.00856 -0.00069 -0.00265
0.09333 -0.03001 0.10745
0.02181 -0.03401 0.13517
-0.11407 -0.00212 -0.01507
-0.13167 -0.07283 0.07099
0.10158 -0.03363 0.11118
0.10158 -0.03363 0.11118
0.00988 -0.00481 0.04776
0.04280 -0.04436 0.14642
-0.09640 -0.02232 -0.00436
-0.09130 0.00263 -0.01924
-0.06285 -0.02678 0.02332
-0.02631 -0.09212 0.18921
0.07768 -0.11102 0.19368
-0.04086 -0.03488 0.04264
-0.04076 -0.03471 0.04176
-0.13935 -0.07569 0.08166
0.09580 -0.02342 0.10044
0.03567 -0.00055 0.02358
-0.14132 -0.08304 0.09827
-0.11131 0.00446 -0.06502
0.08546 0.01097 0.02991
0.03612 -0.02396 0.12044
-0.05998 -0.11131 0.09891
-0.03942 -0.08912 0.14820
0.11320 0.02892 0.03089
0.02296 -0.04549 -0.95082
-0.17890 -0.11345 0.17523
0.21428 -0.10787 0.40141
0.10686 -0.07733 0.18519
-0.04883 -0.00090 0.01385
0.02581 -0.00183 -0.02846
-0.03117 0.04847 -0.16444
-0.00915 -0.00599 0.02958
0.26604 -0.09735 0.48281
-0.13505 -0.01609 0.00010
0.28259 0.00667 0.32362
-0.13400 0.00068 -0.00278
-0.09071 -0.04314 0.01502
-0.08716 -0.03260 0.00182
0.08112 -0.02411 0.07563
0.08420 -0.01871 0.07044
-0.09212 -0.03162 -0.00598
0.09653 -0.04211 0.11754
0.09653 -0.04211 0.11754
0.28904 -0.00389 0.34234
-0.08289 0.00101 -0.01915
-0.11462 -0.01920 -0.01156
-0.17134 -0.15370 0.27521
0.02145 -0.03528 0.14575
0.04302 -0.04663 0.14997
-0.12284 -0.02254 -0.00889
-0.12233 0.00011 -0.01064
0.04595 -0.07106 0.15698
0.13117 -0.03836 0.13654
-0.12016 -0.01228 -0.01135
0.24894 -0.13410 0.53068
0.14467 -0.03092 0.12488
0.05218 -0.06176 0.15669
0.05174 -0.04680 0.14806
0.07849 -0.01959 0.06592
-0.05181 -0.01570 0.02030
-0.07816 -0.01046 -0.01725
-0.12788 -0.04238 -0.16241
0.06072 -0.00675 0.02984
0.03486 -0.00388 0.02797
0.06826 -0.06350 0.15520
-0.15805 -0.13286 0.22339
0.05674 -0.08510 0.15761
-0.09203 0.01215 -0.01850
-0.05188 -0.00687 -0.65583
-0.08100 0.00061 -0.01678
0.09149 -0.00315 0.07092
0.09118 -0.00470 0.07050
-0.09692 -0.12739 0.09554
0.06890 -0.11637 0.21669
0.08240 -0.02331 0.06704
-0.03857 -0.09843 0.15422
-0.02252 0.05993 -0.20497
0.04572 -0.03069 0.12059
-0.09559 0.05409 -0.12581
-0.09549 -0.04019 0.01437
-0.05193 -0.00273 0.02099
0.02007 -0.03905 0.16503
0.07873 -0.12273 0.20824
0.09323 -0.11505 0.19127
-0.00349 -0.09844 0.22218
-0.14092 -0.09455 0.11678
-0.10339 -0.02173 -0.00827
-0.10405 0.09452 -0.41737
0.05798 -0.01272 0.08330
-0.03163 0.01353 -0.03775
-0.15633 -0.13689 0.22150
-0.01830 -0.00682 0.04640
0.05477 -0.08013 0.15638
-0.02598 0.04713 -0.16581
0.01766 -0.01026 0.05263
-0.05033 -0.00243 0.01827
-0.12429 -0.06312 0.04638
0.13547 -0.03687 0.13351
0.01811 -0.01402 0.06853
0.01733 -0.00030 0.01234
0.05870 -0.07064 0.16045
0.00995 -0.03026 0.12363
0.17138 -0.10867 0.37181
0.06740 -0.09817 0.17352
0.04061 0.00618 -0.00393
-0.02510 0.01406 -0.04050
-0.04804 0.00553 -0.03078
0.00297 -0.00096 0.00066
-0.14831 -0.07124 0.07658
-0.00000 -0.09650 0.21632
-0.22502 -0.14676 0.18713
-0.13550 -0.06654 0.05809
0.00440 -0.07271 0.20723
0.01081 -0.01154 0.12763
-0.14794 -0.09651 0.12665
-0.13167 -0.11765 0.12914
-0.12678 0.01038 -0.01199
-0.15400 -0.08711 0.11703
-0.03536 0.00399 0.00728
0.11093 -0.11877 0.18168
-0.13503 -0.00771 0.00246
-0.13248 -0.00174 -0.00337
-0.13013 0.00538 -0.00912
0.02237 -0.03261 0.15491
-0.10188 0.00599 -0.01725
-0.04506 -0.10579 0.13923
-0.13237 -0.00768 -0.00895
-0.05096 0.00135 -0.03742
0.04245 0.00849 -0.01098
-0.09574 -0.12292 0.10666
0.05072 -0.04453 0.14733
-0.04526 -0.08985 0.15123
-0.19765 -0.15264 0.21872
0.05256 0.00955 0.00260
-0.14982 -0.09606 0.13599
0.16139 -0.10021 0.35546
0.08320 -0.02373 0.08679
0.04493 -0.04504 0.15171
-0.00330 -0.05611 0.21302
0.14266 -0.11134 0.19823
0.21217 -0.11979 0.44093
-0.06364 -0.01348 0.00630
-0.04972 -0.10596 0.16912
0.01501 -0.02839 0.14486
0.02663 -0.10232 0.18169
0.09276 0.00834 0.06553
-0.00727 -0.01953 -0.61846
-0.00679 0.00712 -0.01888
0.00650 -0.00314 -0.75558
-0.02834 -0.10540 0.19718
-0.05470 -0.12248 0.15322
-0.00171 0.00139 0.00046
0.01172 0.00053 0.00283
0.02991 0.00906 -0.01917
0.02312 0.04709 -0.05778
-0.02029 0.00991 -0.02897
0.00107 0.00574 -0.01610
0.00342 -0.09306 0.23613
-0.00253 0.00397 -0.00602
0.01480 -0.09150 0.22257
-0.04019 -0.07475 0.10906
0.04552 0.00258 -0.59217
-0.00288 0.00679 -0.02435
-0.12727 0.00140 -0.00923
-0.13484 0.00086 0.00434
-0.13628 -0.01830 -0.00571
-0.01481 0.02146 -0.08034
0.05082 -0.03818 0.11123
0.10329 0.07555 -0.23371
-0.05507 0.02762 -0.08325
0.02735 0.01545 -0.05641
0.06021 0.04248 -0.14527
-0.01352 0.01628 -0.06929
0.00837 0.06450 -0.24844
0.05152 0.01304 -0.78746
-0.04727 0.06489 -0.24090
0.06751 0.07404 -0.26061
-0.03194 -0.01102 -0.79566
-0.03922 -0.12009 0.18943
-0.02469 0.06382 -0.22560
-0.00365 0.00310 -0.01023
-0.10028 0.06633 -0.20696
-0.03280 0.04352 -0.15180
0.04516 0.06422 -0.22867
0.05413 0.02361 -0.05320
0.13754 0.08257 -0.22434
0.02624 0.02271 -0.08597
0.01998 0.06768 -0.27038
0.01148 0.01638 -0.06489
0.04598 0.01706 -0.04519
0.04897 0.02553 -0.08304
0.03132 0.02494 -0.10034
-0.02121 0.00186 -0.00324
-0.00552 0.07987 -0.29286
-0.00094 0.01891 -0.07918
-0.02483 0.06416 -0.22122
-0.06102 -0.10191 0.09801
0.03102 0.02955 -0.11743
0.03105 0.02955 -0.11733
-0.06577 0.03541 -0.09372
0.01354 0.03037 -0.11402
0.04784 0.03011 -0.10070
0.01045 0.02961 -0.10455
0.03258 0.01012 -0.02121
-0.00907 0.06655 -0.25309
0.04165 0.02985 -0.09754
0.13282 0.08970 -0.35928
0.01892 0.02531 -0.09455
0.05662 0.02054 -0.04296
-0.00378 0.07216 -0.27361
0.00404 0.00966 -0.03501
-0.05311 0.03158 -0.09191
0.02513 0.07323 -0.27922
-0.04995 0.03140 -0.10025
-0.03019 0.02335 -0.08186
0.06923 0.02540 -0.11243
0.05876 0.02064 -0.04689
-0.00417 0.01431 -0.05576
0.07361 0.05655 -0.17395
-0.01523 0.00458 -0.01014
-0.00555 0.01516 -0.05304
0.00000 0.00695 -0.02669
-0.02909 0.05348 -0.18296
-0.06572 0.03634 -0.09547
-0.06596 0.03658 -0.09425
0.03560 0.00697 -0.01357
-0.06475 0.03365 -0.09095
-0.05297 0.01897 -0.04808
0.01471 0.02806 -0.08587
-0.13995 0.03815 -0.09283
0.02071 0.01931 -0.06953
0.02732 0.02681 -0.10035
0.02731 0.02675 -0.10042
-0.09339 -0.12495 0.08494
0.10977 0.07726 -0.45416
-0.01276 0.02941 -0.10546
-0.11485 0.08209 -0.22653
0.04053 -0.01326 0.06257
0.07871 -0.01846 0.05699
0.00639 0.05121 -0.18933
0.13253 -0.03629 0.13666
0.04125 0.06695 -0.26533
0.03065 0.05662 -0.20366
0.01263 0.00736 -0.02686
0.03198 0.01501 -0.04463
-0.04787 0.02780 -0.08138
0.12723 0.09505 -0.27688
-0.03621 0.00587 0.00207
-0.02830 0.03122 -0.10983
-0.03935 0.02555 -0.08837
0.03297 0.03073 -0.11094
0.01703 0.00472 -0.00161
0.05164 0.04077 -0.14022
-0.10174 0.08432 -0.43700
0.00721 0.00008 -0.00064
-0.00551 0.08001 -0.29227
-0.04044 0.03373 -0.12054
0.03089 0.02148 -0.07869
0.00071 0.03083 -0.11107
0.03171 0.02076 -0.07186
0.03171 0.02076 -0.07186
0.00410 0.03033 -0.00889
-0.06562 0.02727 -0.05377
-0.09429 -0.12199 0.08597
-0.11763 0.03771 -0.07708
-0.04751 0.06179 -0.21189
0.22179 0.08425 -0.01710
0.03713 0.02907 -0.10404
0.05067 0.03048 -0.10027
-0.05181 0.03008 -0.08740
0.15695 -0.03224 0.12571
-0.05105 0.02932 -0.07476
-0.05116 0.02864 -0.08609
-0.19899 -0.00497 0.06110
-0.06231 -0.10625 0.09040
0.01020 0.01863 -0.07266
0.12302 0.08235 -0.39400
0.08048 0.05214 -0.14987
0.02844 0.04399 -0.15200
-0.03389 0.02180 -0.07603
-0.00066 0.02652 -0.09639
0.06933 0.04587 -0.14878
-0.07659 0.08142 -0.27653
-0.00955 0.02829 -0.10255
-0.00200 0.00730 -0.03078
0.00159 0.05111 -0.18591
0.08757 0.05508 -0.16273
-0.05545 0.03297 -0.09778
-0.02465 0.03204 -0.11415
-0.02465 0.03204 -0.11415
-0.02465 0.03204 -0.11415
-0.02947 0.03093 -0.10997
0.04518 0.02102 -0.07186
-0.13181 0.02789 -0.06331
0.00959 0.05686 -0.21039
0.00688 0.05495 -0.19354
-0.02189 0.01297 -0.04412
-0.03579 0.04217 -0.14551
0.10465 0.02176 -0.61699
0.03933 0.02294 -0.07916
0.00837 0.02375 -0.08655
-0.03018 0.02457 -0.09452
0.02119 0.02474 -0.09288
-0.06605 0.07204 -0.48240
-0.00350 0.05928 -0.21323
-0.00017 0.02575 -0.09450
-0.01795 0.03212 -0.11347
-0.01797 0.03207 -0.11381
0.03397 0.02787 -0.10431
0.03801 0.01214 -0.01597
-0.04042 0.02612 -0.09082
0.20455 -0.00008 0.14103
0.00234 0.02539 -0.09436
-0.04462 0.02627 -0.08145
-0.03696 0.03159 -0.10653
-0.06010 -0.10370 0.10162
0.01383 0.04854 -0.16793
-0.06477 -0.08778 0.08690
0.06424 0.05225 -0.17498
-0.07407 0.02928 -0.08609
-0.03262 -0.09953 0.17091
0.01669 0.03130 -0.11326
-0.07119 -0.09340 0.08164
0.02162 0.02856 -0.10333
-0.00511 0.03540 -0.12051
0.07094 0.02554 -0.04462
0.00649 0.02554 -0.09372
-0.00787 0.05790 -0.20452
-0.02524 0.02449 -0.06774
0.01513 0.03130 -0.09196
-0.00851 0.02919 -0.10297
-0.00851 0.02922 -0.10302
-0.07162 -0.07421 0.06070
0.18119 0.06991 -0.38613
-0.02864 0.03280 -0.11975
-0.02254 -0.10532 0.20765
0.00826 -0.09424 0.24806
0.16607 -0.10575 0.31308
0.08586 -0.12587 0.21302
0.01084 0.00211 -0.01421
-0.04208 0.02749 -0.09384
0.16732 0.06625 -0.35565
0.02242 -0.09428 0.21563
-0.05797 -0.12634 0.11739
0.00265 0.00038 -0.00318
0.01937 0.02285 -0.08865
0.13526 -0.11668 0.17167
-0.16278 -0.05065 -0.17289
0.01737 0.01223 -0.04529
-0.04098 0.03309 -0.11550
0.06052 0.07506 -0.36139
-0.20649 -0.15073 0.16112
-0.02286 0.03461 -0.12439
0.04614 0.04880 -0.17145
0.03170 0.06110 -0.23248
0.00990 0.01432 -0.05800
-0.15484 -0.09608 0.12470
0.09213 0.06925 -0.19874
0.05755 -0.10008 0.17687
0.04682 0.02006 -0.06313
0.03218 0.02853 -0.10716
-0.05325 0.04622 -0.14240
0.06227 0.03775 -0.11526
-0.18970 -0.03841 0.06185
0.05915 0.02389 -0.05264
0.14055 0.04835 -0.05158
0.29804 -0.08189 0.52179
-0.05755 0.04616 -0.13984
-0.22289 -0.05166 0.08388
-0.18866 -0.00038 0.01963
0.03065 -0.05219 -0.91829
0.18277 -0.03657 -0.48038
-0.08965 0.04450 -0.11006
0.27060 -0.01605 0.32312
-0.01526 0.03117 -0.10550
0.02556 0.06986 -0.25878
0.01992 -0.03785 0.15592
0.20408 -0.10869 0.33320
0.08412 0.06600 -0.19534
0.01294 0.01342 -0.04993
0.15742 -0.09802 0.25923
0.04869 0.05174 -0.18479
-0.02595 0.01410 -0.05049
-0.06383 0.06728 -0.21111
-0.21669 0.00595 0.02292
-0.14923 -0.01045 0.00553
-0.00136 0.01216 -0.03863
-0.18604 0.01656 -0.07667
-0.11361 0.04035 -0.10253
-0.11812 0.03726 -0.09896
-0.17653 -0.00712 0.02420
0.01967 0.03717 -0.13769
0.11552 0.06299 -0.15075
-0.24272 -0.01629 0.11815
0.21618 0.00626 0.13730
0.11037 0.02490 0.03899
0.17500 0.03290 0.08885
-0.12397 0.03120 -0.03364
-0.21205 -0.09053 0.08659
0.28942 -0.05140 0.46232
0.01610 0.01879 -0.07212
-0.00643 0.04927 -0.14165
0.33481 -0.08397 0.56654
0.00474 0.00962 -0.04498
-0.04494 0.03572 -0.14795
-0.17884 0.01390 -0.09902
0.21385 0.01737 0.14305
-0.22712 -0.10803 0.11372
-0.02948 0.00883 -0.01112
0.04104 0.02756 -0.09729
-0.07776 0.03994 -0.14756
-0.00244 0.03528 -0.12781
-0.17774 -0.05852 0.06340
0.04581 0.05223 -0.18536
0.17892 -0.11287 0.33750
-0.05685 0.00856 -0.01932
0.19221 0.04282 0.10329
0.19223 0.04255 0.10367
-0.00456 0.03357 -0.11357
0.18494 0.03322 0.10439
-0.09511 0.05247 -0.11543
-0.06033 0.03817 -0.13341
0.16448 -0.00291 0.10824
-0.18611 -0.08486 0.11480
-0.18458 -0.08429 0.10380
0.28572 -0.02863 0.37835
-0.06139 0.04985 -0.12558
-0.11770 0.04215 -0.09804
0.18828 -0.05795 0.28360
0.19897 0.07473 -0.01280
0.14067 -0.11313 0.20245
0.13405 0.06366 -0.13535
-0.17387 0.05218 -0.08395
-0.03713 0.04138 -0.14463
-0.06286 -0.10440 0.08478
0.02572 0.04028 -0.14338
-0.01342 -0.07854 0.21225
-0.05700 0.02734 -0.07751
-0.04102 0.05146 -0.16881
-0.11465 0.04385 -0.10107
-0.05668 0.03727 -0.11065
-0.19234 -0.07989 0.10085
0.27716 -0.01882 0.34793
-0.12512 0.03014 -0.05143
0.16312 0.01312 0.07014
