# .PCD v.7 - Point Cloud Data file format
VERSION .7
FIELDS x y z
SIZE 4 4 4
TYPE F F F
COUNT 1 1 1
WIDTH 1875
HEIGHT 1
VIEWPOINT 0 0 0 1 0 0 0
POINTS 1875
DATA ascii
0.06556 -0.02033 0.00535
0.05935 0.00004 0.00039
0.00180 0.00070 -0.00012
-0.13471 0.23966 -0.32197
0.00114 -0.00921 0.00209
0.00129 -0.00936 0.00246
0.01154 -0.02955 0.00780
0.02199 -0.04534 0.01192
-0.01959 -0.02993 0.00769
-0.01949 -0.03000 0.00786
0.01888 -0.04097 0.01105
-0.07606 -0.00902 0.00322
0.05712 -0.02482 0.00671
0.04912 -0.02592 0.00690
-0.02181 -0.08213 0.02161
0.09416 -0.02613 0.00657
0.06372 -0.02522 0.00660
0.06371 -0.02520 0.00660
-0.01352 -0.00724 0.00445
-0.02212 0.15327 -0.21560
0.06019 -0.00285 0.00015
-0.06297 -0.06591 0.01724
0.09044 -0.00583 0.00070
0.07985 -0.00797 0.00212
0.06166 -0.09130 0.02331
-0.06613 -0.00569 0.00191
-0.13428 0.24145 -0.35330
-0.02134 0.20633 -0.22512
0.09256 -0.02565 0.00668
0.14747 -0.02847 0.00841
-0.11641 0.25373 -0.36489
-0.05221 -0.04652 0.01271
0.00240 -0.02886 0.00775
-0.00581 -0.06715 0.01844
-0.00547 -0.06831 0.01997
0.04982 -0.00565 0.00153
-0.04444 -0.06379 0.01689
-0.01721 0.15289 -0.21974
0.02013 -0.04362 0.01118
-0.09402 -0.04421 0.01176
-0.10668 0.25014 -0.36910
-0.03534 -0.04247 0.00383
0.06072 -0.00579 0.00180
-0.09771 -0.05116 0.01482
-0.00322 0.16273 -0.23365
-0.01443 0.16616 -0.21496
-0.10814 0.26384 -0.36536
-0.13123 0.25068 -0.35777
-0.09590 -0.05072 0.01356
0.00543 0.19493 -0.22924
0.09259 -0.04872 0.18899
-0.00209 0.18613 -0.23224
-0.03713 -0.06957 0.01835
-0.09855 -0.04473 0.01206
-0.00450 0.14435 -0.23354
-0.12076 0.26355 -0.36639
-0.06515 -0.06426 0.01641
-0.01289 0.14141 -0.22549
-0.01592 0.13786 -0.21663
-0.02138 -0.02667 0.00701
0.03227 -0.06742 0.01775
-0.13650 0.23302 -0.32242
-0.15195 -0.03076 0.00945
-0.15194 -0.03070 0.00938
-0.01607 0.13783 -0.20565
-0.01299 0.16017 -0.22620
-0.02041 0.15061 -0.20729
-0.01303 0.16051 -0.21755
-0.01418 0.13587 -0.21743
0.23686 -0.16113 0.03914
-0.01464 0.15417 -0.22321
-0.11856 -0.05005 0.01400
0.06955 -0.06728 0.01748
0.09153 -0.04177 0.00904
0.10516 -0.02686 0.00730
-0.00885 0.18300 -0.22576
-0.01419 0.16294 -0.21157
-0.11265 -0.02211 0.00580
-0.00290 0.19221 -0.23003
-0.01332 0.16101 -0.22298
-0.01171 0.17030 -0.22352
-0.01402 0.15997 -0.22472
-0.03286 -0.04127 0.01094
-0.00567 0.13881 -0.23435
-0.00567 0.13881 -0.23435
-0.06961 -0.02177 0.00603
-0.00344 0.17816 -0.23305
-0.04004 -0.04151 0.01108
-0.06545 -0.04500 0.01323
-0.00706 0.14045 -0.23589
-0.13059 0.24896 -0.35960
-0.03861 -0.08964 0.02298
-0.14933 0.26892 -0.28726
0.02245 -0.06010 0.00992
0.03674 -0.08420 0.02044
0.03676 -0.08414 0.02042
-0.03677 -0.00083 0.00102
0.06999 -0.04950 0.01337
0.00616 -0.00841 0.00264
0.02862 -0.02379 0.00616
0.08679 -0.02157 0.00617
-0.00659 0.17930 -0.19447
-0.09204 -0.02937 0.00797
0.11847 -0.04708 0.01185
-0.07733 -0.00913 0.00382
0.10470 -0.02372 0.00544
0.01022 -0.02128 0.00629
-0.00513 -0.02037 0.00554
-0.14846 0.26732 -0.28615
-0.06766 -0.06192 0.01653
-0.00875 0.19940 -0.22196
-0.01258 -0.00877 0.00380
-0.01438 0.17240 -0.19852
0.08438 -0.06133 0.01559
0.01536 -0.04463 0.01055
-0.00546 0.13682 -0.23175
-0.00523 0.13715 -0.23169
0.00560 -0.04358 0.01261
0.01735 -0.04894 0.01276
-0.06584 -0.00098 0.00195
-0.02057 -0.08253 0.02131
-0.14584 0.26197 -0.29712
-0.00660 -0.00149 0.00152
-0.02369 0.20579 -0.23282
0.01424 0.19648 -0.23062
0.06370 -0.06609 0.01764
-0.06753 -0.06995 0.01883
-0.08434 -0.04190 0.01150
-0.14982 -0.02868 0.00819
0.01266 -0.04202 0.01107
0.13144 -0.02001 0.00698
0.12858 -0.02750 0.00655
0.14044 -0.04368 0.01204
0.04601 -0.02828 0.00664
-0.01513 0.14913 -0.21317
-0.11091 -0.02751 0.00771
-0.11852 -0.04174 0.01160
-0.06172 -0.08389 0.02359
0.05399 -0.04516 0.01176
0.01314 0.13760 -0.23077
-0.11361 0.24387 -0.36368
-0.05062 -0.03978 0.01179
-0.01038 -0.06542 0.01678
-0.14568 0.26108 -0.27810
-0.01123 0.18606 -0.22288
-0.08879 -0.02167 0.00512
-0.00859 0.20118 -0.22511
0.08743 -0.06236 0.01495
0.03870 -0.09045 0.02358
0.02101 -0.06635 0.01795
-0.02695 -0.02079 0.00623
0.12627 -0.02127 0.00638
-0.00072 0.13102 -0.23333
0.00935 0.17460 -0.24117
-0.11023 0.24823 -0.37058
-0.00412 0.16358 -0.23358
-0.05478 -0.02800 0.00823
-0.03828 -0.05898 0.01509
-0.06337 -0.04217 0.01036
-0.02032 0.14498 -0.22068
-0.06662 -0.02145 0.00381
-0.00785 0.18560 -0.22704
-0.10018 0.24264 -0.36312
0.05945 0.02360 -0.10141
0.14398 -0.02463 0.00656
0.00085 0.18294 -0.22346
-0.13456 -0.06172 0.01648
-0.13095 -0.06541 0.01724
-0.13399 0.23702 -0.33566
-0.10479 0.23931 -0.36709
0.12494 -0.07201 0.02706
-0.01702 0.15602 -0.22397
0.01625 0.20025 -0.23292
0.06705 -0.02170 0.00616
0.08979 -0.00287 0.00138
-0.03664 -0.06374 0.01666
-0.12724 -0.06966 0.01927
0.00588 -0.08951 0.02280
-0.05108 -0.02528 0.00751
0.02342 -0.02191 0.00584
0.03215 -0.08484 0.02006
0.02978 -0.08671 0.02341
-0.05189 -0.00128 0.00004
-0.06295 -0.06593 0.01728
-0.11323 0.24450 -0.36975
-0.02058 0.15323 -0.21640
0.04492 -0.08832 0.02240
0.09853 -0.02463 0.00572
-0.03784 -0.08588 0.01921
-0.06034 -0.05777 0.06346
-0.01188 0.17372 -0.19569
0.06091 -0.06175 0.01646
0.00223 -0.03243 0.01553
0.00526 0.18222 -0.21737
-0.02908 -0.04387 0.00904
-0.02957 -0.06759 0.01937
-0.07537 -0.04380 0.01184
-0.14246 0.31972 -0.34956
0.09756 0.24918 -0.36617
0.06198 0.35551 -0.60523
0.06128 0.28951 -0.28391
-0.06050 0.33487 -0.43348
0.07952 0.25114 -0.37562
0.16106 0.40999 -0.31468
0.13389 -0.06136 0.01765
-0.14756 0.44964 -0.52710
-0.14699 0.44816 -0.53396
-0.07863 0.37213 -0.37278
0.08399 0.23505 -0.34009
-0.06749 -0.02621 0.00720
-0.06761 -0.02650 0.00764
0.12564 -0.02707 0.00818
0.08880 0.22907 -0.37337
0.09238 -0.06104 0.01595
0.04458 -0.00423 -0.00114
-0.07329 -0.04360 0.01689
-0.14806 -0.02912 0.00767
0.00192 0.31013 -0.36803
0.07167 0.27528 -0.33256
-0.04874 0.28889 -0.42001
0.09487 0.33024 -0.37721
0.14115 0.45270 -0.42986
0.09478 0.37584 -0.92328
-0.15302 0.46449 -0.54711
0.05778 0.29839 -0.42347
0.23898 -0.09127 0.00597
0.00701 0.29545 -0.30217
-0.00522 0.31481 -0.40328
-0.08382 -0.02195 0.00460
0.00923 0.33249 -0.39340
-0.09836 0.22832 -0.27397
0.16119 0.38985 -0.32468
-0.13588 0.24417 -0.35289
0.07883 0.33198 -0.37079
0.06892 0.36698 -0.36784
0.02455 0.29378 -0.32600
0.06447 0.37617 -0.43389
0.01333 0.30795 -0.35817
-0.10973 -0.02747 0.00826
0.06529 0.25812 -0.26929
0.07715 0.38425 -0.38439
0.00339 0.31581 -0.37974
0.02468 0.42864 -0.45904
-0.04945 -0.02862 0.00836
-0.01968 0.31791 -0.42526
0.13899 0.33641 -0.34448
0.14684 0.46409 -0.54834
-0.15399 0.35107 -0.26641
-0.06787 0.28274 -0.25250
-0.06655 0.36234 -0.37940
-0.05522 0.27731 -0.21266
0.14386 0.44254 -0.53906
0.14382 0.44266 -0.53920
0.03569 0.26650 -0.28031
0.02384 0.29866 -0.36154
0.16620 0.41539 -0.31499
-0.09305 -0.00335 0.00006
-0.11072 -0.06847 0.01911
-0.01411 0.28649 -0.30969
0.08105 0.22754 -0.27340
0.00667 0.32315 -0.61563
-0.06301 0.35320 -0.37598
-0.01902 0.29881 -0.37429
-0.06076 -0.08903 0.02450
-0.12102 0.25223 -0.36455
0.01983 0.17259 -0.21611
0.02985 0.32169 -0.41679
0.02858 0.42483 -0.44248
-0.05249 0.37652 -0.37527
0.03032 0.41900 -0.43639
-0.04999 0.38366 -0.44137
0.09326 0.23116 -0.32562
0.10723 0.24525 -0.37933
-0.05491 0.26585 -0.22333
0.01484 0.30390 -0.31550
0.01982 0.24790 -0.26323
0.08739 0.23630 -0.34437
-0.05176 0.28894 -0.42366
0.03057 0.30254 -0.42021
0.05918 0.26119 -0.23900
-0.04400 0.41877 -0.48754
-0.06820 0.37306 -0.38081
0.09430 0.24372 -0.38211
0.12004 0.24017 -0.32744
0.06261 0.28052 -0.31091
-0.08247 0.25456 -0.31218
0.05676 0.21250 -0.22334
0.01176 -0.08629 0.02251
-0.00969 0.29088 -0.30314
-0.03212 0.22701 -0.25187
-0.05409 -0.04527 0.01289
0.07163 0.41264 -0.39293
0.01833 0.35724 -0.38277
0.02489 0.28300 -0.31455
-0.02101 0.41072 -0.50982
-0.04015 0.38406 -0.49968
0.15151 0.40714 -0.31860
-0.04151 0.40894 -0.49696
-0.13892 0.32667 -0.36363
-0.06858 0.22915 -0.24051
0.02327 0.32139 -0.41314
-0.00210 0.36942 -0.37445
-0.15417 0.47196 -0.56335
-0.03277 -0.08666 0.02280
-0.13419 0.23335 -0.32181
-0.07409 0.36997 -0.38188
-0.11109 0.22605 -0.26005
-0.06972 -0.02801 0.01689
0.02333 0.42195 -0.52765
0.03607 0.36090 -0.42892
0.01915 0.16571 -0.22716
0.09110 0.36883 -0.40744
-0.04194 0.41200 -0.49434
0.00412 0.44206 -0.38253
-0.05270 0.36445 -0.43386
-0.06572 0.26337 -0.23508
-0.06048 0.38373 -0.37871
0.13143 0.33090 -0.37485
0.00735 0.29334 -0.30493
0.00478 0.24821 -0.29478
0.00511 0.24340 -0.26352
0.00889 0.29769 -0.30429
-0.04002 0.29559 -0.43936
-0.16191 0.29726 -0.27654
0.02365 0.35022 -0.36966
-0.03272 -0.02227 -0.18301
0.05966 0.25365 -0.14106
-0.01501 0.36124 -0.39993
0.16531 0.42790 -0.30676
-0.08947 0.24946 -0.35154
-0.00544 0.25489 -0.27431
-0.13399 0.43352 -0.40389
0.14458 0.46460 -0.54334
-0.03211 -0.06685 0.01759
-0.12131 0.23217 -0.36737
-0.00144 0.27964 -0.29161
0.03812 0.21646 -0.23710
-0.04178 0.39263 -0.51081
0.01510 0.33715 -0.36957
0.00131 0.30623 -0.31421
0.06628 0.23108 -0.26407
-0.08782 0.35078 -0.34418
-0.02460 0.22173 -0.22804
0.02087 0.26762 -0.27423
0.09848 0.33412 -0.38002
0.05300 -0.06892 0.01778
0.01649 0.26934 -0.27581
-0.07778 0.31746 -0.34795
0.02817 0.42051 -0.44534
0.05675 -0.01397 0.00296
-0.13296 0.32502 -0.37132
-0.01192 0.20949 0.21081
-0.04485 0.40282 -0.47676
-0.03770 0.41350 -0.53921
-0.08087 0.43803 -0.51403
0.05958 0.35209 -0.41001
-0.07925 0.36562 -0.38546
-0.06723 0.29250 -0.23229
0.05883 0.30542 -0.42488
0.02140 0.31795 -0.41728
0.08086 0.37511 -0.44706
-0.08947 0.37369 -0.37159
-0.06763 0.38051 -0.36801
0.07727 0.30497 -0.31322
-0.08484 0.30623 -0.33069
-0.07838 0.37865 -0.36485
0.00514 0.29041 -0.29147
0.02780 0.30185 -0.42544
-0.03994 0.24388 -0.24519
0.12907 0.43111 -0.40015
0.00450 -0.01370 0.00304
-0.07216 0.22722 -0.23761
-0.00717 -0.01536 0.00643
0.02486 0.42784 -0.53161
0.02482 0.42781 -0.53179
0.03025 0.22789 -0.27159
0.07447 0.22955 -0.26921
-0.00339 0.41388 -0.41638
-0.01759 0.24386 -0.29495
0.06467 0.25203 -0.25359
-0.08669 0.33375 -0.38834
-0.13853 0.24525 -0.35101
0.01812 0.29648 -0.30094
-0.07925 0.30880 -0.33316
0.06384 0.32000 -0.41521
-0.07705 0.31666 -0.31243
0.07962 0.38153 -0.43956
0.02618 -0.05611 0.01574
0.09630 0.35964 -0.39882
0.02491 0.38557 -0.42974
-0.13193 0.34987 -0.38354
0.13649 0.25515 -0.36010
-0.02728 -0.01505 0.00409
-0.04048 0.27605 -1.00000
-0.05680 0.22987 -0.23770
0.06116 -0.03393 0.00802
-0.02781 -0.05634 0.01531
-0.06130 0.22831 -0.23122
0.00172 0.28975 -0.28793
-0.10136 0.41345 -0.39727
0.12766 0.29602 -0.42382
-0.12637 0.32953 -0.39662
-0.12636 0.33088 -0.38480
0.09807 0.22943 -0.37757
-0.08715 0.23122 -0.26928
0.09812 0.26353 -0.35486
-0.01041 0.23129 -0.62672
-0.07266 0.28029 -0.35780
0.08647 0.26053 -0.32168
-0.09364 0.30283 -0.34167
0.13344 0.24599 -0.35913
-0.12801 0.32964 -0.38472
-0.08186 0.34067 -0.38652
0.00719 0.32801 -0.41629
0.09644 0.34727 -0.39382
-0.06141 0.22329 -0.22000
-0.01956 0.35452 -0.44915
-0.04433 0.40874 -0.50401
0.11683 0.34857 -0.38801
-0.12485 0.24971 -0.35777
0.03896 0.43556 -0.43695
-0.08404 0.26550 -0.31338
-0.08265 0.26655 -0.32625
0.10256 0.35171 -0.38564
-0.02814 0.30991 -0.43309
0.13510 0.27700 -0.35037
-0.08186 0.47068 -0.55954
0.10239 0.35343 -0.39281
-0.11562 0.23007 -0.34809
-0.00807 0.27264 -0.95869
0.04981 -0.09086 0.19171
-0.10184 0.33281 -0.36376
0.10288 0.32946 -0.38035
0.10288 0.32946 -0.38035
-0.08814 0.30242 -0.32788
-0.13021 0.44018 -0.43455
0.02949 0.30844 -0.42421
-0.02973 0.46273 -0.55220
-0.03915 0.39013 -0.50097
0.01033 0.31409 -0.45206
-0.12468 0.26432 -0.39408
-0.03015 0.28125 -0.32777
0.05548 0.27497 -0.33005
-0.05488 0.23609 -0.24752
-0.04460 0.41476 -0.49304
0.05065 -0.00636 0.00123
-0.04961 -0.02566 0.00678
-0.08397 -0.04829 0.01372
-0.07439 -0.00212 0.00114
0.07019 0.37786 -0.43651
-0.13586 -0.06331 0.01801
0.02593 -0.04347 0.01194
0.13542 -0.06830 0.01827
0.08991 -0.00570 0.00135
0.12399 0.23416 -0.32680
0.02113 0.15926 -0.23076
0.09406 -0.06325 0.01618
-0.02907 0.23077 -0.25133
-0.00621 0.30501 -0.38182
0.05302 -0.02286 0.00498
0.01578 0.43428 -0.43896
0.10072 -0.06385 0.01714
0.00984 0.31954 -0.37638
-0.00695 0.30879 -0.39421
-0.08501 0.24922 -0.31826
-0.06962 0.26142 -0.24692
-0.00418 0.18103 -0.22423
0.08974 0.22511 -0.26965
-0.02351 0.41038 -0.54306
-0.04763 0.23969 -0.15392
0.11055 0.34865 -0.38853
0.04812 -0.05211 0.09631
0.05626 0.36857 -0.41752
0.06840 0.33922 -0.40052
0.05989 0.37819 -0.41489
0.05988 0.37821 -0.41339
-0.02182 0.37216 -0.33553
0.14048 0.45229 -0.43225
-0.00321 0.14283 -0.23392
0.16387 0.47210 -0.48518
0.08877 0.25326 -0.34648
0.01132 0.43007 -0.42503
0.13753 0.44592 -0.37891
-0.11533 0.28587 -0.36578
0.09856 0.35988 -0.39736
0.03720 0.42875 -0.41832
0.05717 0.36816 -0.30635
0.08816 0.23905 -0.36020
0.02779 0.21258 -0.23580
0.06042 0.36105 -0.45095
-0.12225 0.32185 -0.51360
0.00052 0.32075 -0.39563
-0.05157 0.29350 -0.41761
0.03587 0.42734 -0.43535
-0.12824 0.24974 -0.36020
0.08112 0.22733 -0.27085
-0.12849 0.23879 -0.35987
0.03578 0.21150 -0.22843
0.09004 0.36987 -0.39948
0.11938 0.43987 -0.55069
-0.03573 0.31223 -0.43435
0.06018 0.25568 -0.22277
-0.06387 0.36949 -0.38028
-0.08690 0.23498 -0.28410
0.14291 0.25213 -0.30552
0.13659 0.44199 -0.51854
-0.09485 0.36182 -0.41856
0.16517 0.44316 -0.30119
0.15140 0.44319 -0.34039
0.04938 0.39002 -0.38430
0.08706 0.25484 -0.31339
0.00941 0.17100 -0.23882
0.06120 0.30764 -0.41967
-0.12576 0.23964 -0.36193
-0.05781 0.31990 -0.41593
0.02980 0.26497 -0.30488
-0.00137 0.32000 -0.38657
0.09815 0.26964 -0.35625
0.14239 0.36131 -0.28932
-0.08476 0.28416 -0.29200
-0.09633 0.34221 -0.36220
-0.10173 0.23610 -0.35185
0.14698 0.47296 -0.56807
-0.05163 0.31989 -0.42583
-0.09062 0.24446 -0.35796
-0.11580 0.23425 -0.36295
0.10134 0.27080 -0.33760
-0.00787 0.36023 -0.39036
-0.01534 0.26282 -0.28963
0.10196 0.22793 -0.37830
-0.15036 0.44217 -0.53552
0.15674 0.35751 -0.28740
-0.00508 0.28191 -0.30588
0.05861 0.35097 -0.42758
-0.10203 0.26233 -0.35758
-0.01154 0.36065 -0.39220
0.02836 0.28389 -0.30989
0.02814 0.28361 -0.30873
0.08299 0.23046 -0.30712
0.06055 0.24918 -0.23937
-0.12806 0.40362 -0.44592
0.08588 0.24734 -0.34896
0.14919 0.47133 -0.55674
-0.05134 0.36672 -0.38493
0.08872 0.33649 -0.37130
-0.13211 0.25428 -0.35914
-0.07070 0.32675 -0.39324
0.06351 0.36680 -0.42917
-0.07533 0.25221 -0.25406
0.12255 0.42309 -0.44252
0.01601 0.31036 -0.34717
0.09402 0.22727 -0.37774
0.07276 0.42570 -0.52458
-0.13238 0.34975 -0.38209
-0.01164 0.19931 -0.21989
0.08375 0.32652 -0.33599
-0.00410 0.26963 -0.27710
0.13610 0.43259 -0.40040
0.13587 0.26174 -0.36298
0.12910 0.42146 -0.39760
0.06953 0.30036 -0.40160
0.05879 0.21518 -0.22732
-0.09537 0.28081 -0.31002
-0.05375 0.32547 -0.42852
-0.00837 0.22135 -0.25063
0.06700 0.32181 -0.43353
0.01835 0.30906 -0.37914
-0.01071 0.25014 -0.29413
-0.03499 0.42166 -0.54190
-0.01496 0.13958 -0.22050
-0.05846 0.30335 -0.39430
0.09664 0.43616 -0.43245
0.09909 0.43774 -0.40625
0.17151 0.34058 -0.36074
0.01249 0.42817 -0.41702
-0.12242 0.31769 -0.45489
-0.08446 0.24185 -0.26777
-0.04980 0.30612 -0.47278
-0.09021 0.24840 -0.31645
0.02134 0.32764 -0.45711
0.01473 0.39953 -0.42094
-0.08852 0.23777 -0.33195
0.06335 0.35814 -0.37240
-0.03716 0.36965 -0.48010
0.02684 0.35443 -0.41149
-0.07459 0.26833 -0.30330
0.09892 0.30936 -0.35872
-0.00888 0.19303 -0.24861
0.01808 0.26382 -0.27256
-0.09985 0.23946 -0.33607
0.11305 0.44419 -0.40546
-0.05345 0.33883 -0.44893
0.09693 0.38072 -0.39421
-0.08789 0.23432 -0.27060
-0.06952 0.21688 -0.20845
0.02007 0.26788 -0.35023
0.07691 0.43546 -0.50579
0.07584 0.43561 -0.50167
-0.13107 0.25902 -0.36950
0.03612 0.23587 -0.26245
-0.10186 0.42008 -0.40162
0.07533 0.43691 -0.54133
-0.09505 0.29202 -0.33068
0.09629 0.34728 -0.39508
-0.05274 0.29476 -0.44502
0.01869 0.30710 -0.34662
-0.02176 0.36378 -0.46730
0.02326 0.31248 -0.42580
0.08667 0.25636 -0.29469
-0.09414 0.35824 -0.35171
0.12908 0.34151 -0.38036
0.11896 0.30860 -0.47851
-0.00605 0.24830 -0.27631
-0.03893 0.21510 -0.21779
0.07425 0.37338 -0.40383
0.01025 0.29466 -0.29753
-0.09964 0.47166 -0.53499
-0.09817 0.46897 -0.54821
0.01345 0.22246 -0.25219
0.12745 0.27153 -0.36240
-0.13056 0.33854 -0.40490
0.02774 0.26352 -0.29525
-0.07230 0.28827 -0.29814
-0.01944 0.39879 -0.49792
0.09413 0.45769 -0.39108
0.03966 0.40021 -0.45215
-0.08428 0.35418 -0.40211
0.05837 0.24254 -0.23967
0.14132 0.26188 -0.30866
0.05205 0.34471 -0.44783
0.05205 0.34471 -0.44783
0.08957 0.48125 -0.57250
-0.11714 0.24530 -0.34476
-0.00199 0.28673 -0.27798
-0.08260 0.26061 -0.32748
-0.03428 0.27814 -0.37825
0.17116 0.43118 -0.29431
0.12747 0.44301 -0.41330
-0.10474 0.24190 -0.35580
-0.02075 0.30750 -0.44131
0.01192 0.17288 -0.23515
0.08607 0.30301 -0.29930
-0.05465 0.28831 -0.43998
-0.02664 0.23009 -0.25722
0.12648 0.26664 -0.34521
0.01583 0.24479 -0.25657
-0.04529 0.43425 -0.53845
-0.08009 0.22715 -0.22670
-0.07664 0.25729 -0.30237
-0.05712 0.23115 -0.24214
-0.22840 0.28211 -0.15970
0.02299 0.25533 -0.28956
0.06679 0.36177 -0.40154
-0.04484 0.41481 -0.52634
-0.05619 0.25325 -0.23821
0.09206 0.29792 -0.57792
-0.01320 0.14904 -0.22626
0.06136 0.36728 -0.40555
-0.00328 0.26246 -0.28499
0.06833 -0.04332 0.01121
0.06942 -0.04954 0.03219
-0.09132 0.35507 -0.35787
0.01963 0.23961 -0.26395
0.10316 0.23097 -0.35986
0.09251 0.23430 -0.38278
0.07795 0.27084 -0.33285
0.09973 0.35313 -0.39206
0.04897 0.34345 -0.45198
0.11225 0.28831 -0.31067
-0.03800 0.38654 -0.49336
0.02107 0.17533 -0.21665
0.02108 0.17371 -0.21046
-0.11505 0.22299 -0.32165
-0.03870 0.23652 -0.23648
0.03517 0.36236 -0.39613
-0.06264 0.22308 -0.22623
0.01526 0.23677 -0.26239
-0.00482 0.35875 -0.38579
0.01013 0.24827 -0.26421
-0.07700 -0.02301 0.00590
-0.07700 -0.02301 0.00590
-0.12263 -0.04826 0.01553
0.01186 0.23591 -0.25870
0.05935 0.27442 -0.35080
0.01806 -0.08286 0.01762
0.01912 0.26055 -0.27726
0.11302 -0.03978 0.07670
-0.00201 -0.02334 0.00860
0.13153 0.36392 -0.33348
0.13153 0.36392 -0.33348
-0.07438 -0.04947 0.02170
-0.15632 0.27775 -0.27256
0.06449 0.23394 -0.25348
0.03561 0.24499 -0.26107
-0.06492 -0.02477 0.00787
-0.02325 0.24491 -0.27131
0.13569 0.44316 -0.40805
-0.00230 0.14408 -0.23807
-0.00801 0.14636 -0.23066
0.01454 0.16777 -0.23145
-0.12036 0.22335 -0.32393
0.01070 0.36163 -0.37603
0.01331 0.13929 -0.22730
-0.11018 0.25405 -0.36769
0.03700 0.22078 -0.23336
-0.02994 0.28886 -0.43080
0.04595 0.29178 -0.42537
-0.00940 0.42298 -0.51792
0.02071 0.33987 -0.38642
0.03647 0.29296 -0.38727
0.03997 0.29770 -0.29843
-0.08602 0.30208 -0.32705
0.13375 0.27263 -0.36414
-0.06832 0.33231 -0.41774
-0.07874 0.22846 -0.24831
-0.07864 0.28132 -0.37090
0.14532 0.28873 -0.31459
0.03880 0.29153 -0.41650
-0.04568 0.27041 -0.46747
0.12799 0.29159 -0.19910
0.02532 0.30553 -0.43161
-0.02569 0.25216 -0.42148
-0.01314 0.16159 -0.22360
-0.02728 -0.06933 0.01804
0.10384 -0.02364 0.00709
0.10378 -0.02340 0.00628
-0.09546 0.24468 -0.35263
-0.00371 -0.02008 0.00491
0.01552 0.33047 -0.39007
-0.06845 0.30068 -0.32460
0.15674 0.45191 -0.37316
0.04430 -0.01999 0.00518
0.00338 0.33583 -0.38760
-0.06299 -0.04802 0.01322
-0.03428 0.39819 -0.52390
-0.00749 -0.08795 0.02761
0.08964 0.25297 -0.33813
0.11862 -0.04147 0.01120
-0.13183 -0.04075 0.00779
-0.13402 -0.04398 0.01253
0.06653 0.29940 -0.36963
0.16412 0.44327 -0.32579
0.06633 0.30416 -0.37359
0.10897 -0.06698 0.01215
0.10940 -0.06718 0.01573
0.12911 -0.04312 0.00597
-0.09870 0.24498 -0.35044
-0.06945 -0.06579 0.02003
-0.06907 -0.06363 0.01572
-0.06131 -0.04615 0.00794
-0.02528 -0.08837 0.02108
0.02331 0.17197 -0.21447
-0.01709 0.42351 -0.51957
0.23972 -0.09255 0.01225
-0.01815 0.38047 -0.42420
-0.00943 0.30278 -0.38288
0.00835 0.31632 -0.33900
0.07227 0.33015 -0.41093
0.01915 0.15783 -0.22319
-0.07556 -0.06922 0.01863
0.07849 0.32920 -0.35829
0.07707 0.28895 -0.23221
0.07878 0.32921 -0.35975
0.25801 0.27648 0.07924
-0.23957 0.08430 -0.04399
0.09070 0.47118 -0.55592
0.09088 0.44502 -0.42664
-0.04294 0.41520 -0.49143
0.29903 -0.19344 0.56989
0.23203 -0.22435 0.02538
-0.00967 0.25648 -0.28808
-0.09401 0.23334 -0.33904
0.02042 0.17131 -0.22202
0.02468 0.36193 -0.43087
-0.09421 -0.02688 0.00851
0.23334 -0.21971 0.03399
0.09435 0.44390 -0.40718
-0.16721 0.45543 -0.41697
0.00812 0.26252 -0.27002
-0.06067 0.26083 -0.22887
0.16603 0.43549 -0.30818
-0.23667 -0.22377 0.04396
-0.01348 0.30205 -0.46026
0.02119 0.14191 -0.22236
-0.09542 0.35422 -0.36790
-0.07929 0.30783 -0.33104
-0.01603 0.36106 -0.39031
-0.00426 0.43312 -0.45143
0.01930 0.33417 -0.45245
-0.05791 0.32409 -0.42277
0.00512 0.19067 -0.23925
0.08514 0.24853 -0.38351
-0.11722 -0.04450 0.01245
0.04249 -0.08897 0.02313
-0.00128 0.13024 -0.22474
-0.01396 -0.06186 0.01591
0.00807 0.31350 -0.36896
-0.06913 -0.04557 0.01220
0.10246 0.24467 -0.38219
0.08057 -0.00680 0.00193
-0.13991 0.44943 -0.41682
-0.06432 -0.06852 0.01793
-0.04999 -0.06445 0.01692
-0.13982 0.44297 -0.40834
-0.10666 -0.06690 0.01730
0.06017 -0.08954 0.02361
-0.03643 -0.06825 0.01742
-0.04250 0.42330 -0.52094
-0.03222 -0.00880 0.00245
-0.09704 -0.04904 0.01274
0.04507 -0.08890 0.02301
-0.13787 -0.02847 0.00927
-0.02258 0.29298 -0.41586
-0.01084 0.22757 -0.27670
0.09073 -0.06594 0.01766
0.13739 0.44732 -0.41187
0.14961 0.46772 -0.54664
0.06502 0.30392 -0.31110
-0.13087 -0.02747 0.00866
-0.03108 0.28590 -0.41560
-0.13992 0.45188 -0.45796
0.24116 -0.06396 0.01505
-0.08184 0.27552 -0.26465
-0.01945 0.38766 -0.45591
0.05566 0.36441 -0.41833
0.06254 0.29626 -0.25668
0.15158 0.44304 -0.34197
-0.04560 0.28536 -0.42360
0.15676 0.45793 -0.33208
-0.09653 0.43533 -0.39034
0.23954 0.09590 -0.02881
0.05867 -0.06860 0.01708
0.24103 -0.10101 0.02200
0.24103 -0.10101 0.02200
0.24158 -0.19479 0.04183
-0.08881 0.33948 -0.39664
0.14712 0.46475 -0.54504
-0.02072 0.41261 -0.53925
-0.06636 0.32279 -0.41308
0.15963 0.38282 -0.34785
-0.14984 -0.23970 0.05179
-0.14984 -0.23970 0.05179
-0.14615 0.42773 -0.46226
0.00958 0.42321 -0.48288
0.24046 -0.06723 0.01164
-0.24163 -0.09237 0.01060
0.16691 0.41571 -0.30956
0.13785 0.34948 -0.33866
-0.09772 -0.04561 0.01187
0.11545 0.23387 -0.36307
-0.02318 -0.02504 0.00613
-0.24104 0.08299 -0.03851
0.24078 -0.10655 0.02131
-0.14273 0.44176 -0.53972
0.07076 0.27572 -0.33962
0.24159 -0.13912 0.03514
0.23400 -0.09228 -0.03744
-0.06141 -0.02575 0.00752
0.00441 -0.00659 0.00470
0.06375 0.30326 -0.25391
0.07931 0.24258 -0.34343
0.02632 0.27531 -0.30847
-0.00978 0.30346 -0.35068
0.04337 0.39843 -0.40483
-0.13320 0.25003 -0.36671
-0.07003 -0.00255 0.00027
-0.13949 0.43549 -0.40127
0.11480 0.23901 -0.34884
0.11308 0.23706 -0.37738
0.13444 0.25171 -0.35943
-0.08587 0.24915 -0.31005
-0.07873 0.37242 -0.36770
0.24752 -0.09837 0.07583
-0.13895 0.31441 -0.36481
0.14493 0.36933 -0.30376
0.11443 -0.02075 0.00487
-0.00072 -0.23952 0.04374
0.12033 0.36508 -0.37405
0.09499 0.25476 -0.38086
0.00458 0.33117 -0.40980
-0.23885 -0.23274 0.03647
0.05956 0.26086 -0.24820
-0.09549 0.43112 -0.40671
0.05826 0.29664 -0.41094
-0.07043 0.29346 -0.36995
-0.07741 0.33268 -0.35040
-0.12382 0.23907 -0.36399
0.13853 0.25404 -0.31547
-0.02679 -0.03521 0.01209
-0.02679 -0.03521 0.01209
-0.15008 0.46368 -0.54523
0.01669 0.13644 -0.22128
-0.00207 -0.03447 0.00886
-0.05623 -0.03593 0.00994
-0.02282 -0.07556 0.02099
-0.10455 0.23296 -0.34252
-0.14495 0.27790 -0.36645
-0.01742 0.24830 -0.25609
-0.09005 0.33344 -0.31416
0.02729 0.29757 -0.39647
0.09931 -0.05668 0.01833
0.15184 0.40694 -0.31913
0.02057 -0.01381 0.00713
-0.23209 0.47123 -0.15817
-0.13101 0.24680 -0.35155
0.15849 0.30255 -0.31314
-0.06198 0.27051 -0.30573
-0.07533 0.26385 -0.26952
-0.05565 0.29268 -0.42250
-0.01649 0.13871 -0.21207
0.02499 0.21378 -0.23765
0.02515 0.21383 -0.23648
0.02359 -0.00567 -0.05639
0.08742 0.46696 -0.53803
0.07798 -0.01453 0.00484
0.01130 0.40983 -0.45265
-0.00166 -0.00165 0.01375
-0.24982 -0.05709 0.04263
-0.13732 -0.06043 0.03838
0.15286 0.36507 -0.31158
0.03157 -0.02870 -0.01607
-0.02204 0.39504 -0.49705
-0.02002 0.32536 -0.42463
-0.11994 -0.02637 0.00837
-0.11994 -0.02637 0.00837
0.06862 0.30262 -0.32365
-0.01478 -0.02600 0.00863
-0.10191 0.25607 -0.35380
0.00143 0.16468 -0.23900
-0.07058 0.26329 -0.31655
-0.05743 -0.05599 0.01296
0.07115 -0.10460 0.28464
-0.07674 0.33300 -0.38147
0.04483 0.43352 -0.41965
-0.02125 0.27956 -0.29384
-0.24255 -0.03639 0.01512
0.17163 0.41217 -0.26780
-0.00321 0.33895 0.08896
-0.02422 -0.08353 0.02033
0.12429 0.23938 -0.35435
-0.01994 0.16155 -0.21080
0.03900 0.20988 -0.22299
-0.00860 0.20729 -0.23508
0.11101 0.24491 -0.36721
-0.06230 0.25602 -0.23820
0.01234 0.19525 -0.22868
-0.02327 -0.02484 0.00591
0.05948 -0.06276 0.01376
0.00298 -0.02260 0.00542
0.08393 0.23450 -0.33860
0.14070 0.44848 -0.53413
-0.01891 0.33997 -0.41903
-0.00070 0.30956 -0.36206
0.00863 0.42982 -0.45048
0.02090 0.42162 -0.55163
-0.02983 0.34602 -0.46353
0.14336 0.33587 -0.32325
-0.22593 0.33238 -0.15381
-0.01565 0.39234 -0.36107
-0.01997 0.16535 -0.20499
0.02147 -0.02012 0.00539
0.00664 -0.00090 -0.00126
0.06320 -0.00013 0.00091
0.05600 -0.02336 0.00644
0.02199 0.16187 -0.22031
0.02231 0.16192 -0.21942
0.09077 -0.02364 0.00278
0.04750 -0.02494 0.00643
-0.06261 -0.02990 0.00833
0.02607 -0.02581 0.00643
0.02200 0.16132 -0.22169
0.00211 -0.04637 0.01189
-0.03442 -0.06059 0.01588
0.01871 0.19760 -0.22605
0.00648 -0.02190 0.00579
0.05247 -0.00212 0.00000
0.02789 0.15408 -0.21071
-0.02713 -0.02304 0.00697
0.09387 -0.04203 0.01133
0.09308 -0.04051 0.00895
-0.08816 -0.00399 0.00352
-0.00708 0.13567 -0.23303
-0.09144 -0.02248 0.00583
0.09242 -0.02707 0.00773
0.02176 0.16859 -0.22257
0.02197 0.16683 -0.21873
-0.03692 -0.09077 0.02343
-0.05089 0.00052 -0.00014
-0.01866 0.15789 -0.21215
-0.06616 -0.04964 0.01309
-0.05361 0.06395 -0.19919
0.03417 -0.05055 0.01523
-0.02451 -0.04403 0.01173
-0.07522 -0.02086 0.00583
-0.02055 0.16257 -0.20360
0.01279 -0.02846 0.00726
0.02195 0.15974 -0.22110
0.02166 0.16012 -0.22367
-0.12490 -0.04823 0.01335
-0.09869 -0.01037 0.01220
-0.01197 0.16272 -0.23456
-0.00813 0.14645 -0.23461
0.01425 0.18255 -0.22662
0.01419 0.18233 -0.22615
0.09499 -0.02620 0.00758
-0.10828 -0.02437 0.00619
0.05967 -0.04350 0.01069
-0.12485 -0.02535 0.00699
0.00436 -0.02522 0.00654
0.10323 -0.04589 0.01189
-0.03397 0.22199 -0.23617
0.00458 -0.04909 0.04501
-0.08482 -0.02640 0.00791
-0.08475 -0.02585 0.00728
0.01893 0.23230 -0.25615
-0.07465 0.00010 -0.00126
-0.00380 -0.04204 0.01087
-0.01644 0.16820 -0.21082
0.02197 0.14438 -0.22024
0.02229 0.14393 -0.22011
0.02539 0.17979 -0.24884
0.02203 0.14649 -0.22683
-0.00982 0.18415 -0.22799
-0.00998 0.18283 -0.22498
0.14732 -0.02134 0.00701
0.11086 -0.02968 0.00780
-0.08724 -0.06633 0.02018
-0.12031 -0.04521 0.01549
-0.11985 -0.04317 0.01180
-0.11179 0.26577 -0.40153
-0.01878 0.22172 -0.20145
-0.01775 0.24490 -0.27734
-0.05007 -0.06491 0.01762
0.08864 0.24892 -0.30622
-0.01269 0.16922 -0.23031
-0.05487 -0.08706 0.02154
-0.09850 -0.04504 0.01237
0.08877 0.00121 -0.00294
-0.01009 0.17048 -0.22202
-0.07536 -0.02313 0.00590
-0.05651 -0.03984 -0.01460
0.02426 0.15915 -0.17774
-0.00638 0.14628 -0.23219
0.02536 0.15780 -0.21610
0.02167 0.16772 -0.20969
-0.01995 0.14865 -0.21418
-0.07793 -0.06609 0.01974
0.01897 0.17907 -0.22148
0.02421 0.20401 -0.23227
0.06592 -0.02858 0.00755
0.02641 0.20173 -0.22790
-0.01208 0.17155 -0.21835
-0.01175 0.17122 -0.21768
0.00234 0.29951 -0.31478
0.02606 0.15566 -0.21163
-0.04001 -0.04910 0.01258
0.01549 0.17859 -0.22671
0.01646 0.17323 -0.20491
0.04728 -0.00346 0.00134
0.02536 -0.00256 0.00126
-0.00693 0.18548 -0.22886
-0.00177 -0.04675 0.01516
0.00557 0.07214 -0.15278
-0.06435 -0.02546 0.01150
0.01813 0.19242 -0.22375
0.02802 0.27021 -0.30643
0.00957 0.25063 -0.40245
0.00957 0.25063 -0.40245
-0.07338 -0.06772 0.01775
-0.09847 -0.04817 0.01254
-0.02861 -0.08121 0.10845
-0.00042 -0.02078 0.00574
-0.08065 0.23108 -0.25239
-0.14001 -0.04747 0.01326
0.00947 0.19349 -0.23431
-0.00805 0.14592 -0.24006
0.00967 0.17549 -0.23815
-0.01647 0.14882 -0.22336
0.01308 0.18469 -0.22475
-0.00341 0.20384 -0.22497
-0.05565 -0.01889 0.00082
0.02366 0.14384 -0.22182
0.05985 -0.04716 0.01228
-0.09711 -0.04387 0.01134
-0.09196 0.00003 0.00046
-0.11759 -0.04853 0.01325
-0.11452 0.25369 -0.36540
0.04813 -0.04853 0.01226
-0.00975 0.31715 -0.41771
-0.02743 -0.04122 0.01011
-0.03714 -0.04748 0.01277
-0.07298 -0.00456 0.00143
0.04562 0.30389 -0.44029
-0.12807 0.26201 -0.35375
-0.05136 -0.06269 0.01443
0.09812 -0.03034 0.01082
-0.05308 -0.02527 0.00240
-0.00218 0.00017 0.00031
-0.02581 -0.04083 0.01072
0.07652 -0.02039 0.00558
-0.13318 -0.06159 0.01673
0.08723 -0.04437 0.00911
-0.01890 -0.07024 0.01807
-0.12677 -0.06721 0.01900
0.05836 -0.08180 0.02146
-0.03533 -0.02099 0.00428
0.08765 -0.00428 -0.00142
0.00122 -0.06872 0.01763
-0.14148 -0.05043 0.01402
-0.01463 0.37668 -0.37644
-0.03093 0.41613 -0.50764
0.00507 -0.06528 0.01920
-0.04938 -0.02760 0.00624
-0.13799 -0.04707 0.00941
-0.11241 -0.02208 0.00600
-0.12288 -0.04398 0.01213
-0.00955 0.30386 -0.38208
-0.00689 0.23405 -0.24870
-0.00478 -0.05005 0.03948
-0.08821 -0.04877 0.01458
-0.00383 -0.04662 0.01278
0.08417 -0.02114 0.00280
-0.11071 -0.06834 0.01897
-0.00132 0.22562 -0.09804
-0.10489 0.33121 -0.37659
0.04441 -0.00412 0.00870
-0.02033 0.30709 -0.42268
0.00276 0.23044 -0.25630
0.02251 0.16786 -0.22946
0.09775 -0.06464 0.01868
0.02936 -0.10007 0.06387
0.05770 -0.04280 0.01048
0.07124 0.27731 -0.32620
0.13295 0.26872 -0.38733
-0.01726 0.36499 -0.38786
0.08817 -0.06830 0.01824
-0.06170 -0.00361 0.00118
0.02074 -0.04785 0.01290
-0.00793 -0.00886 0.00235
0.12616 -0.04933 0.01680
-0.02066 0.29695 -0.31175
-0.01615 0.26581 -0.28544
-0.09376 0.26100 -0.28374
0.10093 0.26211 -0.35623
0.07348 0.25665 -0.25944
-0.05209 -0.08627 0.02252
-0.05584 -0.03097 -0.00897
-0.14914 0.45608 -0.41232
-0.14377 0.44760 -0.47240
-0.15101 0.33386 -0.29930
0.01503 -0.00687 0.00310
-0.04182 0.41853 -0.51724
0.01424 -0.01221 0.01946
-0.03144 -0.04085 0.01068
-0.06973 0.33068 -0.36801
0.10753 -0.02159 0.01119
0.12315 -0.02938 0.00781
-0.09294 0.23420 -0.34459
-0.00747 -0.04401 0.00843
-0.07318 -0.04260 0.01276
0.09302 -0.00084 0.00163
0.09314 -0.00056 0.00106
-0.01013 0.31200 -0.28279
-0.03216 -0.00908 0.00302
0.03855 0.00017 0.00214
-0.00100 -0.04412 0.01182
0.06117 -0.00631 0.00276
0.02752 -0.07474 0.02754
0.23835 0.25589 -0.07566
0.23835 0.25589 -0.07566
0.03324 -0.00542 -0.00124
-0.01410 -0.06939 0.01805
0.02594 0.16170 -0.22448
0.08707 0.22932 -0.37799
-0.03564 0.31217 -0.42569
-0.05963 0.30376 -0.39103
0.11888 0.26827 -0.44741
0.13608 -0.04470 0.01166
-0.09386 0.32237 -0.31527
0.05203 -0.08493 0.06763
-0.12489 -0.04664 0.01722
0.01523 -0.04721 -0.04193
-0.13429 -0.04459 0.01521
-0.12778 0.22911 -0.33271
0.10123 0.22650 -0.27018
0.10663 0.22507 -0.22596
0.04814 -0.02566 0.00754
-0.05068 -0.00921 0.00235
-0.06930 -0.03201 0.01294
-0.09275 0.33095 -0.34743
-0.04772 -0.06892 0.01780
-0.07218 0.26470 -0.37005
0.03450 -0.04108 0.01218
0.09426 -0.06250 0.01400
-0.06842 -0.02068 0.00295
0.00318 -0.06934 0.01870
0.02851 -0.06649 0.01327
-0.11442 0.25421 -0.36602
-0.05486 -0.00574 -0.00161
-0.00913 -0.00417 0.00162
0.07352 -0.00878 0.00236
0.03064 -0.06578 0.01685
-0.01404 -0.06144 0.01584
-0.13946 0.25634 -0.34354
-0.00307 -0.00798 0.00325
0.07348 -0.04267 0.01100
-0.02765 -0.00381 0.00092
-0.01495 -0.06523 0.01684
-0.03691 -0.02293 0.00831
-0.00019 -0.00681 0.00193
-0.05189 -0.00526 0.00463
0.01201 0.35817 -0.38145
0.02781 0.29587 -0.37319
0.02505 -0.06905 0.02078
-0.02115 -0.02800 0.00747
0.02093 -0.02071 0.00595
0.00086 -0.04199 0.01223
0.01650 -0.02828 0.00761
-0.09079 -0.05054 0.01409
-0.03025 -0.06089 0.01554
-0.09010 -0.00734 0.00271
0.01721 -0.02037 0.00478
0.02287 -0.02361 0.00577
0.11779 -0.02136 0.00397
-0.01115 0.28825 -0.30763
0.13181 -0.02106 0.00601
-0.00665 -0.06180 0.01651
0.11834 -0.02081 0.00837
0.11722 -0.06820 0.01789
-0.05041 0.00043 -0.00191
0.00324 -0.02719 0.00798
0.09890 -0.06417 0.01810
0.02802 -0.04916 0.01258
-0.05814 0.32479 -0.41196
-0.06973 0.32794 -0.30922
0.00713 -0.00549 0.00373
-0.06591 0.36278 -0.36691
0.01516 0.28321 -0.29845
0.02640 0.11098 -0.05820
-0.11492 -0.04929 0.01301
0.01413 -0.00876 0.00637
0.00555 -0.02854 0.00762
-0.01355 -0.06831 0.01626
0.01654 -0.06393 0.01708
0.01654 -0.06393 0.01708
0.00146 -0.06814 0.01738
-0.00564 -0.08392 0.02150
0.04979 -0.04955 0.01266
-0.09678 -0.04704 0.01250
-0.05890 -0.04630 0.01255
-0.14465 -0.03078 0.00981
-0.11300 -0.02570 0.00787
-0.05695 -0.08813 0.02319
0.01315 -0.04730 0.01360
-0.05397 -0.04472 0.01170
-0.02044 0.15412 -0.21523
-0.08151 -0.04419 0.00808
-0.08844 0.00243 -0.00271
-0.13243 -0.04462 0.01275
0.00937 -0.01400 0.03217
-0.09075 -0.07121 0.01867
-0.05319 -0.04670 0.01217
0.02873 -0.00936 0.00247
-0.07447 -0.00987 0.00359
0.06121 -0.00939 0.00239
0.02296 -0.06067 0.01595
-0.09254 -0.04406 0.01132
-0.02821 -0.02452 0.00623
-0.00749 -0.02369 0.00686
0.01090 0.19470 -0.23052
-0.07765 -0.06463 0.01728
-0.02001 0.00000 -0.00038
-0.07440 -0.00446 0.00229
0.04753 -0.02400 0.00778
-0.01684 -0.00821 0.00240
-0.03995 -0.06987 0.01821
-0.09781 -0.02807 0.00788
-0.02581 -0.04953 0.01286
0.05291 -0.00380 0.00064
-0.06251 -0.06110 0.01616
0.04852 -0.02118 0.00571
-0.02615 -0.06296 0.01673
-0.10978 -0.02562 0.00778
0.01381 -0.02698 0.00691
-0.04957 -0.06840 0.01880
-0.06628 -0.06141 0.01631
-0.07232 -0.02501 0.00681
-0.13591 -0.02307 0.00601
0.04112 -0.00726 0.00413
0.02275 0.16231 -0.21907
0.02354 -0.02580 0.00653
-0.01314 0.12754 -0.18745
-0.07434 -0.00670 0.00257
0.02821 0.15124 -0.20941
0.07970 0.43635 -0.51667
0.14023 0.45548 -0.44445
0.14023 0.45548 -0.44445
-0.01970 0.41904 -0.50061
0.15705 0.45658 -0.33763
0.15822 0.38240 -0.32543
0.07879 0.43875 -0.53225
0.02115 0.19647 -0.23748
0.13753 0.44479 -0.41624
0.13753 0.44479 -0.41624
0.02415 0.20410 -0.22278
0.16114 0.40910 -0.32123
0.07586 0.43584 -0.52995
0.12963 0.39846 -0.23905
0.14278 0.44865 -0.37262
0.16460 0.43023 -0.30297
0.00891 0.17456 -0.24044
0.08426 0.44243 -0.52490
0.08883 0.44219 -0.53692
0.07883 0.00069 -0.00179
0.08790 -0.00827 0.00084
0.01890 0.17372 -0.20331
0.10309 0.24442 -0.38243
-0.07665 -0.00019 0.00249
0.04358 0.22081 -0.23975
0.05951 0.00042 -0.00062
0.04166 0.26858 -0.33058
0.05926 -0.00870 0.00244
-0.01237 0.22733 -0.26106
0.06817 -0.06148 0.01645
-0.01543 0.30428 -0.39076
0.02394 0.15975 -0.22310
-0.00204 -0.00874 0.00189
-0.00204 -0.00874 0.00189
0.15662 0.33443 -0.30895
-0.00719 0.23098 -0.25673
0.06246 0.29740 -0.28204
0.08310 -0.07036 0.01887
0.01247 0.19551 -0.22969
0.01390 0.20103 -0.22422
0.01861 0.17834 -0.22502
0.13897 0.39366 -0.30600
0.06208 -0.06544 0.01638
0.01648 -0.02828 0.00696
-0.01836 0.32237 -0.43222
0.06119 -0.00668 0.00218
0.11195 0.23739 -0.36817
0.11312 0.24509 -0.35808
0.04025 0.38792 -0.46188
-0.06309 -0.03011 0.00969
0.05872 -0.08598 0.02134
0.04960 -0.02403 0.00789
0.14060 0.32674 -0.32468
-0.11797 0.23660 -0.36967
-0.11055 0.25195 -0.36678
-0.10004 -0.02627 0.00928
0.06155 0.30183 -0.41697
0.01157 -0.02920 0.00722
-0.12565 0.23549 -0.36593
0.04874 -0.00434 0.00066
0.01639 -0.08107 0.01893
0.08768 -0.01056 -0.12003
-0.06680 -0.07119 0.02055
-0.14085 -0.02620 0.00960
-0.14207 -0.04678 0.01532
0.12007 -0.06907 0.01876
0.07344 -0.04750 0.01168
-0.07429 -0.00641 0.00198
-0.03894 -0.07121 0.02082
0.11549 0.25741 -0.34198
0.11549 0.25741 -0.34198
0.06403 0.30846 -0.36828
0.11563 0.26224 -0.35434
0.11521 -0.06965 0.01649
-0.08586 -0.04638 0.01361
0.06139 -0.00156 0.00029
-0.01343 0.15779 -0.22692
-0.00586 0.27900 -0.30514
0.10862 0.23475 -0.37520
0.11529 -0.06521 0.01612
-0.12702 -0.02876 0.01122
0.07028 -0.06785 0.01621
-0.13524 -0.06536 0.02028
0.15910 0.40464 -0.31856
0.00351 -0.04330 0.00928
-0.05129 -0.06617 0.01748
0.08964 0.22930 -0.37151
0.07382 -0.04204 0.00955
-0.09740 -0.02254 0.00644
-0.02527 -0.04503 0.01032
0.08088 -0.00111 -0.00083
-0.08021 -0.06817 0.02282
0.13211 0.24709 -0.29685
-0.01662 0.29878 -0.36289
0.00000 -0.00654 0.00120
-0.03666 -0.06851 0.01849
0.08205 0.44269 -0.46562
0.07788 0.43740 -0.48330
0.02950 0.41804 -0.43735
0.07032 -0.06284 0.01578
0.10241 0.22996 -0.36986
0.06509 0.32583 -0.40376
-0.00957 0.30065 -0.30694
-0.00061 0.36521 -0.37545
-0.06437 -0.06857 0.01836
0.01947 0.17945 -0.22301
-0.07831 0.23140 -0.24724
-0.10286 0.33066 -0.37791
-0.00024 0.36361 -0.37446
0.05572 -0.00399 0.00238
-0.03666 -0.09070 0.02451
0.02737 0.24210 -0.25245
0.02615 0.24072 -0.24632
0.09773 0.22905 -0.37591
0.14570 -0.02831 0.00902
0.13558 -0.06289 0.01654
0.02800 0.27098 -0.30971
-0.00805 -0.08980 0.02431
0.00327 -0.06307 0.01590
-0.13174 0.23703 -0.36102
0.00330 -0.06896 0.01844
0.03485 0.27846 -0.28572
-0.00297 0.36993 -0.37161
-0.00629 0.19165 -0.22595
0.02753 0.27353 -0.30566
0.06540 0.30557 -0.38676
-0.08843 0.24459 -0.30197
0.06755 0.31046 -0.39519
-0.08420 -0.02165 0.00603
-0.08003 -0.02726 0.00774
0.01789 -0.08884 0.02284
0.12202 0.39197 -0.39362
0.00334 0.36507 -0.37703
-0.08800 -0.07167 0.02243
0.01349 0.13856 -0.23468
0.01921 0.18225 -0.21641
0.12803 0.23935 -0.33832
-0.00689 0.17522 -0.23645
-0.07975 0.24817 -0.26684
-0.07975 0.24817 -0.26684
-0.01944 0.30908 -0.42665
-0.04208 -0.06603 0.02018
0.02825 0.42085 -0.44171
-0.03517 -0.00677 0.00242
0.02432 0.16163 -0.20741
-0.13063 -0.02260 0.00577
0.08701 0.33329 -0.36742
0.03162 0.24441 -0.25911
0.12924 -0.04374 0.01152
0.10652 0.24179 -0.37490
0.12889 -0.04915 0.01782
0.08460 0.45962 -0.54549
0.00798 0.32927 -0.39672
-0.04902 0.22556 -0.22829
-0.00319 0.26869 -0.27999
-0.01894 -0.08423 0.02213
-0.01056 0.37500 -0.35322
0.07361 0.30349 -0.30338
0.14047 0.37271 -0.29968
0.13111 0.36887 -0.40133
0.00879 0.13041 -0.23349
-0.12173 0.23805 -0.36697
-0.01882 0.29943 -0.39853
0.06074 0.31401 -0.38537
-0.10827 0.37730 -0.39490
0.03537 0.21289 -0.22069
-0.01512 0.25319 -0.27796
-0.02958 0.29080 0.11165
0.03135 0.14608 -0.24809
0.06289 0.25624 -0.28478
-0.04932 0.23101 -0.26304
0.10446 0.43044 -0.40852
0.01935 -0.02832 -0.11641
-0.02854 0.29619 -0.29090
0.05526 0.35448 -0.41387
-0.09121 0.22907 -0.36032
-0.00811 0.15908 -0.24082
0.07603 0.25525 -0.24239
0.06248 0.23538 -0.26091
-0.05554 -0.04372 0.01072
-0.07626 -0.06816 0.01649
-0.00916 -0.02122 0.00529
-0.02716 -0.00750 0.00211
0.02996 -0.00905 0.00192
0.00126 0.36714 -0.37114
-0.12484 -0.06494 0.01830
0.12576 -0.06220 0.01699
-0.03117 -0.04952 0.01261
0.12940 0.44464 -0.40108
-0.24297 -0.02537 -0.00022
0.01150 -0.00474 0.00239
0.04963 -0.09073 0.02339
-0.00065 -0.00614 0.00252
0.02936 -0.04214 0.01215
0.04404 -0.00630 0.00118
0.08809 -0.04188 0.00968
0.14102 0.44881 -0.49213
0.16114 0.40910 -0.32123
-0.02179 0.42662 -0.47565
0.10337 0.43176 -0.41753
0.08645 0.25288 -0.36126
-0.02102 -0.02790 0.00877
-0.03179 -0.04546 0.01214
-0.02550 0.32267 -0.41644
-0.10154 0.23822 -0.35504
-0.00399 0.23705 -0.26005
-0.09899 0.23667 -0.21724
0.01416 0.22342 -0.25864
-0.13247 0.23380 -0.35811
-0.01388 0.29684 -0.40867
-0.03693 -0.02472 0.00546
0.10392 0.24788 -0.37791
-0.00710 0.28690 -0.30808
0.07309 -0.00634 0.00259
0.02610 -0.06367 0.01534
0.01045 0.15226 -0.21622
-0.07239 0.33198 -0.53049
0.06055 -0.02664 0.00655
-0.00548 -0.04237 0.01172
0.02625 0.27239 -0.41309
0.09198 -0.02176 0.00211
-0.00623 0.30218 -0.45509
0.02329 -0.08025 0.01243
-0.08880 0.00105 -0.00103
0.11490 -0.04269 0.01083
-0.06911 0.32702 -0.57072
0.08622 0.22926 -0.33657
0.07507 -0.00318 0.00146
0.12223 -0.06752 0.01782
-0.06962 -0.02231 0.00704
0.04028 -0.00037 -0.00112
-0.02400 -0.08854 0.02289
-0.03767 0.30047 -0.37367
0.06990 0.00161 -0.00797
0.06123 -0.00678 0.00180
0.00810 -0.00821 0.00212
0.03768 -0.00753 0.00391
0.14056 -0.02499 0.00618
0.08476 -0.06407 0.01659
0.08460 -0.00350 0.00116
-0.04503 -0.00837 0.00209
0.02355 0.20142 -0.22981
0.01156 -0.02535 0.00648
-0.05925 -0.02482 0.00693
0.13114 0.24335 -0.35123
-0.00018 -0.00158 0.00066
0.01591 -0.02411 0.00554
0.11560 0.28218 -0.38955
0.09299 -0.00723 0.00182
-0.07418 -0.06402 0.01710
-0.01664 0.16078 -0.21579
-0.04772 -0.00521 0.00398
0.09885 0.23609 -0.37760
0.09770 -0.02620 0.00934
-0.05406 0.37571 -0.41366
-0.01302 0.29456 -0.38667
-0.09598 0.44279 -0.41237
0.09686 0.35765 -0.41642
-0.01901 0.15637 -0.21177
0.12345 0.24872 -0.35674
0.03594 0.42790 -0.42940
0.00412 0.18226 -0.23788
-0.07791 0.34008 -0.37637
0.11666 0.34863 -0.38883
0.13078 0.34909 -0.34291
0.08084 0.44378 -0.50860
-0.05251 0.35825 -0.44240
0.01805 0.37963 -0.40681
-0.00384 0.27683 -0.29247
0.01071 0.18942 -0.23729
0.13122 0.24033 -0.34917
0.10188 0.23022 -0.37651
0.02092 0.16243 -0.22376
-0.02098 0.30611 -0.42093
-0.00949 0.18838 -0.22475
0.02169 0.33854 -0.39762
0.02148 0.33872 -0.40031
-0.00548 0.28597 -0.32145
0.06930 0.26800 -0.25301
0.11058 0.26371 -0.36650
0.11022 0.26372 -0.36797
0.08093 0.23736 -0.33580
0.00232 0.26279 -0.29125
0.01089 0.31591 -0.35877
0.10399 0.34922 -0.38566
-0.00087 0.20343 -0.23563
0.10449 0.23522 -0.38715
-0.00592 0.27917 -0.30580
0.02348 0.35062 -0.34701
-0.03793 0.43382 -0.54301
-0.03793 0.43382 -0.54301
-0.08957 0.23050 -0.26104
-0.09266 0.24975 -0.32033
0.09757 0.22720 -0.44669
-0.05945 0.31088 -0.41005
-0.00595 0.19939 -0.22561
-0.12677 0.26528 -0.36994
-0.01761 0.19001 -0.13060
-0.01765 0.14990 -0.21504
0.02531 0.28159 -0.30837
-0.01213 0.13976 -0.22271
0.08649 0.25075 -0.30939
-0.02547 0.19746 -0.22935
0.02600 0.27685 -0.31122
-0.01404 0.16582 -0.22398
0.01219 0.25429 -0.25870
0.04654 0.35595 -0.42573
-0.00023 0.18298 -0.22873
-0.10933 0.23545 -0.36705
-0.11868 0.23597 -0.36724
-0.06301 0.29719 -0.37637
0.11733 0.26371 -0.36636
-0.08496 0.27510 -0.33336
-0.13584 0.24367 -0.35276
-0.01135 0.16877 -0.22536
-0.00768 0.19785 -0.23029
0.00039 0.27175 -0.27708
-0.09810 0.25508 -0.35586
-0.09300 0.25394 -0.29548
0.02756 0.15363 -0.21231
-0.00828 0.29861 -0.30995
0.01304 0.16275 -0.23275
-0.07422 -0.02227 0.00858
-0.02129 0.15415 -0.20828
-0.12926 0.24293 -0.36093
0.01467 0.16288 -0.23943
-0.05582 0.29990 -0.40743
-0.08808 0.23267 -0.22755
0.03313 0.29433 -0.41427
0.06501 0.22157 -0.23082
-0.10354 0.23836 -0.35001
0.10050 0.27482 -0.29881
-0.01619 0.31130 -0.42268
-0.11456 0.25254 -0.36950
0.02303 0.13977 -0.22245
0.02456 0.29386 -0.32927
-0.01367 0.16810 -0.22115
-0.11414 0.29755 -0.37604
-0.04908 0.29359 -0.42417
-0.01901 0.29694 -0.38275
-0.07822 0.23465 -0.26382
0.03231 0.21101 -0.23543
0.09946 0.33077 -0.37188
-0.04961 0.29463 -0.42182
0.01772 0.18871 -0.22554
-0.12909 0.24880 -0.36047
-0.10292 0.23697 -0.35260
0.00278 0.31110 -0.36829
0.06777 0.02022 -0.11213
-0.08219 0.27142 -0.33156
-0.00632 0.21713 -0.26134
0.00820 0.30424 -0.31781
-0.07885 0.28085 -0.36702
0.02546 0.16829 -0.20928
0.08539 0.22737 -0.29527
-0.10245 0.26519 -0.36062
0.02251 0.14470 -0.22037
0.01358 0.30469 -0.38880
0.01318 0.31129 -0.33533
0.10704 0.23190 -0.37836
-0.03352 0.22276 -0.23540
-0.10347 0.23859 -0.35155
0.01518 0.18649 -0.22718
-0.01194 0.16849 -0.22324
0.01759 0.30059 -0.31348
0.08218 0.25448 -0.30965
0.08711 0.23836 -0.37288
-0.00865 0.21534 -0.24778
-0.10112 0.26596 -0.36370
-0.10130 0.25491 -0.33242
-0.00545 0.14250 -0.21425
-0.10667 0.24300 -0.35394
0.01018 0.16030 -0.23607
-0.09050 0.24094 -0.36310
-0.12388 0.25083 -0.36361
0.10201 0.35722 -0.39287
0.02452 0.27509 -0.27178
-0.01204 0.33289 -0.43154
-0.15590 0.38039 -0.22080
-0.03429 0.41328 -0.54146
-0.09122 0.24068 -0.35851
-0.01662 0.38354 -0.39137
0.14054 0.44331 -0.54897
-0.12980 0.23320 -0.36406
-0.06063 0.33544 -0.42596
-0.14956 0.44170 -0.40641
-0.11756 0.24024 -0.36576
0.14887 0.42516 -0.47022
-0.01272 0.17384 -0.21625
0.04093 0.31229 -0.43401
0.01092 0.17729 -0.34542
0.01694 0.19082 -0.22124
0.14973 0.44748 -0.35018
0.07641 -0.02018 0.00522
0.07437 0.42215 -0.52260
0.07922 0.42741 -0.47372
0.00100 -0.04878 0.01273
0.00019 0.32080 -0.39803
0.01124 0.44172 -0.39449
-0.00972 0.31252 -0.47108
0.08746 0.23105 -0.36725
-0.01606 0.15894 -0.21766
0.27749 0.22962 0.10867
0.02843 0.29338 -0.32446
-0.00329 0.30704 -0.34747
0.07449 0.25410 -0.27323
0.00176 0.41760 -0.57844
-0.03863 -0.00445 0.00235
0.15182 0.32422 -0.31302
0.01271 0.35860 -0.37715
-0.10710 0.22337 -0.33004
-0.05580 0.29365 -0.45403
0.13475 0.32342 -0.39735
-0.10594 0.22503 -0.32545
-0.08816 -0.00348 0.00226
0.01382 0.19249 -0.23413
-0.03190 0.40686 -0.49527
0.14893 0.49245 -0.56424
-0.03978 0.40479 -0.50046
-0.01968 0.05058 -0.37905
-0.03852 0.28927 -0.37625
0.01508 0.13827 -0.22882
-0.05537 -0.04779 0.01168
-0.03962 0.42579 -0.52561
0.06006 0.28358 -0.29988
0.08632 0.24175 -0.37991
-0.02729 0.26663 -0.28154
0.00371 0.13356 -0.23186
0.00096 -0.02028 0.00527
-0.01553 0.37983 -0.38219
-0.12783 -0.02608 0.00813
0.12554 -0.02824 0.01059
0.05446 0.28817 -0.35877
-0.06618 -0.06174 0.01683
-0.14189 0.44529 -0.41885
0.03687 0.42790 -0.40924
0.05835 -0.08164 0.02123
-0.02415 -0.02854 0.00720
-0.10428 0.22942 -0.35012
-0.04655 0.29065 -0.39889
-0.10840 0.24894 -0.36257
-0.01469 0.37506 -0.41182
0.09052 0.37604 -0.38604
-0.01471 0.16276 -0.21953
0.01965 0.35358 -0.38552
0.12971 0.24488 -0.32144
-0.01097 0.19698 -0.21992
-0.09122 -0.00656 0.00231
0.00633 0.13370 -0.14927
0.04667 -0.06991 0.01767
0.02502 0.28796 -0.31808
0.00441 0.15449 -0.24234
0.23921 0.09504 -0.03252
0.23921 0.09504 -0.03252
-0.07065 0.34676 -0.38330
-0.07065 0.34676 -0.38330
-0.13057 0.24695 -0.35834
-0.02139 0.15047 -0.20398
-0.01392 0.16887 -0.21894
-0.03417 0.38463 -0.55292
0.06550 0.32854 -0.39926
0.04702 0.30350 -0.41710
-0.01385 0.16716 -0.23216
0.06500 -0.06771 0.01826
-0.14810 -0.02933 0.00796
0.00753 -0.09059 0.02299
0.14531 0.45820 -0.49966
0.14531 0.45820 -0.49966
0.10999 -0.04892 0.01409
0.10889 -0.04432 0.00972
-0.11677 -0.04527 0.01115
-0.06134 -0.08818 0.02941
0.01363 -0.02531 0.00674
-0.02925 0.23072 -0.25141
-0.04531 0.37863 -0.34988
0.00452 0.17910 -0.23677
0.12508 0.24286 -0.35345
0.03875 0.19595 -0.20532
0.15212 0.24440 -0.20076
0.09361 -0.02327 0.00706
-0.24838 0.55286 -0.11354
-0.13210 0.44245 -0.42393
-0.12836 0.41635 -0.44627
0.10716 -0.05166 0.03378
-0.01668 0.27887 -0.32830
-0.03267 0.41057 -0.53071
-0.05185 -0.08717 0.02378
0.04975 -0.08284 0.02236
-0.01944 0.16197 -0.21208
0.02664 -0.02322 0.00588
0.06886 0.37763 -0.42980
0.08550 0.24010 -0.37409
0.03641 0.27061 -0.28269
0.09056 0.23099 -0.37802
-0.02134 -0.02344 0.00584
-0.12853 -0.02842 0.00649
-0.02267 -0.02948 0.00778
-0.01029 -0.04844 0.01284
-0.11998 0.25007 -0.36645
-0.07971 -0.02434 0.00647
0.07085 0.32745 -0.41635
0.15959 0.40446 -0.31929
0.00624 0.24223 -0.05824
-0.01691 0.37980 -0.37073
0.08146 0.23654 -0.32752
-0.00173 -0.02232 0.00490
-0.09784 -0.02266 0.00632
-0.06020 -0.02756 0.00721
0.14035 0.44505 -0.37462
-0.14605 0.34188 -0.27936
0.09056 0.37597 -0.38632
0.08647 0.32767 -0.37756
0.15098 0.44697 -0.40406
-0.11878 0.28371 -0.35857
0.02372 0.20116 -0.22949
-0.07144 0.32727 -0.41686
0.08372 0.23673 -0.33503
0.01015 0.33281 -0.35667
0.11604 0.47332 -0.20090
0.06357 0.29848 -0.37512
0.06472 0.33439 -0.41910
-0.03912 -0.26139 0.68669
-0.04119 -0.06579 0.01554
0.02472 0.27900 -0.31475
0.01197 -0.05129 0.03088
0.12245 0.44517 -0.19528
0.00852 0.42586 -0.44766
0.02022 0.35931 -0.41233
-0.00283 -0.02583 0.00854
0.04755 -0.02076 0.00544
0.01333 -0.02285 0.00622
0.06294 0.30766 -0.38577
-0.01729 -0.09460 0.04521
-0.01292 -0.00207 -0.00034
0.12134 0.24053 -0.35260
0.05928 0.26663 -0.29927
-0.00264 0.30913 -0.31261
0.06731 0.25717 -0.28574
-0.01220 0.37017 -0.39296
-0.09266 0.46497 -0.54945
-0.03880 0.21585 -0.33884
-0.11243 0.23187 -0.36203
0.03196 0.36490 -0.45844
0.01104 0.31311 -0.34740
-0.12838 -0.04931 0.01338
-0.00615 0.26081 -0.23621
0.00571 0.24359 -0.28015
-0.06012 0.26060 -0.22840
-0.08405 0.24087 -0.38782
0.00471 -0.04078 0.01085
0.14742 -0.02880 0.00740
-0.12934 -0.04578 0.01241
-0.06476 -0.04735 0.01064
0.08014 -0.00217 0.00083
-0.02400 -0.04229 0.01023
0.12839 -0.02106 0.00430
-0.03261 0.40577 -0.51067
-0.05519 0.29314 -0.41028
0.02952 -0.08891 0.02466
-0.14708 0.27261 -0.29846
0.08663 0.23986 -0.37159
-0.01684 0.38591 -0.44407
0.01912 0.19551 -0.23110
0.01687 0.19494 -0.22165
-0.08870 0.32827 -0.64728
-0.09592 0.23464 -0.35615
0.09818 0.42821 -0.62408
0.07680 0.32347 -0.33746
0.02503 0.28519 -0.29252
-0.05279 0.37548 -0.43706
0.10665 0.33068 -0.17973
0.09797 0.36188 -0.39208
-0.10110 0.44386 -0.40839
-0.01966 0.36973 -0.44137
0.02636 0.45639 -0.00826
0.01438 0.32902 -0.42800
0.05668 0.28794 -0.33741
-0.02086 0.34030 -0.37798
-0.15062 0.44345 -0.53555
-0.14615 0.42773 -0.46226
0.14917 0.46533 -0.55275
