# .PCD v.7 - Point Cloud Data file format
VERSION .7
FIELDS x y z
SIZE 4 4 4
TYPE F F F
COUNT 1 1 1
WIDTH 265
HEIGHT 1
VIEWPOINT 0 0 0 1 0 0 0
POINTS 265
DATA ascii
0.08791 0.03277 -0.13448
-0.01212 0.00665 -0.17113
-0.10057 0.02731 -0.02494
-0.01304 0.01815 -0.16372
-0.00363 -0.03241 -0.69966
-0.01690 -0.10453 -0.88520
-0.03876 0.00152 0.29781
0.09092 0.01837 -0.04423
0.05097 0.00009 0.07131
-0.00861 0.00003 0.12324
-0.03725 -0.13602 -0.89921
-0.03467 -0.10841 -0.90901
0.02668 0.00481 -0.14843
-0.07478 0.02760 -0.17233
-0.03779 -0.11390 -0.89614
-0.05140 -0.13311 -0.94364
-0.22554 0.04577 0.04474
-0.09191 0.03798 -0.14915
0.08140 0.02129 -0.16041
-0.09031 -0.05045 -0.53624
-0.02724 0.00799 0.29251
-0.01963 -0.09759 -0.86471
-0.21868 0.04470 -0.01981
-0.23730 0.05441 0.00000
-0.09595 0.02193 0.04037
0.00983 0.00822 -0.13872
-0.02720 -0.08410 -0.73589
-0.04266 -0.11384 -0.93706
0.00553 0.00046 -0.11688
-0.05015 -0.12901 -0.91168
-0.08725 0.02144 -0.01745
-0.22208 0.04554 -0.12729
0.00093 0.00523 -0.12001
-0.08274 0.03196 -0.15916
0.01244 -0.07306 -0.70984
0.01634 0.00702 -0.16322
-0.01367 0.01213 -0.12581
-0.01765 0.00425 0.01258
-0.03741 -0.13750 -0.89566
0.07539 0.01834 -0.11819
-0.08355 0.03656 -0.15841
0.09779 0.01223 0.03207
0.02910 0.00684 -0.09897
0.01750 0.00954 -0.19941
-0.06980 -0.08838 -0.80133
-0.05144 -0.11646 -0.94195
-0.00591 -0.04226 -0.80608
-0.02686 -0.00249 0.29570
-0.00591 0.00516 0.27948
-0.01193 -0.03385 -0.75814
0.01550 0.00462 0.26562
0.02450 -0.00972 0.33634
0.02654 0.00454 -0.15019
0.06692 -0.00771 0.29711
0.03569 -0.00054 -0.04937
0.01391 0.00511 -0.09963
0.06521 0.01315 -0.05049
-0.24808 0.05036 -0.04790
-0.00378 -0.02792 -0.63400
-0.21869 0.04802 -0.02163
-0.07609 -0.01097 0.32591
-0.00718 -0.00327 0.28378
-0.00735 -0.00285 0.28363
0.03968 0.00729 -0.06621
-0.09726 0.03760 -0.12333
0.08784 0.01354 0.02553
0.00000 -0.03096 -0.70242
-0.00150 0.00549 -0.03703
-0.07005 0.00187 0.32174
0.05322 -0.00230 0.23728
-0.07698 -0.10399 -0.88774
0.06921 0.00934 -0.01526
-0.04170 -0.06079 -0.58754
0.01930 -0.00373 0.26490
-0.01717 -0.04213 -0.78033
-0.01418 -0.03376 -0.69050
-0.06816 -0.12840 -1.00000
0.04821 0.00602 -0.00808
0.01044 -0.01117 0.27206
0.03726 0.00512 0.00293
-0.06710 -0.12799 -0.99647
-0.06440 -0.05135 0.33060
-0.02295 -0.00487 -0.11426
0.07416 -0.01277 -0.68715
-0.00544 -0.00205 0.02499
-0.03377 0.00480 0.29797
-0.05425 0.00676 0.30766
0.09110 0.01189 0.00566
-0.22093 -0.01806 0.39618
-0.06439 -0.00058 0.07431
-0.08345 0.00885 0.24211
0.00296 0.00094 0.12277
0.02603 -0.00023 0.25840
0.07372 -0.00616 0.23832
-0.05632 -0.11562 -0.94004
0.13554 0.02553 0.01803
-0.03213 -0.04987 -0.43910
-0.05883 -0.11974 -0.96516
-0.05622 -0.12418 -0.98062
0.04522 0.00440 -0.01749
-0.01288 0.00540 0.03154
-0.06058 -0.11166 -0.90957
0.00322 0.00485 -0.01791
-0.00436 -0.00544 0.19302
-0.07010 -0.11101 -0.83920
0.09060 0.00970 0.01105
-0.00023 -0.02318 0.19055
0.01450 -0.00697 0.23172
-0.06206 -0.02979 -0.17397
0.10659 0.01450 0.11942
0.06927 0.01206 -0.01102
0.01911 0.00242 0.01379
0.05185 -0.03307 -0.53084
0.02485 -0.00033 0.02255
0.00121 0.00038 0.14160
-0.00056 0.01690 -0.17648
-0.00886 -0.01938 0.16099
-0.04973 -0.00253 0.31035
-0.00126 -0.02858 -0.64743
-0.01819 -0.00601 0.32068
0.09026 0.00709 0.05701
0.04985 0.00712 -0.00074
-0.07054 0.00585 0.32072
0.07263 0.00305 0.04147
0.01407 -0.00000 0.07703
-0.02772 -0.01140 0.29802
-0.01512 0.00736 0.00183
0.08504 0.01389 -0.01802
0.08822 0.01712 -0.02005
0.07888 -0.01371 0.22294
-0.10194 -0.04539 -0.65011
0.00035 0.00381 0.02464
0.00942 0.00038 0.06770
0.09145 0.01457 -0.02437
0.05322 0.00549 0.02896
0.08656 0.00698 0.04097
0.03054 0.00481 -0.07602
0.11068 0.01411 0.04785
-0.00832 -0.03539 -0.73175
-0.03507 -0.00898 0.30235
-0.02986 0.00622 0.29574
0.01909 0.00248 0.01348
-0.02839 -0.00085 0.18825
-0.06712 -0.12799 -0.99649
0.04987 -0.00762 0.24764
0.02082 0.00348 0.01036
-0.04037 -0.12598 -0.97684
0.02844 0.00362 -0.07750
0.09143 0.00838 0.04333
0.04678 0.01140 -0.08666
0.12761 0.00543 0.14268
0.02224 0.00112 0.10270
0.07997 0.00072 0.06382
0.04668 -0.00053 0.09111
0.14582 0.01837 0.08554
0.06021 0.00687 0.03323
0.06311 0.00255 0.06850
-0.04965 -0.11259 -0.92872
0.00620 -0.02794 -0.69262
-0.00034 0.00495 0.02083
-0.02319 0.00089 0.29211
-0.25375 0.05320 0.05995
-0.11373 -0.03933 -0.59517
-0.01503 0.00502 -0.03604
0.07014 0.01410 -0.05214
-0.01718 -0.03636 -0.68799
0.02657 -0.02018 -0.66286
0.02070 0.00083 0.26263
-0.00630 -0.03677 -0.74246
0.03561 0.00715 -0.09301
0.01975 0.00514 -0.05259
-0.01179 -0.03840 -0.75780
-0.01153 -0.03811 -0.75680
0.03035 0.01040 0.03940
0.04412 -0.00554 0.24046
-0.02816 0.00853 -0.00922
0.04883 0.00127 0.17289
-0.01597 0.00719 0.08506
0.08612 -0.00117 0.02118
-0.10342 0.03860 -0.04441
-0.23343 0.04825 0.08065
-0.07187 -0.12597 -0.98904
-0.09881 0.02084 0.10678
-0.05785 -0.10793 -0.86070
0.01560 0.00229 -0.05410
0.04560 -0.00579 -0.61912
-0.13723 0.03677 -0.12951
-0.04595 0.01557 0.00116
-0.03449 -0.07980 -0.84527
-0.07821 0.00138 0.32386
-0.02109 -0.09983 -0.83939
-0.00776 -0.03702 -0.75349
-0.00898 -0.04148 -0.75956
0.00945 -0.02210 0.27453
0.03837 0.00436 0.10631
-0.08569 0.03516 -0.13386
-0.02536 -0.03972 -0.68979
-0.06836 -0.12800 -0.99666
-0.06891 -0.12804 -0.99777
-0.09281 0.03740 -0.13972
-0.06620 -0.12577 -0.98345
-0.06840 -0.12770 -0.99548
-0.03267 0.00878 0.05821
-0.10958 -0.08703 -0.79479
0.02559 0.00189 0.00422
0.01324 0.00597 -0.06435
0.00144 0.00474 -0.09784
0.07010 -0.00799 0.26724
-0.03090 -0.00180 0.28927
0.01962 0.00466 -0.12005
-0.05987 -0.12059 -0.96565
0.03404 -0.00108 0.08104
0.00225 0.00299 0.11288
-0.05000 0.00508 0.25031
0.03627 0.00134 0.11124
0.07213 0.01145 -0.03738
-0.00707 -0.01232 0.47504
0.04712 -0.00284 0.17884
0.10823 -0.00282 0.23242
0.03227 -0.00932 0.23307
0.01025 -0.00837 0.27190
0.15150 0.02499 0.18663
-0.11253 -0.03046 -0.57539
0.05329 -0.00388 0.20758
-0.06410 -0.12827 -0.98412
0.09214 -0.00000 0.09679
0.02166 -0.00287 0.07714
0.13897 0.02389 0.07254
0.10882 -0.00438 0.25086
0.04771 -0.01355 0.40697
-0.05130 -0.00279 0.48787
0.03785 0.00034 0.02731
0.02982 -0.00247 0.37312
-0.24019 0.04592 -0.06323
0.05991 -0.00327 0.16982
0.05569 0.00198 0.06623
0.16538 0.03665 0.04782
0.10847 -0.02710 0.16208
0.10136 0.00000 0.24996
0.08305 -0.00850 0.31864
0.09148 -0.01747 0.04386
0.11153 -0.00128 0.20823
0.02485 -0.00852 0.45361
0.00561 0.00126 0.03009
0.11717 -0.00470 0.25603
0.00019 -0.03665 -0.71462
0.00800 -0.02702 -0.73531
0.02553 -0.01842 -0.67720
-0.02263 -0.00529 0.31576
-0.26222 0.02518 0.50159
0.01008 -0.02707 -0.77153
0.08227 -0.02322 0.28196
0.09353 -0.00768 0.27854
0.01118 -0.00182 0.15649
0.08586 0.00095 0.18623
0.02854 -0.00774 0.23516
-0.03597 -0.01543 0.33492
-0.03144 -0.01491 0.32247
-0.08235 0.03110 0.50556
-0.01669 -0.04100 -0.72876
0.08224 0.02713 -0.14224
-0.01743 0.00999 -0.16626
0.06312 -0.01879 0.23545
0.07726 0.02068 -0.10383
0.08482 0.02325 -0.13809
