# .PCD v.7 - Point Cloud Data file format
VERSION .7
FIELDS x y z
SIZE 4 4 4
TYPE F F F
COUNT 1 1 1
WIDTH 1431
HEIGHT 1
VIEWPOINT 0 0 0 1 0 0 0
POINTS 1431
DATA ascii
-0.00856 -0.05446 0.11383
-0.04145 -0.01870 0.01822
-0.06456 -0.01935 0.00321
-0.04528 -0.05673 0.05365
-0.07179 -0.01924 0.00635
-0.02922 0.03588 -0.13096
-0.06819 0.02135 -0.06348
-0.07507 -0.02776 0.01101
0.08957 -0.01608 0.06750
0.00537 -0.01071 0.03711
0.00104 -0.01019 0.04008
-0.04176 -0.01743 0.01759
-0.02394 -0.01277 0.02751
0.01217 -0.02550 -0.09932
0.05196 -0.01266 0.03695
-0.03308 -0.01639 0.01889
-0.05221 -0.05794 0.05091
-0.04329 -0.02206 0.02740
-0.01858 -0.07379 0.11944
0.04648 -0.01193 0.03777
-0.06866 -0.01961 0.00953
-0.01054 0.01559 -0.06577
0.08360 -0.02013 0.06960
0.00411 0.01173 -0.05205
-0.00166 0.00645 -0.19776
-0.00384 -0.00432 0.02704
0.03777 0.18279 1.00000
-0.01969 0.02710 -0.06560
-0.02346 -0.05181 -0.52743
-0.05509 -0.00842 0.01135
-0.00636 -0.05383 -0.58980
-0.08516 -0.01847 0.01580
0.03614 -0.00528 0.00723
-0.09208 -0.08649 0.16717
-0.08651 -0.01930 0.01613
-0.08761 -0.08647 0.17275
0.00727 -0.02197 0.07658
-0.00313 0.02349 -0.09277
-0.08165 -0.01196 0.00942
0.04344 0.03234 -0.01755
-0.08668 -0.02003 0.01605
-0.08954 -0.08511 0.16919
-0.08344 -0.00703 0.00925
-0.08943 -0.04552 0.03551
0.01204 0.01112 -0.04599
0.06056 -0.06970 0.11293
-0.02918 0.03610 -0.12959
-0.02259 0.03547 -0.12331
-0.04102 0.03452 -0.13077
-0.07580 -0.06592 0.09753
-0.08352 0.02124 -0.05912
-0.11914 -0.01238 0.01591
-0.00878 0.01579 -0.06549
0.02173 0.01164 -0.03970
-0.02507 0.01924 -0.07741
0.10962 -0.00442 0.06539
-0.00198 0.01073 -0.04895
0.07392 -0.06599 0.08654
0.10663 0.05030 -0.06873
-0.02340 0.02369 -0.08929
0.02166 -0.02827 0.08510
-0.12373 0.02800 -0.08506
0.07801 -0.02044 0.07243
-0.03941 0.02688 -0.09223
-0.00172 0.02916 -0.10792
0.06579 0.04634 -0.10827
0.00502 0.03387 -0.12556
-0.04531 0.03292 -0.11388
-0.05359 0.05339 -0.16405
0.02716 0.03264 -0.11069
0.03341 0.04942 -0.15629
-0.01458 0.03384 -0.12881
0.00094 0.02677 -0.10265
0.01585 0.03006 -0.10525
-0.01299 0.02034 -0.08017
0.02765 0.03014 -0.10429
0.11226 0.04987 -0.21547
-0.04841 0.04995 -0.17365
0.00641 0.00793 -0.03756
0.00965 0.03180 -0.11381
0.00681 0.03596 -0.13763
0.02028 0.03897 -0.13441
-0.05660 0.02707 -0.09872
0.01771 0.03674 -0.12706
-0.01351 0.02791 -0.10882
-0.05334 0.02841 -0.09026
0.01120 0.03907 -0.14165
0.04912 0.03552 -0.09513
0.07529 -0.02122 0.07326
0.04646 0.03735 -0.10456
0.01339 0.03216 -0.11670
0.01142 0.03337 -0.11900
0.03593 0.02316 -0.06881
-0.00980 0.03563 -0.14205
0.10230 -0.01149 0.06458
0.01530 0.02698 -0.09526
0.02842 0.03828 -0.12776
0.04293 0.03209 -0.08872
0.04295 0.03210 -0.08860
-0.05130 0.02948 -0.09419
-0.07561 -0.05109 0.05835
0.09540 0.03882 -0.23168
-0.05575 0.05276 -0.16087
0.04977 0.04361 -0.11754
0.04396 0.04055 -0.11911
0.00091 -0.03579 0.12161
0.07797 0.04134 -0.08321
0.07842 0.04177 -0.08057
0.03488 -0.06157 0.20565
-0.01927 0.02754 -0.10551
-0.05779 0.02300 -0.08695
0.00623 0.03736 -0.14317
0.02520 0.03784 -0.12673
-0.05230 0.03416 -0.10938
0.03056 -0.05753 0.08859
0.02794 0.03502 -0.11954
-0.02747 -0.06322 0.08957
-0.01603 0.04061 -0.15453
0.02536 -0.06038 0.09962
-0.02277 -0.05007 0.08305
-0.09101 -0.05713 0.05699
0.01803 0.03873 -0.13288
-0.03208 0.02422 -0.08908
0.02344 -0.04966 0.09616
-0.12778 0.00678 -0.05014
-0.02256 0.02185 -0.08199
-0.02056 -0.07274 0.10734
-0.04090 0.02911 -0.10102
0.00206 0.03089 -0.12057
0.02253 0.02944 -0.10288
-0.00352 -0.04986 -0.61642
-0.10429 0.02399 -0.07233
-0.13908 -0.08640 0.08541
0.08551 0.04495 -0.07118
-0.00617 0.03543 -0.09937
-0.03424 0.04392 -0.12901
0.00982 0.01752 -0.06653
-0.08008 0.03732 -0.30833
0.07217 0.06780 -0.13267
0.00775 0.03066 -0.11516
0.06613 0.04069 -0.08871
-0.11908 0.03010 -0.09013
-0.06847 0.05433 -0.16932
0.00076 -0.00124 -0.00704
0.00833 0.03380 -0.12859
-0.02997 -0.07103 0.09641
-0.02632 -0.06115 0.08996
-0.00784 0.04452 -0.16450
-0.08979 0.05258 -0.25069
-0.00410 0.00293 -0.02515
0.02073 -0.05255 0.09960
-0.06051 0.04391 -0.13609
0.02333 0.03269 -0.11404
0.02335 0.03270 -0.11388
-0.03717 0.04468 -0.16801
0.02642 -0.04946 0.09240
0.04115 0.03528 -0.10149
-0.05112 -0.08459 0.05279
-0.05575 -0.07651 0.04638
-0.00385 0.03675 -0.14564
-0.01706 0.03598 -0.13909
0.02537 -0.02239 0.06570
-0.00539 -0.04973 0.11707
0.02336 -0.05014 0.09413
0.01544 -0.02533 0.08451
0.00017 -0.04561 0.12203
0.04542 0.04147 -0.11869
0.02405 -0.06276 0.10294
-0.02209 0.03327 -0.12590
-0.11564 0.05818 -0.16331
-0.06764 -0.07586 0.06120
0.02641 -0.02787 0.07854
-0.01315 0.03484 -0.13041
-0.01701 -0.06685 0.10960
0.05873 -0.07379 0.11508
-0.01690 -0.07233 0.11368
-0.00037 -0.04941 0.12016
-0.00636 -0.01080 0.00945
0.00313 -0.04761 0.12092
0.03410 0.03216 -0.10167
0.06039 -0.07235 0.11613
-0.02115 0.01606 -0.06603
0.03285 -0.04924 0.09081
-0.02413 -0.06773 0.08227
0.00291 -0.05729 0.10428
0.02264 0.03406 -0.12024
0.04571 -0.06937 0.08599
-0.03412 -0.07790 0.10015
-0.02422 -0.06781 0.08797
-0.05561 -0.08417 0.05150
0.01075 -0.06177 0.12563
0.00854 0.03042 -0.11210
0.00846 -0.01256 0.04947
0.02363 0.03518 -0.12360
-0.03972 -0.06991 0.06576
-0.02248 -0.07702 0.10243
-0.00606 -0.03640 0.11246
-0.00614 -0.03642 0.11400
-0.01310 -0.06646 0.11932
0.05584 0.04412 -0.11956
0.04176 0.03932 -0.11468
-0.00713 0.01251 -0.05481
-0.02546 -0.07951 0.10354
0.04058 0.03370 -0.09968
0.00797 -0.01546 0.06481
-0.01714 -0.05660 0.10472
0.02491 -0.03704 0.08241
0.02523 -0.03655 0.08794
0.00287 -0.05128 0.12670
0.05144 0.01853 -0.03492
-0.00707 -0.00283 -0.00036
-0.07482 -0.08271 0.08453
-0.05535 -0.08138 0.04725
-0.00806 -0.04919 0.11909
-0.03311 -0.08165 0.10524
-0.01668 0.02197 -0.08891
0.01553 -0.05826 0.12472
-0.00235 -0.04217 0.10539
0.05936 0.04050 -0.09755
-0.05089 0.01253 -0.02669
0.03753 -0.00141 0.03884
0.02563 0.02572 -0.09049
0.00422 -0.02081 0.07855
-0.02670 -0.05910 0.08716
0.05352 -0.07433 0.12174
-0.01137 0.01452 -0.06258
-0.00064 0.03491 -0.13038
-0.01867 -0.07330 0.11841
0.04070 0.03876 -0.11415
-0.03032 0.04312 -0.13784
0.03828 -0.01971 0.05511
-0.00030 -0.05921 0.12960
0.01271 -0.02384 0.09084
0.02785 0.03510 -0.11987
-0.02378 -0.07705 0.11237
0.06450 -0.07385 0.09245
0.02262 0.03313 -0.11648
-0.00628 0.01492 -0.06091
0.00056 -0.04127 0.11433
-0.00129 -0.03257 0.10994
0.06958 0.03359 -0.06451
0.00168 -0.03552 0.09199
-0.02621 -0.07062 0.09496
-0.04270 -0.08547 0.06574
-0.01455 0.04573 -0.15912
-0.03058 -0.07604 0.10185
-0.05770 -0.06814 0.04547
-0.02115 -0.05432 0.09359
0.01727 -0.05479 0.06486
0.02465 -0.03027 0.08715
-0.06190 -0.07872 0.06253
-0.03140 -0.06595 0.09402
-0.04204 0.03267 -0.12898
-0.01751 0.01443 -0.06223
0.02730 -0.02487 0.07505
0.02003 -0.06500 0.10091
0.02007 -0.06498 0.10081
-0.04796 -0.08622 0.05225
0.07501 -0.01741 0.04402
-0.09702 -0.06483 0.10160
-0.00325 0.03116 -0.12215
-0.03875 -0.04826 0.07266
-0.00331 -0.05242 0.12109
0.03619 -0.06616 0.10408
-0.02564 0.02851 -0.10756
-0.02133 0.03397 -0.12577
-0.03650 -0.08409 0.07569
-0.01449 0.01802 -0.07215
0.01427 -0.05820 0.13242
0.01757 -0.06382 0.10476
-0.12923 -0.05441 0.06081
-0.00877 0.01578 -0.06550
-0.02143 0.03310 -0.12338
-0.03885 -0.06148 0.05541
-0.09598 0.03905 -0.11701
-0.00853 0.05255 -0.17485
0.00077 0.00363 -0.03364
-0.02939 0.02882 -0.10592
0.03240 -0.03331 0.09585
0.00077 -0.03463 0.11618
0.10971 0.04683 -0.04172
-0.05909 -0.07184 0.06160
0.00005 -0.03875 0.04158
0.01087 0.01981 -0.07173
-0.03219 0.02280 -0.08745
0.02385 0.02146 -0.06763
0.03135 -0.02531 0.10836
-0.02722 -0.04500 0.05060
-0.02744 -0.06325 0.08853
-0.02458 0.02011 -0.07866
-0.03576 0.02904 -0.10487
0.00335 0.02892 -0.10995
-0.02157 -0.01306 0.01583
0.00158 -0.06111 0.12788
-0.02648 0.01230 -0.05258
-0.04502 -0.06745 0.07481
0.02404 0.01985 -0.06349
0.00100 -0.04707 0.11966
0.02099 0.01649 -0.05932
0.00011 0.00903 -0.04464
0.00453 0.02130 -0.08206
0.04830 -0.07053 0.10811
-0.02680 0.01119 -0.17684
0.01785 -0.01907 0.06995
0.00660 -0.05773 0.13238
-0.02183 -0.06727 0.10022
-0.03589 -0.08466 0.06337
0.07088 0.01628 -0.27103
-0.04233 0.01420 -0.04930
-0.04238 0.01351 -0.04752
0.00690 -0.01859 0.08153
0.05916 -0.06825 0.11080
-0.02262 0.00949 -0.04471
0.07983 -0.07265 0.09812
0.03256 0.03575 -0.11466
-0.12903 0.00137 -0.04227
-0.04647 0.02638 -0.09194
0.00596 0.02222 -0.08505
-0.03157 0.02597 -0.09521
-0.03038 0.02596 -0.09932
-0.15572 -0.07928 0.08656
-0.00793 0.01724 -0.06843
0.08849 -0.06040 0.10006
-0.03384 0.02482 -0.09322
-0.03390 0.02458 -0.09501
0.01244 0.01662 -0.06674
-0.03922 0.02338 -0.08811
-0.02275 0.02649 -0.09539
0.00309 0.02199 -0.08246
-0.02034 0.02579 -0.09409
-0.00604 0.02871 -0.11160
-0.02189 0.02705 -0.07912
0.03176 0.02236 -0.06827
0.00760 0.01821 -0.07031
0.02152 0.02167 -0.07636
0.01756 0.01814 -0.06471
0.06670 0.03957 -0.08342
-0.03038 0.02579 -0.10082
-0.01965 0.02427 -0.09233
0.00915 0.02106 -0.07918
0.02164 -0.00906 0.03427
-0.01287 0.01861 -0.06982
-0.04651 0.01675 -0.05479
-0.12570 -0.00244 -0.02731
0.01770 0.01481 -0.05487
-0.13078 0.00188 -0.02582
-0.05202 0.02733 -0.08749
0.00997 0.00331 -0.01853
-0.03470 0.02458 -0.09262
-0.05200 0.01916 -0.05352
-0.04400 0.02092 -0.07322
-0.15804 -0.07279 0.08810
0.00142 0.02600 -0.09834
-0.00099 0.02281 -0.08827
0.00185 -0.00058 -0.01211
-0.17276 -0.02342 0.06649
-0.00314 0.02347 -0.09285
-0.03612 0.01679 -0.06582
0.01587 0.01824 -0.06455
-0.04982 0.02690 -0.09123
0.01902 0.01328 -0.05259
0.01135 0.01599 -0.06787
-0.04475 0.02514 -0.09638
0.01339 0.02430 -0.08627
0.02008 0.00255 -0.00414
-0.04888 0.02196 -0.07161
-0.01928 0.00696 -0.04010
-0.02517 0.02524 -0.10059
-0.03212 0.02400 -0.09003
0.02696 0.01357 -0.04205
-0.03363 0.01118 -0.04703
0.02571 0.01988 -0.06555
-0.03993 0.01273 -0.04619
-0.07098 -0.02534 0.00830
-0.15337 -0.08915 0.08999
-0.12585 0.00833 -0.04920
-0.10882 -0.08897 0.10855
0.02948 0.02582 -0.08641
-0.02963 0.01425 -0.05948
-0.00823 0.00412 -0.02578
0.02077 -0.05254 0.09992
-0.11942 0.01867 -0.06377
0.08947 -0.06670 0.11013
-0.02362 0.01451 -0.05885
-0.00880 0.02292 -0.09154
0.01844 -0.06166 0.10548
0.02264 0.01864 -0.06699
-0.03386 0.01935 -0.07201
-0.00304 0.02126 -0.08388
-0.05026 0.02227 -0.07171
0.03237 0.01863 -0.05104
-0.02879 0.01099 -0.05095
-0.16225 -0.06164 0.08577
-0.12314 0.00114 -0.03288
-0.12313 0.00116 -0.03291
0.01210 0.01977 -0.07273
-0.01740 0.01465 -0.06005
-0.17686 -0.01338 0.07087
-0.01645 0.03120 -0.11745
0.02830 0.03804 -0.12669
-0.03911 0.01142 -0.04574
-0.02118 0.01603 -0.06651
0.06120 0.03566 -0.08081
-0.14938 -0.04979 0.06799
-0.02162 0.00408 -0.02660
0.02718 0.02812 -0.09486
0.00035 0.01413 -0.05529
0.00027 0.01401 -0.05645
0.07390 0.06039 -0.15724
-0.01396 0.02370 -0.09237
-0.02008 0.03306 -0.12301
-0.04395 0.01950 -0.07500
-0.03352 0.02716 -0.08418
0.03381 0.04221 -0.13447
0.03373 0.04221 -0.13403
0.03378 0.04244 -0.13218
-0.03458 0.01803 -0.07121
-0.12382 0.00718 -0.05003
-0.04676 0.03240 -0.10665
0.02085 0.00355 -0.00562
0.02111 0.00393 -0.00594
-0.00425 -0.00231 -0.00074
0.03578 0.02767 -0.08738
-0.03966 0.01770 -0.06917
0.03494 0.02219 -0.06797
-0.12217 0.05386 -0.12943
-0.02528 0.03551 -0.12838
-0.11157 0.00719 -0.04029
0.00072 0.00412 -0.02556
-0.02047 0.02733 -0.10405
0.00008 0.03347 -0.11724
0.00169 0.02496 -0.09307
0.00212 0.02135 -0.07908
-0.06748 0.02180 -0.07012
-0.04504 0.05012 -0.16752
-0.00625 0.00520 -0.02892
-0.02661 0.01720 -0.06954
-0.12744 0.00312 -0.04247
-0.12655 0.00219 -0.03859
-0.09490 0.04365 -0.11040
0.00464 0.01987 -0.08032
-0.12418 0.00548 -0.04903
0.03491 0.02113 -0.05910
0.00235 0.00888 -0.04179
-0.00239 0.01954 -0.07843
0.03446 0.01413 -0.03105
-0.02525 0.00548 -0.03130
-0.02712 0.03349 -0.11953
0.03426 0.02027 -0.05630
-0.13322 0.00113 -0.03931
0.00328 0.03447 -0.12497
-0.02740 0.03079 -0.10988
-0.02289 0.02052 -0.07465
-0.15834 -0.07545 0.08353
0.04309 0.02732 -0.06903
-0.08337 0.01708 -0.05276
-0.00983 0.03663 -0.14613
-0.17552 -0.02551 0.08064
0.02978 0.02503 -0.08590
-0.11069 0.05083 -0.13141
0.00850 0.02353 -0.08739
0.02204 0.02474 -0.08638
-0.02471 0.01745 -0.07237
0.04950 0.04538 -0.18891
0.01175 0.02998 -0.11088
0.08633 0.00295 0.05578
0.07636 0.05700 -0.14397
0.07612 0.05649 -0.14636
0.00492 0.03390 -0.12553
0.11770 -0.03010 0.14700
0.17575 0.00277 0.17969
0.10427 0.01922 0.04579
0.01243 -0.01396 0.06961
0.06542 0.01766 0.01973
0.06892 0.01851 0.02444
0.08429 0.01688 0.04627
-0.01696 0.02801 -0.10606
0.12567 0.00870 0.07325
0.00591 0.03248 -0.12185
0.00591 0.03248 -0.12185
-0.05798 0.06944 -0.04111
0.12391 0.00506 0.07726
0.05864 0.02656 -0.02986
0.02660 0.04345 -0.14558
0.11220 -0.03513 0.14299
-0.04641 0.03325 -0.11897
-0.03567 0.02502 -0.09260
0.02341 0.04314 -0.15087
0.10494 0.04348 -0.00678
0.17246 0.01774 0.16683
0.13385 0.06188 -0.04505
0.16852 0.00094 0.17288
0.04332 0.03861 -0.11133
0.04360 0.04137 -0.11988
0.00281 -0.04980 -0.59962
-0.02347 -0.07035 0.09915
0.08689 0.05571 -0.14101
-0.00006 0.03957 -0.15947
0.07661 0.04487 -0.09152
-0.02635 0.03886 -0.14186
0.13815 0.06318 -0.04463
0.01119 0.03065 -0.11260
0.08401 0.05175 -0.12605
0.08433 0.05223 -0.12299
-0.02598 0.03245 -0.12092
-0.01712 0.04029 -0.16400
-0.02152 0.03325 -0.12233
0.17342 -0.00035 0.18884
0.13147 0.05746 -0.02602
-0.01416 0.03257 -0.12322
0.03652 0.00874 -0.00348
0.12871 0.05652 -0.00865
-0.03075 0.01525 -0.06116
0.10529 0.05476 -0.09699
0.07068 0.05991 -0.16379
0.03227 0.04559 -0.15438
0.03230 0.04568 -0.15328
0.16229 -0.02838 0.22981
0.18344 0.00512 0.18945
0.11856 0.05869 -0.07204
0.03821 0.01285 -0.02294
0.02833 0.03037 -0.09798
-0.04116 0.02000 -0.07350
-0.06605 0.02878 -0.09465
0.00703 0.01102 -0.04608
-0.05323 0.05565 -0.17702
0.13292 0.02491 0.07024
0.08899 0.05300 -0.12507
-0.03778 0.01193 -0.04567
0.03363 0.00897 -0.01350
0.13586 0.05915 -0.01402
-0.01044 0.02502 -0.09135
-0.00280 -0.05396 -0.61903
0.06739 0.04604 -0.10441
-0.11045 0.04837 -0.13468
-0.11007 0.05306 -0.14176
0.03720 -0.01378 -0.45807
0.12949 -0.03925 0.16148
0.13027 0.01305 0.08233
0.06576 0.02806 -0.04612
-0.06339 0.05714 -0.15621
-0.16179 0.04080 -0.06375
0.02717 0.03266 -0.11072
0.05938 0.04051 -0.09748
0.10287 -0.00765 0.06717
-0.09402 -0.08673 0.13146
-0.00508 0.03442 -0.13285
0.03469 -0.02850 0.08349
-0.07490 0.05303 -0.16292
0.01863 0.02551 -0.08571
0.07882 -0.02546 0.07277
-0.05551 0.03874 -0.13005
-0.05010 0.02584 -0.08355
-0.11483 -0.01414 0.00411
0.04869 0.01960 -0.03404
0.02614 -0.04643 0.08647
-0.11669 -0.00969 0.02366
-0.11820 -0.02913 0.01263
-0.06636 -0.05629 0.04626
-0.01597 0.01871 -0.07194
-0.09565 -0.02197 -0.00138
0.08050 -0.02950 0.07501
-0.06046 0.05366 -0.16930
0.00332 0.03754 -0.14454
0.08146 0.02786 -0.01849
-0.00459 0.03927 -0.15356
-0.01642 0.04182 -0.16133
0.04503 0.04325 -0.11986
-0.06039 -0.08425 0.05322
-0.16751 -0.06817 0.09413
-0.03026 -0.07108 0.09653
-0.05551 -0.06341 0.04278
-0.01465 0.04028 -0.15606
-0.10923 0.04219 -0.10276
-0.10958 0.04256 -0.10132
0.02766 0.00485 -0.00225
-0.02380 -0.00073 -0.01467
-0.13302 0.04553 -0.09750
-0.13223 0.04491 -0.10080
-0.12352 -0.05770 0.05805
-0.01754 0.03707 -0.13237
-0.09548 0.00528 -0.04783
-0.14319 -0.00211 -0.01669
0.11361 0.03308 0.05033
-0.02942 0.02217 -0.08720
-0.07238 0.01596 -0.08504
-0.10758 0.01970 -0.05487
-0.03871 0.00208 -0.04954
-0.03902 0.00262 -0.02371
0.10224 0.01736 0.03560
-0.09591 -0.01976 -0.01497
-0.13592 0.04202 -0.09954
-0.14167 0.03525 -0.07700
-0.00870 0.03689 -0.14123
0.01797 0.03859 -0.13364
-0.06114 0.03989 -0.09451
0.18409 0.00531 0.19155
-0.02799 0.02201 -0.08742
0.02260 0.02926 -0.10289
-0.11406 -0.00362 0.00729
0.09519 -0.00460 0.06126
-0.11477 0.04875 -0.10740
-0.04203 0.05112 -0.09603
-0.05550 -0.08148 0.04680
0.01024 0.01682 -0.07758
-0.07783 0.03298 -0.08752
-0.12276 -0.00393 -0.02875
0.10683 0.02506 0.04575
0.10680 0.02506 0.04564
-0.09638 -0.00903 -0.00214
0.04959 0.05057 -0.14450
0.10056 0.00184 0.05480
0.08955 0.02449 0.01786
0.09066 0.05340 -0.12228
0.09072 0.05352 -0.12195
-0.08012 0.01788 -0.06044
-0.08724 0.03247 -0.10400
-0.05118 0.04027 -0.14378
-0.00599 -0.00576 0.00587
-0.05725 0.04352 -0.14433
0.10001 0.01193 0.03682
0.15164 -0.02877 0.19270
0.02746 0.03697 -0.12667
-0.02975 0.03090 -0.10913
-0.09575 0.00898 -0.00145
0.10636 0.01084 0.05052
-0.09624 0.02841 -0.09755
0.18759 -0.00722 0.22935
-0.00936 0.03804 -0.14743
-0.10346 0.04336 -0.13855
0.02795 0.00510 -0.01239
-0.11028 0.05490 -0.14146
-0.11893 -0.00198 -0.00065
0.01818 -0.01289 0.06650
0.01945 -0.04886 0.10302
0.01935 -0.04885 0.10329
-0.07135 0.02011 -0.04597
-0.13762 0.03611 -0.08298
0.00869 0.03295 -0.12003
-0.10947 0.04501 -0.10116
-0.12161 0.03033 -0.08965
0.06565 0.03022 -0.06796
-0.12070 0.02833 -0.08946
-0.01437 0.01821 -0.07168
0.08261 0.02435 -0.00586
-0.03606 0.04232 -0.11168
-0.12736 0.03978 -0.08703
0.11319 0.02569 0.05407
-0.05614 0.00779 -0.02612
0.00442 0.03741 -0.15787
0.02722 0.01484 -0.04239
0.05167 0.05082 -0.13502
-0.07588 0.03948 -0.12478
-0.11317 0.04948 -0.11508
-0.12587 0.04024 -0.09975
0.04925 0.04793 -0.13617
0.08516 0.01483 0.03688
-0.08095 0.03078 -0.11553
0.17206 -0.00708 0.19271
-0.03426 0.02171 -0.08318
-0.00074 0.00636 -0.02803
-0.08387 0.03631 -0.12233
0.10951 -0.00734 0.06553
0.16560 -0.06207 0.26293
-0.05464 0.01122 -0.03128
-0.03600 0.01772 -0.06964
-0.03129 0.02117 -0.08289
0.03049 0.01793 -0.05181
0.00068 -0.00128 -0.00837
-0.04073 0.00997 -0.03810
-0.07348 0.02809 -0.07107
0.04263 0.01298 -0.02512
-0.07507 0.02562 -0.06766
-0.02942 0.00000 0.00000
0.00838 -0.01998 0.05229
-0.10807 -0.09950 0.14367
-0.11400 0.02316 -0.07309
0.01344 -0.01387 0.06932
-0.14466 -0.08775 0.08824
-0.11462 0.00923 -0.04465
0.07461 -0.02791 0.07300
-0.05010 0.01272 -0.04022
0.00688 -0.01871 0.08297
0.03668 -0.06157 0.09943
0.00523 0.01264 -0.05531
0.00532 0.01268 -0.05439
0.16980 0.00225 0.17791
-0.03945 -0.06947 0.05572
0.00127 0.04419 -0.17434
0.00073 -0.04083 0.11977
-0.10334 0.02126 -0.05630
-0.03871 0.00208 -0.04954
0.12655 0.00558 0.07378
-0.03057 0.02416 -0.08601
-0.04873 0.02258 -0.07484
0.17540 0.02053 0.17099
0.08163 -0.02062 0.07554
0.06922 -0.05769 0.12070
0.01766 -0.03640 0.10563
-0.03628 -0.07303 0.06195
-0.05328 -0.07633 0.04745
0.17736 -0.00618 0.19856
0.11662 -0.03564 0.14927
0.01922 0.00688 -0.02970
-0.02279 0.02072 -0.07358
0.08706 -0.00688 0.06712
0.16186 -0.05869 0.26289
-0.07627 0.02163 -0.06129
0.16891 0.01845 0.15971
0.08197 0.01398 0.04728
-0.12281 0.05634 -0.14168
-0.02549 0.02115 -0.07972
0.18227 0.00794 0.18687
-0.04110 0.01891 -0.07089
-0.01269 -0.05404 0.11653
0.00678 0.03650 -0.14099
0.03699 -0.00799 0.03039
0.18802 -0.02953 0.26536
0.00929 -0.00198 0.00590
0.18239 0.00898 0.17368
-0.00113 -0.04040 0.11357
-0.05349 0.01337 -0.03912
0.09370 -0.00143 0.08200
0.00608 -0.04439 0.13382
-0.00694 0.03594 -0.14362
-0.02503 -0.01345 0.02556
-0.18009 -0.00305 0.07406
-0.08281 0.03901 -0.09800
-0.02707 0.01809 -0.07178
-0.02456 0.03872 -0.13987
0.01283 0.02794 -0.08272
0.08552 -0.02174 0.07353
0.07846 0.02658 0.00153
0.16234 -0.01832 0.22632
0.14816 -0.05582 0.26162
0.06786 -0.04799 0.09365
0.10966 -0.00726 0.06583
-0.02939 -0.07750 0.10459
-0.04863 0.02005 -0.05767
-0.04794 0.01642 -0.05808
0.03088 -0.05101 0.09085
0.00160 -0.03759 -0.51971
-0.01193 0.01540 -0.06317
-0.13722 -0.06569 0.05463
-0.00170 0.02914 -0.10800
0.06402 0.01936 -0.03078
0.11108 0.04728 -0.20071
0.02294 0.03727 -0.12468
-0.02597 0.03661 -0.12782
0.08442 0.01759 0.04194
-0.05733 0.03083 -0.13787
-0.05346 -0.07539 0.03915
0.09149 -0.05748 0.11758
0.01323 0.02073 -0.07435
-0.04728 0.01078 -0.04214
-0.04736 0.01102 -0.03765
0.07883 -0.02540 0.07199
0.02306 -0.04781 0.10066
0.10595 -0.05886 0.17065
-0.02431 -0.06392 0.08768
-0.11039 -0.05320 0.04385
0.01118 0.03881 -0.14238
-0.10206 -0.05304 0.05486
-0.03923 0.02367 -0.08639
-0.03076 0.03866 -0.14427
-0.03174 0.02959 -0.12202
0.08217 -0.05247 0.09414
-0.00036 0.03227 -0.12403
0.07670 -0.07104 0.09424
-0.07352 0.02832 -0.06985
0.10299 0.06537 -0.31536
-0.06241 -0.06585 0.03795
0.10405 -0.00570 0.05890
0.10404 -0.00571 0.05866
0.01116 0.01251 -0.05293
0.07767 -0.01885 0.07284
-0.11269 -0.00532 0.01231
0.11752 0.03191 0.05313
-0.12035 -0.08436 0.09371
0.06370 0.02265 -0.04370
0.07239 0.05802 -0.15696
-0.02154 -0.05394 -0.62951
-0.10711 -0.01163 0.00289
-0.00445 -0.05089 -0.00377
0.14380 -0.05870 0.24404
-0.09445 -0.05457 0.04768
0.03474 0.03476 -0.10735
-0.03686 -0.17387 -0.99449
0.15982 -0.06012 0.25216
0.03099 -0.02735 0.08559
0.17755 0.01407 0.17469
0.09756 -0.01628 0.06766
0.16557 -0.01695 0.05679
-0.02523 -0.04308 -0.55985
0.01979 0.02840 -0.10151
0.18092 -0.01095 0.22088
0.02766 0.02121 -0.07370
0.09096 -0.01641 0.06588
0.05661 0.02347 -0.03499
0.11135 -0.00534 0.06206
-0.01171 -0.05937 -0.64112
0.03612 -0.05040 0.09271
0.17278 0.02854 0.17469
0.04307 0.03899 -0.11008
0.05542 0.04399 -0.11319
0.18221 -0.05480 0.28231
0.16916 0.00989 0.16925
0.16914 0.00989 0.16921
-0.00043 -0.04597 0.11874
-0.02871 -0.05162 0.08232
0.04219 -0.03913 0.09113
0.00299 0.02673 -0.09571
-0.07354 -0.01505 -0.00697
0.01759 0.00529 -0.01810
-0.05694 0.00531 -0.01649
0.08061 0.02346 0.01471
0.02149 0.00037 0.00816
0.15178 -0.00497 0.16941
0.00147 0.04551 -0.18017
0.12384 0.00124 0.07285
0.10801 0.01804 0.05930
-0.01105 -0.00535 0.01645
0.05995 0.04798 -0.26140
-0.05875 0.03469 -0.05013
-0.02784 -0.00528 0.01649
-0.05653 0.00837 -0.02035
0.17801 0.01121 0.17593
0.12054 0.03409 0.05384
0.10363 -0.04618 0.15026
0.15559 0.00833 0.15285
0.15572 -0.04902 0.25095
0.00453 0.03784 -0.19294
0.03581 0.02009 -0.05629
-0.04082 0.01005 -0.03712
0.15789 0.01755 0.14823
0.15789 0.01755 0.14823
-0.15383 -0.09335 0.10645
0.15377 -0.01536 0.01216
0.16170 0.01280 0.15077
0.09571 -0.01809 0.06908
-0.00847 0.07069 0.21402
0.15941 -0.06094 0.26541
0.05386 0.00338 0.10127
0.07640 -0.05257 0.08772
0.02563 0.01324 -0.04325
-0.03476 0.01990 -0.07473
0.18491 -0.00374 0.20110
0.04820 0.00646 0.01011
-0.01633 -0.00569 0.04193
0.06209 0.01836 -0.00465
-0.00004 0.04349 -0.17413
0.06664 -0.04612 0.09787
0.16578 -0.04659 0.25044
-0.00492 -0.03302 0.11255
-0.00492 -0.03302 0.11255
0.00321 0.04365 -0.17150
0.03500 0.01271 -0.02601
0.08787 -0.05305 0.10341
0.04947 0.00748 0.01527
0.09325 -0.04989 0.13815
0.06089 0.01437 0.00287
-0.01281 -0.06646 0.11900
-0.11632 0.05552 -0.14398
-0.12789 -0.10520 0.10537
-0.05306 -0.08666 0.06753
-0.01397 -0.06817 -0.63498
0.06449 -0.07648 0.09654
-0.10360 -0.10091 0.15183
0.04673 -0.06773 0.03191
-0.12864 -0.10719 0.13028
0.00121 -0.05957 0.12828
-0.02562 0.02864 -0.10683
0.08745 -0.05293 0.09983
0.08484 -0.07115 0.10476
-0.02874 -0.06912 0.07977
-0.03213 0.01663 -0.06675
-0.01987 -0.07056 0.10232
-0.00282 -0.06672 -0.62658
0.08197 0.00917 0.05261
-0.11346 -0.10387 0.09736
0.10058 -0.05482 0.14358
0.08998 -0.06261 0.09846
-0.11331 -0.10441 0.09671
-0.13834 -0.10544 0.11944
0.08694 -0.07063 0.10583
0.04214 -0.06811 0.10728
-0.02203 -0.07764 0.10675
0.00444 -0.00641 0.05878
-0.01808 0.00951 -0.04726
-0.00571 0.00619 -0.03608
-0.08717 0.01672 -0.05291
0.01008 0.00712 -0.03522
0.02791 0.01071 -0.03134
-0.02402 0.01025 -0.04781
-0.05255 0.03244 -0.09444
0.02490 0.01205 -0.03852
0.00000 0.01263 -0.05711
0.01075 0.00659 -0.03074
-0.05545 -0.06345 0.04348
-0.02407 0.03059 -0.11362
-0.00567 0.00379 -0.03557
0.00391 -0.00560 0.00138
0.00444 0.01146 -0.05296
0.05453 -0.01071 0.08068
-0.00747 0.00712 -0.03913
-0.01848 0.00865 -0.04670
-0.03915 -0.03879 -0.49501
-0.00925 -0.04639 -0.52380
-0.02625 0.00748 -0.04059
0.02230 0.00883 -0.02955
-0.00891 0.00825 -0.04757
-0.00891 0.00825 -0.04757
-0.01883 -0.00285 0.00212
-0.04009 -0.06835 0.06328
-0.00089 -0.02066 -0.27771
-0.01209 0.01511 -0.06569
0.04014 0.03079 -0.08991
0.00164 0.00395 -0.02547
-0.02789 0.00966 -0.04507
-0.00055 0.01565 -0.06955
-0.00415 0.03632 -0.13765
-0.02672 0.00177 -0.13237
0.01814 0.01631 -0.06085
0.02924 0.01150 -0.02801
0.00892 -0.04608 0.12595
-0.04377 0.01499 -0.05188
-0.02820 0.01037 -0.04688
0.00312 0.02025 -0.08084
0.03866 0.01773 -0.04110
0.04181 0.01592 -0.05204
0.03053 0.01154 -0.03078
-0.01642 0.00953 -0.04889
0.00637 0.00786 -0.03866
0.00511 0.00571 -0.03277
-0.01176 0.00989 -0.04841
0.01092 0.01341 -0.05741
-0.05250 0.01797 -0.05203
0.00086 0.00921 -0.03733
0.01631 0.00234 -0.01177
-0.07519 -0.02010 0.01059
0.00126 0.01378 -0.05885
0.01173 0.00555 -0.03026
0.04908 -0.01444 0.04184
-0.03903 0.01040 -0.04017
-0.03874 0.01088 -0.03934
0.00883 0.01385 -0.06246
0.00884 0.01386 -0.06185
0.03798 0.01647 -0.03313
-0.02579 0.01267 -0.05393
-0.02270 -0.05005 0.08102
0.00100 0.00643 -0.03612
0.02212 0.00549 -0.06676
0.04221 -0.03905 0.09109
0.01326 0.00706 -0.02890
-0.05243 0.01151 -0.03259
-0.02759 0.01056 -0.05006
0.10770 -0.02225 0.08231
0.05647 0.02330 -0.03619
-0.03449 -0.00044 -0.00136
-0.12252 0.03490 -0.09735
-0.12257 0.03495 -0.09676
-0.02868 -0.05169 0.08220
0.00018 -0.02851 -0.45278
0.01303 0.00757 -0.03275
-0.04297 -0.02389 0.01784
-0.02030 0.01634 -0.06790
0.03819 0.01846 -0.04510
0.03819 0.01846 -0.04510
0.01244 0.01046 -0.04483
0.00584 0.00574 -0.02692
-0.07803 0.03618 -0.09315
-0.03894 0.01513 -0.05415
0.11428 0.05038 -0.01455
0.02801 0.00480 -0.01248
0.01510 0.01559 -0.06456
0.02578 -0.04235 0.07564
0.02838 -0.04207 0.09074
-0.00150 0.00848 -0.04411
0.02647 0.03898 -0.12796
-0.01898 0.00810 -0.04139
0.01577 0.01230 -0.04997
0.01164 0.01269 -0.04394
-0.01536 0.01378 -0.06156
-0.00820 0.00138 -0.01833
0.09565 -0.00391 0.06944
-0.02049 -0.06399 0.09656
0.02828 -0.04223 0.08984
-0.04977 0.01930 -0.03585
-0.00724 0.01217 -0.05871
-0.02745 0.01436 -0.06101
-0.00180 0.01237 -0.05680
-0.01162 0.03423 -0.13059
0.00121 0.00815 -0.04333
0.03746 -0.03217 0.09249
0.09804 -0.00999 0.06029
0.17609 -0.00145 0.20519
0.01306 0.01008 -0.04439
0.01306 0.01008 -0.04439
0.06210 0.01342 -0.26646
-0.00044 0.02212 -0.08433
0.00324 0.01334 -0.06067
0.02777 0.03714 -0.12308
0.01080 0.00557 -0.02891
0.06489 0.04692 -0.24890
0.02842 0.01167 -0.03171
0.03515 0.01706 -0.04466
0.06774 0.02421 -0.05601
-0.00156 0.00953 -0.05118
-0.02837 0.00850 -0.03916
-0.04223 0.01564 -0.05764
-0.04223 0.01566 -0.05744
-0.05822 0.01437 -0.03379
-0.04725 -0.06348 0.05299
0.00501 0.01484 -0.06342
-0.00506 0.01364 -0.05827
-0.01050 -0.01393 0.02241
0.03816 0.01502 -0.03053
-0.01435 0.01801 -0.05911
-0.04283 -0.04490 -0.55014
-0.08380 0.03633 -0.12333
-0.01471 0.01440 -0.06235
0.05611 -0.07604 0.12203
-0.04144 -0.07022 0.05376
-0.03644 0.01261 -0.05332
0.03981 -0.07133 0.11879
-0.02632 0.02568 -0.24863
0.06229 0.02452 -0.05114
-0.13254 -0.05090 0.04987
-0.00975 -0.05897 -0.63289
-0.00189 0.00510 -0.02822
-0.05300 0.01518 -0.04719
0.02683 -0.02750 0.08636
0.03423 -0.05003 0.08850
-0.00850 -0.04592 0.09800
-0.05875 -0.08425 0.04576
-0.08481 -0.04527 0.04738
-0.08373 -0.04555 0.03381
0.04858 -0.03267 0.08473
-0.00720 0.02266 -0.08893
-0.07633 0.02949 -0.06619
-0.00098 0.00180 -0.02263
0.06700 0.01944 -0.26811
-0.00553 -0.04961 0.11381
-0.00978 -0.06033 0.12455
-0.06297 -0.05876 0.04574
-0.00591 -0.00048 0.03245
-0.00756 -0.00314 0.00138
0.02519 -0.05544 0.09937
0.04267 -0.06027 0.09279
0.03790 -0.03582 0.17729
-0.00185 -0.04812 0.12169
-0.03951 -0.07250 0.06421
0.03967 -0.04995 0.09505
-0.07983 -0.01355 0.00990
-0.01381 -0.00718 0.02982
-0.03255 -0.06934 0.10167
-0.04122 0.04616 -0.17974
0.01449 0.00240 -0.01305
-0.12874 0.00632 -0.04703
0.00102 -0.00394 0.00877
-0.02260 -0.06781 0.08470
0.03541 -0.03222 0.08032
0.01468 -0.01211 0.05177
0.00675 -0.01819 0.06504
-0.01528 -0.06390 -0.65118
0.08131 -0.02005 0.06983
-0.01970 -0.00676 -0.02248
0.00460 -0.01314 0.05264
-0.09904 -0.06658 0.11197
-0.03120 -0.06868 0.10256
0.05131 -0.01463 0.04221
-0.04230 -0.07236 0.04660
-0.06655 -0.01858 0.00047
0.00047 -0.06153 -0.43835
0.02649 0.00488 -0.00455
-0.04920 -0.08241 0.05741
-0.00667 -0.00022 -0.01348
0.00380 -0.00490 0.01831
0.00367 -0.00527 0.01527
0.00301 -0.03928 0.13623
-0.01575 0.02883 -0.10815
0.00238 0.00158 -0.01815
-0.06994 -0.03481 0.02355
-0.03391 0.00317 0.03311
-0.03934 -0.06922 0.06053
-0.01418 -0.00687 0.02845
-0.06290 -0.06202 0.05371
0.00387 -0.00394 0.01271
0.02383 -0.02795 0.06458
-0.06691 -0.03182 0.01886
-0.00386 -0.03712 0.11226
0.03111 -0.02278 0.07481
-0.00069 -0.00355 -0.29399
-0.09648 -0.06647 0.10364
-0.09506 -0.06596 0.08587
0.00359 -0.04042 0.11813
0.00413 -0.00566 0.01822
-0.01714 0.01878 -0.07450
-0.04105 -0.07134 0.06244
-0.02817 0.02527 -0.10383
-0.06128 -0.08264 0.06091
0.02322 -0.02778 0.08647
0.09717 -0.01660 0.06620
0.04699 -0.01304 0.03695
-0.00360 -0.03735 0.07188
-0.06551 -0.01800 0.01193
0.08236 -0.05547 0.09433
-0.01315 0.03555 -0.13306
-0.00707 -0.00283 -0.00036
-0.01288 -0.00320 0.00334
-0.01287 -0.00321 0.00127
0.06586 -0.03357 0.06687
-0.03823 -0.07310 0.10062
0.06376 0.02270 -0.04285
0.05987 -0.00559 0.04827
-0.03986 -0.00132 -0.01301
-0.03988 -0.00104 -0.01166
0.02477 -0.03926 0.06950
-0.10553 -0.03140 0.02486
0.00871 -0.02618 0.09024
0.01205 -0.01572 0.07674
0.04640 -0.01049 0.03626
0.00740 -0.01024 0.03609
0.01058 -0.04551 -0.60330
-0.09609 -0.06442 0.09881
-0.00334 -0.00338 0.00326
-0.01397 -0.00630 0.02635
0.00705 -0.04825 0.13944
0.00080 0.00489 -0.02876
-0.04030 -0.07060 0.06466
-0.05450 -0.06993 0.06097
-0.02258 -0.07579 0.11331
-0.00456 -0.00561 0.01583
-0.06089 -0.06022 0.04135
0.00851 -0.01966 0.07929
0.00388 -0.00831 0.02542
0.02869 -0.03598 0.09473
0.01224 0.01540 -0.06274
0.00608 -0.02058 0.08264
0.02956 -0.03071 0.08712
-0.09702 -0.06483 0.10160
0.03327 0.01025 -0.02453
0.00738 -0.00938 0.03497
-0.00638 -0.01895 0.03592
0.02692 -0.06037 0.09821
0.03308 -0.02541 0.13227
0.00364 -0.00745 0.02320
-0.03345 -0.07003 0.07162
-0.05618 -0.01114 -0.00316
-0.00248 -0.00348 0.00353
0.00551 -0.00324 -0.02564
0.04979 -0.00554 0.03472
0.04895 -0.01437 0.03717
-0.09998 -0.06815 0.11565
-0.09784 -0.06795 0.09321
0.03418 -0.05904 0.02272
0.00555 0.00173 -0.01645
-0.00891 -0.01733 0.02967
-0.00890 -0.01714 0.03332
-0.00097 -0.00471 0.00880
0.01134 -0.01527 0.07086
0.01262 -0.01099 0.04217
0.01262 -0.01099 0.04217
0.00292 -0.03798 0.11827
0.05069 -0.01309 0.04596
0.05188 -0.01256 0.05483
0.01836 -0.06128 0.07422
-0.00299 -0.03628 0.07580
0.06870 -0.03206 0.07583
0.00478 -0.00965 0.00199
0.06933 -0.03305 0.07853
0.08431 0.02035 0.04262
0.02077 -0.06217 0.09835
-0.02177 -0.06999 0.11058
-0.11999 0.02077 -0.06582
0.00255 0.00099 -0.01770
0.00524 -0.01402 0.05391
0.01262 -0.00876 0.04380
0.00864 -0.04524 0.13268
0.01003 -0.04473 0.15251
0.18501 0.01068 0.20373
0.05472 0.00072 0.03073
-0.00260 -0.04996 0.10546
-0.07412 -0.03828 0.02924
-0.06551 -0.02275 0.00388
0.06141 -0.07415 0.09585
-0.00921 -0.01469 0.03390
-0.00921 -0.01469 0.03390
0.03219 -0.02748 0.10702
-0.00866 -0.04410 -0.59609
-0.01251 -0.05962 -0.64254
0.08440 -0.05107 0.09856
-0.00211 -0.04179 0.10887
0.01007 0.12134 0.48972
-0.03873 -0.01686 0.01882
0.08114 -0.01849 0.07046
-0.00021 -0.01695 -0.06391
0.03412 -0.00488 0.01523
0.03402 -0.00498 0.01337
-0.06269 -0.01708 0.00648
0.03460 0.12182 0.53540
0.00046 -0.01800 -0.12682
0.05062 -0.00119 0.03289
-0.05322 -0.00861 -0.00524
0.01948 -0.03061 0.08348
0.03044 -0.03143 0.08703
-0.01947 0.03494 -0.13720
-0.00378 -0.02956 0.11490
-0.00378 -0.02952 0.11537
0.00679 -0.01059 0.03802
-0.02737 -0.07990 0.11078
0.00538 -0.01111 0.03963
0.03421 -0.00684 0.00311
-0.04135 -0.07256 0.05670
0.02792 -0.03686 0.06982
0.00729 -0.04486 0.13958
-0.00920 -0.01257 0.02942
-0.10165 -0.03480 0.03698
-0.02361 -0.07684 0.11990
-0.07600 -0.01536 0.00756
0.00596 -0.00911 0.02873
0.00596 -0.00911 0.02873
-0.00304 -0.01706 0.02512
-0.07438 -0.06990 0.07399
0.00434 -0.04801 -0.59001
0.02398 -0.02866 0.08537
0.04003 -0.05678 0.09734
-0.05318 -0.00596 -0.00428
0.05632 -0.00225 0.03915
0.05305 -0.00184 0.02638
0.01587 -0.01785 0.07947
0.01345 -0.01303 0.05631
0.01863 -0.00882 0.12178
-0.02399 -0.01126 0.02764
-0.03650 0.00075 -0.00058
-0.09712 -0.07115 0.10765
-0.01812 -0.00454 0.02099
-0.04815 -0.02579 -0.32682
0.07838 -0.05723 0.08732
-0.07256 -0.01465 -0.02271
0.05390 -0.00573 0.03332
0.03285 -0.03740 0.10597
0.03271 -0.03744 0.10464
-0.06295 -0.00636 -0.01430
0.08116 -0.02375 0.07167
0.01977 0.02844 -0.10140
-0.00132 -0.06037 0.12709
0.05297 -0.00278 0.02684
-0.08167 -0.01661 0.01009
-0.01167 -0.05308 0.12335
-0.08060 -0.01315 0.00676
-0.03678 -0.00570 0.01277
0.02670 -0.03206 0.08312
0.02670 -0.03206 0.08312
-0.04136 -0.00893 0.01033
0.04572 -0.00904 0.03795
-0.09295 -0.06561 0.09518
0.02878 -0.01029 0.03012
0.00813 -0.01339 0.05351
0.06790 -0.03600 0.07012
0.04644 -0.01153 0.03157
0.00945 -0.02077 0.08452
0.08492 -0.05277 0.09615
0.00997 -0.01433 0.06318
-0.00373 -0.00262 0.00535
0.05328 -0.00064 0.02827
-0.00474 -0.05515 -0.61915
0.00450 -0.02925 -0.17241
0.04287 -0.06088 0.09707
-0.09446 -0.08833 0.14521
0.03316 -0.00787 0.04317
-0.07976 -0.01700 0.01004
-0.07976 -0.01700 0.01004
0.01646 -0.04609 0.12154
0.01084 -0.01142 0.03867
-0.02503 -0.01345 0.02556
0.08260 -0.05549 0.09608
0.04212 -0.04179 0.08386
-0.01118 0.00168 0.09411
0.00277 -0.01089 0.04137
0.00431 0.00639 0.13405
0.01213 -0.01317 0.05706
-0.05501 -0.01692 0.00971
0.00741 -0.00892 0.02698
0.04978 -0.00811 0.03905
-0.03831 -0.00442 0.02272
-0.03832 -0.00478 0.01488
-0.00863 -0.00264 0.00300
0.00591 0.02949 -0.11286
0.03140 -0.02238 0.09622
0.03550 -0.03233 0.09516
0.04499 -0.00016 0.08161
0.01624 -0.00060 0.02930
-0.03671 -0.01344 0.02536
-0.00872 -0.01786 0.02878
-0.00853 -0.01758 0.03434
0.00123 -0.02756 0.12773
0.05787 -0.07145 0.08267
0.06193 -0.07190 0.11233
-0.00266 -0.00456 0.02731
0.03148 -0.00711 0.01962
0.00366 -0.01975 0.06841
-0.03951 -0.00532 0.00858
-0.06215 -0.01869 0.00759
0.00752 -0.04581 0.13233
0.00007 -0.00289 -0.05454
-0.00259 -0.01662 0.02603
0.06894 -0.02545 0.02285
-0.01099 -0.00458 -0.24610
-0.00983 0.03678 -0.14547
0.04282 -0.04228 0.08479
0.02218 -0.02753 0.09049
0.00466 -0.00881 0.03601
0.01825 0.01513 -0.05732
0.08299 -0.06214 0.09229
0.04987 -0.01444 0.03841
0.06321 0.04370 -0.26654
-0.02353 -0.04850 0.06281
0.03903 -0.03116 0.07428
-0.04153 -0.01461 0.01641
0.04903 -0.01171 0.03684
0.04903 -0.01171 0.03684
0.02860 -0.05291 0.07750
-0.00118 -0.00359 0.00034
0.06284 0.01613 0.02152
0.03942 -0.05000 0.09323
0.10832 0.04350 -0.23489
-0.00216 0.03448 -0.13335
-0.00615 -0.01626 0.02400
0.06585 0.00163 0.03422
-0.04828 -0.01277 0.01369
0.04387 -0.06655 0.10192
0.07743 -0.01897 0.07129
-0.01416 0.03257 -0.12322
0.03222 -0.05325 0.08906
-0.08139 -0.01768 0.00821
0.02781 -0.03114 0.03893
-0.00503 -0.04659 0.12270
0.00723 0.03380 -0.12826
0.11527 0.00014 0.06359
0.00577 0.02600 -0.09777
0.00698 -0.04995 0.12923
-0.08033 -0.02129 0.01140
-0.01765 -0.00455 0.01105
0.10072 -0.01322 0.06895
0.10112 -0.01301 0.07027
-0.06758 0.05459 -0.16491
-0.05730 -0.07193 0.05346
0.09184 -0.01859 0.06726
-0.04302 -0.02387 0.01880
-0.07658 -0.01494 0.00562
-0.07637 -0.01513 0.00324
0.00480 -0.02185 0.08055
0.01002 -0.01644 0.06199
0.04217 -0.04308 0.08475
-0.04864 -0.01335 0.00734
-0.07342 -0.01182 0.00257
-0.00231 0.01333 -0.13339
0.00171 -0.00629 0.01726
-0.00068 -0.05854 0.12424
-0.03262 -0.04540 -0.56476
-0.01662 -0.00474 0.00944
-0.04990 -0.01962 0.01096
-0.02094 0.02930 -0.11143
-0.02165 -0.07231 0.11017
0.03779 -0.04683 0.08654
0.08627 -0.02379 0.06557
-0.00394 0.02203 0.21176
0.00152 -0.03754 -0.58976
-0.08815 0.04530 -0.26489
0.03275 -0.04259 0.11082
0.05120 -0.00125 0.03314
0.05120 -0.00125 0.03314
0.04535 -0.00835 0.04135
-0.06880 0.02881 -0.07313
0.05688 -0.06916 0.10041
-0.00189 -0.00531 0.01206
-0.05237 -0.01452 0.00829
0.02119 -0.05746 0.09830
0.09171 -0.00042 0.05745
0.08788 -0.06087 0.12751
0.03025 -0.00832 0.03970
-0.07478 -0.08307 0.09033
0.05160 -0.00535 0.03273
0.00008 -0.05205 0.12332
-0.10531 -0.08693 0.11109
-0.04201 -0.01673 0.01620
-0.04245 -0.01763 0.01763
0.04974 -0.00825 0.04043
0.07186 -0.07189 0.09422
0.00906 -0.01353 0.06764
-0.04253 -0.00097 -0.01361
0.05496 -0.00599 0.04055
0.00214 -0.01217 0.04688
-0.00081 -0.03471 -0.41513
-0.04286 -0.01933 0.01577
0.02897 -0.03415 0.10861
-0.00709 -0.01934 0.03950
-0.01467 0.01443 -0.06163
-0.13313 -0.10282 0.11923
-0.00219 -0.01188 -0.16400
-0.07539 -0.01588 0.00578
-0.05354 0.02356 -0.22171
-0.06664 -0.01883 0.00493
-0.01808 -0.07232 0.11334
-0.01369 0.04213 -0.15401
-0.08397 -0.04606 0.04072
0.00756 -0.02438 0.09352
0.05126 -0.01274 0.03714
0.01068 -0.02142 0.08349
0.03608 -0.05041 0.09323
-0.04333 -0.01487 0.01303
0.03792 0.03459 -0.10295
-0.08246 -0.01164 0.01077
-0.06255 -0.01092 -0.00131
0.04518 -0.04032 0.08576
-0.04678 -0.01294 0.00911
0.09967 -0.04107 0.10675
-0.15122 -0.09591 0.11328
-0.06439 -0.00590 0.05129
-0.06439 -0.00590 0.05129
-0.08655 0.03633 -0.10344
-0.00267 -0.03502 0.11229
-0.05287 -0.00533 -0.00241
-0.04231 -0.01608 0.01513
-0.01758 0.03065 -0.11757
0.02112 -0.01298 0.06564
0.01120 -0.02201 0.06929
-0.03918 -0.00492 0.02102
0.04997 0.00818 0.13592
0.03447 0.03001 -0.09653
