# .PCD v.7 - Point Cloud Data file format
VERSION .7
FIELDS x y z
SIZE 4 4 4
TYPE F F F
COUNT 1 1 1
WIDTH 1210
HEIGHT 1
VIEWPOINT 0 0 0 1 0 0 0
POINTS 1210
DATA ascii
0.03737 -0.07414 0.08330
0.01993 -0.08309 0.04418
-0.03063 -0.08029 -0.01326
0.01321 -0.14405 -0.00561
0.14414 -0.08578 0.17401
0.44197 0.07469 -0.16024
0.44135 0.07381 -0.15875
0.13838 0.09495 -0.01351
-0.06923 -0.00846 -0.09143
-0.06259 -0.00558 -0.10428
0.03153 -0.15102 -0.05752
0.22616 0.13097 0.45523
-0.03106 0.10127 0.07939
0.01210 -0.08411 0.07217
-0.01291 0.10894 0.00761
0.01378 -0.08096 0.06755
-0.01912 0.05418 0.01926
-0.05616 0.03782 -0.00046
-0.22787 0.05358 -0.08765
-0.22787 0.05358 -0.08765
-0.19113 0.02743 -0.07032
0.27656 0.11132 -0.13303
0.19658 -0.01257 -0.26410
-0.04405 -0.12727 0.00997
0.11237 -0.07254 0.09510
-0.11977 0.12952 -0.03513
-0.02896 0.04326 0.01411
-0.04873 0.08545 0.00206
-0.01017 -0.17862 -0.08895
0.35278 0.11340 -0.21611
-0.04835 0.07057 0.00205
-0.04668 -0.08327 -0.12147
-0.07561 -0.01449 -0.14072
-0.28949 0.12950 0.01999
-0.07542 -0.01437 -0.13450
-0.08204 -0.01090 -0.14114
-0.05371 -0.04776 -0.12188
-0.03081 -0.01156 0.01524
-0.07626 -0.00597 -0.14274
-0.03549 -0.16777 0.01431
-0.04680 -0.15306 0.00864
0.24520 -0.05904 0.16974
-0.07551 0.00200 -0.13980
-0.04300 -0.08775 -0.12462
-0.02880 -0.12143 -0.13444
0.16153 0.10735 -0.07874
-0.03237 -0.11874 -0.13079
-0.05627 -0.16449 0.00257
0.27284 0.10492 -0.16240
0.03916 -0.07548 0.05386
-0.07033 0.06792 -0.00710
-0.04162 -0.07528 -0.08617
-0.01389 -0.12316 -0.11132
0.13123 0.06306 -0.03955
-0.01694 -0.06504 0.02159
-0.02689 0.05130 -0.12169
-0.13373 0.12361 -0.04184
-0.03212 0.04724 -0.11965
-0.13373 0.12361 -0.04184
-0.01275 -0.14301 -0.13031
-0.09970 0.06681 -0.17976
0.25406 -0.08052 0.17513
0.09310 0.05721 -0.20443
0.05352 -0.02312 -0.01214
0.05352 -0.02312 -0.01214
-0.07061 0.08340 -0.01024
-0.02710 -0.16101 -0.03169
-0.04951 0.02408 0.00362
-0.03583 0.14093 0.00145
-0.11239 0.07482 -0.18250
-0.05997 -0.00268 -0.14343
-0.06211 -0.08574 -0.00168
-0.07748 0.00503 -0.10612
-0.04263 0.08252 -0.15821
-0.04263 0.08252 -0.15821
0.03368 0.05087 -0.17267
-0.03449 -0.20032 -0.06086
-0.04720 -0.09429 0.00732
-0.10348 -0.11628 -0.02089
-0.02741 -0.18303 -0.08453
0.13200 -0.06826 0.10523
-0.04841 0.07162 -0.16122
-0.00359 -0.17234 -0.01656
-0.00359 -0.17234 -0.01656
-0.05288 0.03316 -0.11461
0.33508 0.11538 -0.41712
-0.06393 -0.00752 -0.14526
0.00641 -0.18140 -0.07342
-0.01807 -0.15542 -0.02479
-0.04880 0.09446 -0.17550
-0.20599 0.03481 -0.07743
-0.04308 0.09958 -0.14711
-0.04936 -0.02754 0.00497
-0.02376 0.06907 -0.12050
-0.04731 0.01252 -0.11316
-0.06286 0.01597 -0.10892
-0.01668 -0.09974 0.02262
0.11731 -0.03012 -0.06210
0.25442 0.01961 0.12929
0.51206 0.11524 -0.55273
-0.01722 0.07803 -0.12285
-0.07384 0.01353 -0.16003
0.09604 0.06119 -0.03589
-0.04608 0.09697 -0.17328
0.15102 -0.04989 0.11791
0.15134 -0.04983 0.13987
-0.02407 0.08153 -0.16207
0.06778 -0.06626 -0.04495
0.06787 -0.06622 -0.03375
-0.07205 0.02148 -0.00854
-0.07165 0.02159 -0.00920
-0.05930 0.07932 -0.17147
-0.07421 -0.02001 -0.00887
-0.03392 0.08143 -0.14527
-0.03392 0.08143 -0.14527
-0.20677 0.01352 -0.07747
-0.05277 -0.01654 -0.01042
-0.02472 0.09022 -0.14313
-0.05398 0.07454 -0.17436
-0.13090 0.05612 -0.03999
0.21007 -0.05864 0.15916
-0.13101 0.04416 -0.04103
-0.09578 -0.15095 -0.01924
-0.04167 0.09574 -0.16816
-0.08099 0.01696 -0.11048
-0.05030 -0.15966 0.00532
-0.04007 0.06237 -0.14511
-0.06314 0.00176 -0.14354
0.46806 -0.07949 -0.02780
-0.02389 -0.14105 -0.09886
-0.10113 0.11862 -0.02290
0.07132 -0.06544 -0.05316
0.06479 -0.06672 -0.03627
-0.04387 -0.12784 0.01147
-0.02444 -0.08060 0.01440
0.10637 0.00529 -0.20861
0.12776 -0.06841 0.10365
-0.20137 0.03017 -0.07529
0.15713 -0.04874 0.12115
-0.06938 -0.09920 -0.00525
-0.02957 0.07238 -0.12241
-0.14983 0.05224 -0.03880
-0.03564 0.07318 -0.14673
-0.03795 0.08375 -0.16140
-0.04933 -0.15687 0.00608
-0.10932 0.08129 -0.17833
0.27568 0.09864 -0.07492
-0.03620 0.09919 -0.11850
0.11268 -0.07256 0.09471
0.08478 -0.06307 0.19771
-0.11528 -0.15863 0.06260
-0.06804 -0.01918 0.00655
-0.10524 0.04864 -0.02430
-0.07188 0.03424 -0.00926
0.16401 0.08548 -0.00674
-0.13590 -0.02749 -0.04015
0.13847 -0.05245 0.10948
-0.06905 -0.00055 -0.15424
0.10111 0.06879 -0.03140
-0.15392 0.12792 -0.09058
-0.02191 0.08099 -0.12958
0.17067 -0.04577 0.19551
-0.04595 0.08501 0.00283
-0.01824 0.08067 -0.12554
-0.04781 0.08555 -0.17184
0.10429 0.06046 -0.02721
0.10372 -0.03316 0.15181
-0.02609 -0.10636 0.02019
0.26425 -0.01918 0.17460
-0.06043 -0.03020 -0.00174
0.04977 0.02181 -0.20237
0.53069 0.10783 -0.52875
0.03169 -0.00590 -0.01032
0.20585 -0.03804 0.14746
0.11792 -0.07162 0.09787
0.11792 -0.07162 0.09787
0.09235 -0.06093 -0.06115
-0.16293 0.05591 -0.10561
-0.02679 0.04385 -0.11610
-0.05468 0.07928 -0.00119
-0.05148 0.03898 -0.00926
-0.04651 -0.01977 0.00658
-0.04639 -0.01990 0.00654
-0.03923 -0.15232 -0.12695
0.35643 0.12711 -0.25468
-0.04671 -0.00558 0.04224
0.14119 -0.05083 -0.10042
-0.04553 0.08186 0.00285
-0.07060 0.08916 -0.00967
-0.07109 0.08893 -0.00939
-0.07148 -0.08498 -0.00728
-0.04622 -0.08275 0.00575
-0.04704 -0.08202 0.00597
0.43667 0.09621 -0.41191
-0.07164 -0.03228 -0.00799
0.20828 0.00796 0.17731
0.11990 0.12834 0.01969
-0.04570 0.02338 0.00534
-0.19304 0.03593 -0.07184
0.24193 0.03664 0.17391
-0.06235 -0.08111 -0.00359
-0.11078 0.08873 -0.02562
-0.05945 0.08256 -0.00342
-0.06274 0.02869 -0.00380
0.20707 -0.05164 0.17468
-0.02465 -0.14579 0.02228
-0.03548 0.08987 -0.15334
0.34547 0.05702 0.50086
0.10110 -0.06497 0.08997
-0.11179 0.04978 -0.02441
-0.04680 -0.07836 0.00462
-0.00473 -0.08132 0.00791
0.19808 -0.06254 -0.26070
0.40096 0.22867 0.21872
-0.06461 -0.08889 -0.00312
-0.07140 0.07203 -0.01094
0.22297 -0.04752 0.15993
-0.11645 0.07904 -0.17886
0.23461 -0.05867 0.16534
-0.30139 0.06049 0.00415
-0.05504 0.08282 -0.00185
0.31338 -0.01572 -0.18650
0.20875 -0.11960 -0.23709
-0.02370 0.06023 0.01457
0.13899 -0.05987 -0.01853
-0.06502 0.10878 -0.04736
-0.18988 0.01324 -0.07150
0.20372 0.01330 0.17041
-0.05864 0.02328 -0.00192
-0.07478 0.02503 -0.01024
-0.05304 0.02007 0.00116
-0.05296 0.01997 0.00100
-0.04633 0.03306 0.00486
0.25081 0.11653 0.15634
0.41974 0.08980 -0.40351
0.15418 -0.04956 0.11864
0.25805 -0.02630 0.17676
-0.06299 0.02329 -0.00439
0.09774 -0.05566 -0.06082
0.10499 -0.05538 0.07452
0.07806 -0.08056 0.08229
-0.10066 0.00900 -0.08511
-0.10209 0.02660 -0.13574
-0.05162 -0.07424 0.00005
-0.02297 -0.11147 0.02048
0.21171 -0.06835 0.16469
-0.02018 -0.07428 0.02035
0.00396 -0.12707 -0.00440
-0.06498 0.08792 -0.00709
-0.05004 0.07369 0.00140
0.19536 0.08219 0.02099
0.06249 -0.07467 0.05166
-0.03797 0.09007 -0.15690
-0.05827 0.09901 0.00678
0.25335 0.09487 0.18184
-0.02393 -0.08498 0.01977
-0.02329 -0.08714 0.08944
-0.05922 -0.07508 -0.00076
-0.05875 -0.07566 0.00683
-0.05403 -0.10170 0.00247
-0.04954 0.09761 -0.17891
-0.04166 0.08975 0.00531
-0.02954 0.00664 0.01382
-0.04683 -0.02533 0.00710
-0.04642 -0.02527 0.00675
0.10645 -0.05957 0.03534
-0.00387 -0.07065 0.01805
-0.05930 0.05812 -0.00369
-0.02994 0.06614 0.01171
-0.05401 -0.12754 0.00317
0.54357 0.11252 -0.56345
-0.06536 0.09081 -0.00731
-0.06589 0.01989 -0.00641
-0.11936 -0.14137 -0.01979
0.31637 0.03661 0.24978
-0.04901 -0.15196 0.00702
-0.07283 0.08351 0.01830
-0.04636 0.02874 -0.00451
-0.05102 0.08872 -0.00074
-0.06817 -0.02307 0.00829
0.49654 0.13794 -0.38194
0.09208 -0.05814 0.19097
0.25561 0.02858 0.16882
-0.06074 0.02624 -0.00310
-0.06074 0.02624 -0.00310
0.26265 0.07019 0.17192
-0.01953 -0.07991 0.02125
-0.06741 -0.02843 0.00590
-0.05998 0.09300 -0.00443
0.26422 0.05867 0.17075
-0.06603 0.09157 -0.00889
-0.20021 0.03577 -0.07509
0.14731 0.13480 0.50373
0.19146 0.10390 -0.09260
0.28740 0.03635 0.19017
-0.18356 0.02256 -0.06907
0.30199 0.04778 0.19683
-0.02585 0.05233 0.01450
-0.02168 0.07101 -0.12339
-0.06145 0.09559 -0.00476
0.33023 0.09572 0.11487
-0.04882 -0.15718 0.00615
-0.22777 0.02337 -0.08811
0.03374 -0.07705 0.05095
0.24579 -0.04558 0.12760
0.24600 -0.08654 0.17574
0.30437 0.07002 0.19460
-0.04670 -0.10028 0.00755
0.00726 -0.08304 0.15463
0.00754 -0.08183 0.00382
-0.02558 0.04096 0.01389
0.00334 -0.07711 0.31150
-0.02553 0.04604 0.01537
0.07776 -0.10571 0.08777
-0.10153 -0.07690 -0.04742
-0.13950 -0.02475 -0.05888
-0.13352 0.12261 -0.08004
0.23070 -0.02853 0.15975
-0.04917 0.09655 0.00226
0.12562 0.13521 0.09021
0.29380 0.04107 0.19401
-0.02404 -0.08880 0.02016
-0.06846 -0.01845 0.00941
-0.06216 -0.08490 -0.00270
0.17722 -0.04112 0.13169
-0.05595 -0.07637 -0.00020
-0.15392 0.12792 -0.09058
-0.05775 -0.07643 0.00097
-0.06667 -0.13568 -0.00193
-0.05388 -0.13191 0.00279
-0.16878 0.01282 -0.05770
-0.06927 -0.09385 -0.00537
-0.06931 -0.09381 -0.00534
0.00408 -0.07730 -0.00514
-0.18166 -0.03459 -0.06232
-0.07201 -0.07831 -0.00712
-0.06136 -0.13425 -0.00103
-0.07210 -0.09836 -0.00660
0.07206 -0.06086 -0.02596
-0.05812 -0.13681 0.00148
0.22835 -0.02979 0.16031
-0.05971 0.08747 -0.00459
-0.04934 -0.01849 0.00441
-0.13843 -0.03288 -0.02148
-0.02248 -0.08237 0.02069
-0.07061 0.08339 -0.01008
-0.06373 0.07803 -0.00597
-0.04153 -0.07194 0.00916
-0.05251 -0.02089 -0.01141
-0.02663 -0.13433 -0.09710
0.01288 -0.06811 0.02497
-0.05642 0.09000 -0.00237
-0.05615 0.08990 -0.00261
-0.07429 0.08688 -0.01248
0.03159 -0.07500 0.16618
-0.06181 -0.09763 -0.00108
-0.06159 0.08522 -0.00504
0.20169 -0.03824 0.18766
-0.01803 -0.08158 0.02298
-0.06538 0.08502 -0.00742
-0.07403 0.02063 -0.01095
-0.06511 0.03093 -0.00466
-0.04949 -0.02200 0.00463
-0.05259 -0.08143 0.00262
-0.05809 -0.13272 0.00170
-0.05192 0.02795 0.00205
-0.04562 -0.07854 -0.07283
0.15116 -0.06510 0.16968
-0.07457 0.03460 -0.01127
-0.06280 0.03574 -0.00406
0.02953 -0.07625 0.00468
-0.06356 0.08322 -0.00637
0.25557 0.11098 -0.03546
-0.06159 0.07474 -0.00478
-0.07459 -0.02417 -0.00970
-0.00168 -0.08312 0.02109
-0.04266 -0.07446 0.00755
-0.04253 -0.07518 0.00763
0.18746 -0.03230 0.13379
0.12283 -0.07453 0.10093
-0.05442 -0.09619 0.00304
-0.06359 -0.00277 -0.13628
-0.00570 -0.07921 0.03019
0.12296 -0.07443 0.10080
-0.12343 -0.09126 -0.02340
-0.12375 -0.09170 -0.03191
-0.04544 0.06703 0.00422
-0.30141 0.12902 0.01698
-0.06196 -0.10402 -0.00051
-0.07444 -0.02893 0.00605
-0.07218 -0.13600 -0.00533
0.21925 -0.06100 0.16348
-0.05645 -0.13481 0.00339
-0.13281 -0.03685 -0.03915
0.24830 0.02332 0.17663
-0.04485 0.02372 0.00571
-0.06343 0.09417 -0.00668
-0.05017 0.08124 0.00047
-0.00513 0.11975 0.01511
0.26182 0.02635 0.16039
-0.06744 0.08325 -0.00830
-0.07226 0.06529 0.01824
-0.00746 -0.09063 0.10771
-0.05251 0.08631 -0.00005
-0.04978 0.03049 0.00335
0.02351 -0.08074 0.00205
-0.00121 0.14074 0.00137
0.12520 0.13702 0.14861
-0.04453 -0.11728 -0.02715
-0.04347 0.08938 0.00373
-0.05755 0.09578 -0.00276
-0.05907 0.06083 -0.00334
-0.05547 0.03255 -0.00022
-0.07247 0.06169 -0.00474
-0.07208 0.06149 -0.00508
-0.06495 0.02593 -0.00519
-0.06440 -0.14557 -0.00186
-0.04594 0.02911 0.00411
-0.05181 0.09176 -0.00138
-0.05872 0.03603 -0.00171
-0.09989 -0.11906 -0.01982
0.25877 -0.03394 0.15525
0.31944 0.16238 -0.18188
-0.05402 0.07406 -0.00199
0.20564 -0.07103 0.14707
0.16226 -0.04562 -0.11973
0.11109 -0.05461 0.26918
0.00007 -0.08483 0.17520
0.01424 -0.07897 0.30941
0.10635 -0.05588 0.31163
0.01495 -0.07374 0.27123
-0.13913 0.12942 -0.04455
-0.11428 -0.09364 -0.03604
0.09105 -0.05278 0.32906
0.01170 -0.07571 0.31467
0.00235 -0.07912 0.34798
0.16591 -0.03721 0.23777
0.03424 -0.07131 0.38495
0.01354 -0.05082 0.00935
0.05582 -0.06031 0.40384
0.00421 -0.08470 0.15946
-0.02847 0.04919 0.01293
-0.07079 0.06797 -0.00978
-0.03858 0.08968 -0.16194
-0.05075 -0.07554 0.00297
0.22780 -0.01404 0.16027
0.31314 0.05619 0.18849
0.19384 0.10341 -0.08930
0.19384 0.10341 -0.08930
0.15784 -0.03847 0.10945
-0.16897 -0.01175 -0.07872
-0.12495 -0.03187 -0.06368
0.21359 0.00218 0.08703
0.23237 0.15452 -0.08856
0.26215 -0.10187 0.10823
0.25284 -0.10489 0.12056
0.29397 -0.07133 0.12763
-0.05756 0.08493 -0.00268
0.31014 0.11078 -0.11035
0.24240 0.11054 -0.04781
0.27876 -0.08070 0.16051
0.18377 0.10346 -0.09212
0.23946 0.16341 -0.02650
-1.00000 0.01065 0.41205
-0.11741 0.00451 -0.06939
0.26968 0.10548 -0.14049
0.20345 0.10434 -0.08619
0.21567 0.01066 0.08522
-0.06491 -0.09359 -0.00333
-0.06629 -0.14180 -0.01014
-0.07043 -0.14278 -0.00683
0.31766 0.06226 0.16825
-0.02806 -0.01127 0.01469
0.50242 0.02535 -0.28265
0.28339 -0.03597 0.16812
0.28339 -0.03597 0.16812
0.35688 0.12886 0.14630
-0.03431 -0.03765 0.01914
0.38597 0.09231 0.07861
-0.04970 0.10811 0.03886
-0.13340 -0.03082 -0.03943
0.31058 0.10097 0.13299
-0.12672 -0.02212 -0.06096
-0.12672 -0.02212 -0.06096
-0.21927 -0.00470 -0.08123
0.36251 0.11097 0.18055
-0.17235 -0.00468 -0.07849
0.28522 0.01700 0.16599
0.34732 0.12991 0.14691
0.21453 0.00182 0.08910
0.05332 -0.07803 0.06153
0.24591 0.11049 -0.04441
0.37042 0.13302 0.14868
0.08046 -0.05372 -0.01277
0.40905 0.00845 -0.19698
0.22789 -0.06382 0.09466
0.39237 0.09761 0.07629
0.22539 -0.02946 0.15833
0.23385 -0.07182 0.10883
0.29622 0.04652 0.17929
0.35907 0.12971 0.14824
0.23744 0.14699 0.38938
0.24894 0.03537 -0.22898
0.23676 0.16320 -0.02898
0.31244 0.10549 -0.08320
-0.03547 -0.01278 0.01314
0.40369 0.13812 0.08854
0.28444 -0.06208 0.15143
-0.16883 -0.01209 -0.07097
0.20433 0.16203 -0.04067
0.29260 0.02388 0.15631
0.26205 0.10976 -0.03056
0.36666 0.11028 -0.13275
0.31145 0.11165 -0.10835
0.40517 0.00803 -0.19956
0.23536 0.11678 -0.04928
0.47460 0.02185 -0.27194
0.31688 0.10199 0.13642
0.31688 0.10199 0.13642
0.33891 0.14103 0.19274
-0.08837 -0.13486 -0.01254
0.09280 0.11172 0.03673
0.26729 0.10987 -0.02433
-0.06170 0.07933 -0.00480
-0.03938 -0.03607 0.01643
-0.03803 0.09474 -0.16279
0.11219 -0.05347 0.08844
0.28263 0.10853 -0.00985
0.35749 0.04447 0.09123
-0.02611 -0.00282 0.01519
0.49743 0.02446 -0.22774
-0.02486 0.09367 -0.14446
0.26318 -0.07650 0.15289
-0.06238 0.08454 -0.00449
0.37706 0.10009 0.08166
0.19552 0.15119 -0.05797
0.03570 -0.07421 0.05407
0.25367 0.11012 -0.03756
0.32668 0.11039 -0.10722
0.27079 -0.07998 0.15029
0.23550 -0.06809 0.09903
0.04213 0.11360 0.06166
0.24252 0.16346 -0.02432
-0.03639 -0.13765 -0.09493
0.21160 0.11759 -0.06210
0.26806 -0.07657 0.15273
-0.07848 0.00013 -0.16417
-0.06050 -0.03326 -0.11153
0.40052 0.10390 0.05832
0.24787 0.11101 -0.04276
0.27638 -0.07801 0.13168
0.26362 0.11067 -0.02819
0.26362 0.11067 -0.02819
0.30013 0.10004 -0.09868
-0.17021 0.00005 -0.07808
-0.15852 -0.00564 -0.07553
-0.14748 -0.00408 -0.08212
-0.03307 0.06351 -0.12397
0.38662 0.09321 0.07250
-0.13986 0.01056 -0.06047
-0.02634 -0.01377 0.01531
0.29208 -0.06064 0.15205
0.19783 -0.11643 -0.24439
0.29723 0.10400 -0.09635
0.26954 -0.02470 0.00294
0.27911 0.10906 -0.01651
0.20977 0.01340 0.08823
-0.00771 0.18112 0.24322
-0.03353 0.06998 -0.14394
0.31698 0.04361 0.27558
0.30576 0.03263 0.16796
0.29120 -0.01773 -0.12527
0.11156 0.05207 -0.13344
-0.02834 -0.14748 -0.09038
0.34791 0.10114 0.11048
0.19620 -0.05081 0.10123
-0.09532 -0.07954 -0.04297
0.28894 -0.00102 0.15793
0.23423 0.11092 -0.05058
-0.04462 -0.01528 -0.12184
0.20785 0.15029 -0.05926
0.19108 -0.03818 0.13224
-0.06500 0.03815 -0.00059
0.07673 -0.06506 0.06944
0.24317 -0.07285 0.11999
0.17805 0.10386 -0.09200
0.37982 -0.00086 -0.05315
0.34903 -0.00741 -0.01390
0.18107 0.11817 0.07342
-0.03939 -0.00220 0.01017
-0.12096 -0.04222 -0.06736
-0.11707 -0.03048 -0.06393
-0.03385 0.07356 -0.14107
0.25886 0.11721 0.17684
0.19786 0.10446 -0.08739
-0.02941 -0.00641 0.02206
-0.12867 0.04949 -0.04715
0.12229 0.08863 0.34734
0.52045 0.02912 -0.26539
-0.09573 -0.11295 -0.06120
-0.16301 -0.10657 0.00655
0.28265 -0.02841 0.14531
0.24390 0.10590 0.16549
0.00654 -0.05217 0.00392
0.24035 -0.05913 0.08948
0.36021 0.10640 0.18381
0.02984 -0.08008 0.04313
0.10319 -0.03324 0.04432
-0.03110 -0.11559 -0.11907
-0.02717 0.08274 -0.14362
0.21456 0.03656 0.09109
-0.12351 0.05356 -0.05386
0.22166 -0.07124 0.08877
0.26259 0.09025 0.16839
-0.08112 0.00243 -0.10992
0.24337 0.15112 -0.03010
0.20181 0.15311 0.00939
-0.07213 0.02808 -0.00901
-0.03364 -0.08048 -0.08277
-0.03364 -0.08048 -0.08277
0.16326 -0.05068 0.11506
0.24332 -0.02971 0.14367
-0.05771 0.08012 -0.00244
-0.10293 -0.10936 -0.04926
0.40858 0.01189 -0.20089
-0.05918 -0.07736 -0.00348
0.28918 0.10368 -0.09481
0.09743 -0.06473 0.07836
-0.06929 -0.00411 -0.15462
0.33898 0.11286 -0.19649
0.09157 0.11572 0.01728
0.19265 0.15024 -0.06924
-0.04989 -0.16088 0.00685
0.00422 -0.08043 0.14039
0.26541 0.10686 0.17014
-0.05128 -0.13597 0.00111
0.24913 -0.10046 0.11098
-0.06908 -0.10562 -0.00480
-0.07879 0.06426 -0.00680
-0.16970 0.01412 -0.06366
0.21734 0.10489 -0.08155
0.41786 0.01393 -0.15104
0.25079 0.11762 0.18294
-0.00121 0.14074 0.00137
-0.08118 0.08727 0.00314
-0.06529 0.02150 -0.00513
-0.13273 0.05496 -0.04447
0.03865 0.09629 -0.07907
0.17912 -0.04684 0.10782
-0.00121 0.14074 0.00137
0.37708 0.12175 -0.16332
0.13794 -0.02787 0.14477
-0.16763 -0.00959 -0.05765
0.27880 -0.02156 0.14575
-0.05042 0.06368 0.00125
-0.07087 -0.14357 0.00652
0.73328 0.04749 -0.55113
0.73328 0.04749 -0.55113
-0.51808 0.03487 0.10884
0.02665 -0.08235 0.02011
0.73706 0.05272 -0.55244
0.23616 0.11064 -0.04893
0.51856 0.02776 -0.37458
0.07921 0.10875 -0.04193
0.61179 0.04887 -0.38827
-0.03184 -0.05237 -0.13045
0.73061 0.05425 -0.55237
-0.14750 0.03047 0.07522
0.03708 0.10002 -0.07817
0.73137 0.05517 -0.55223
0.04255 -0.01196 -0.07551
-0.57618 0.07397 0.38425
0.22953 0.15085 -0.04292
0.72963 0.05459 -0.55270
-0.00923 -0.05475 0.29871
0.02675 0.08055 0.01904
-0.03598 0.08460 -0.15289
-0.01404 0.09683 0.00648
-0.13252 0.05377 -0.04148
-0.05142 0.11585 -0.01185
-0.05138 0.11395 -0.01196
0.34297 0.10172 0.15580
-0.02906 0.05553 0.01208
-0.13146 -0.02188 -0.04073
-0.02315 0.14078 -0.00985
0.00451 -0.08206 0.02046
-0.09586 -0.08117 -0.02026
0.20740 0.01161 0.17468
-0.12978 -0.03454 -0.03986
-0.07094 0.06451 -0.00910
0.10657 -0.05477 0.09206
0.10657 -0.05477 0.09206
0.03204 -0.07511 0.05203
0.17485 -0.04442 0.13016
-0.09684 -0.07680 -0.02091
-0.07342 0.09768 -0.01108
-0.05666 0.09005 -0.00186
-0.03823 0.05057 0.00795
0.02983 0.07938 0.01669
0.73346 0.04955 -0.55131
-0.16015 -0.05885 -0.00305
-0.11777 -0.05070 -0.02938
-0.06135 0.08936 -0.00585
-0.06135 0.08936 -0.00585
-0.14174 -0.02106 -0.04623
-0.12734 -0.04112 -0.03409
0.12410 -0.06528 0.10076
0.23627 0.06585 0.23056
0.03922 -0.08256 0.05524
-0.04941 -0.02817 0.00538
-0.17873 -0.00528 -0.04039
0.02848 -0.07107 0.04984
-0.06946 0.03719 -0.00861
-0.14327 -0.03516 -0.04569
0.09684 -0.05128 0.07720
0.04948 -0.06094 0.05924
0.19981 -0.03856 0.14443
-0.04639 0.07376 0.00465
-0.04391 -0.14351 0.00849
-0.00551 -0.07093 0.01980
0.18038 0.16685 0.04355
0.03750 -0.08366 0.05519
0.26214 0.03063 0.17117
-0.02941 0.09332 -0.15488
-0.07212 -0.08788 -0.00722
-0.02806 0.08753 0.01317
-0.07134 -0.03231 -0.00814
-0.06052 0.02204 -0.00177
0.17885 -0.04667 0.13183
-0.02394 0.00588 0.01501
-0.13426 0.05357 -0.03739
-0.06077 0.03179 -0.00311
0.24449 -0.07603 0.17019
-0.10955 0.10943 -0.02704
-0.02926 0.08682 0.01251
-0.06376 0.07349 -0.00581
-0.04549 0.08544 -0.16629
-0.00947 -0.08713 0.02547
-0.05194 0.08572 0.00541
-0.02266 -0.10565 0.01212
-0.02334 -0.09078 0.02018
0.13585 -0.06497 0.11333
-0.04745 -0.09087 0.00764
-0.07338 -0.13557 -0.00461
0.12431 -0.06692 0.09948
0.15461 -0.02495 -0.01048
0.11574 0.14199 0.13611
0.12788 0.14216 0.12393
0.01766 -0.07698 0.03555
-0.04646 -0.09362 0.01117
-0.04703 0.03863 0.00492
-0.05922 -0.03017 -0.00259
0.22651 -0.03394 0.06192
0.06905 -0.05649 0.07056
0.03556 -0.06274 0.05341
-0.04391 -0.08069 0.01067
-0.04682 -0.01584 0.00599
-0.07192 -0.02334 -0.00819
-0.02367 -0.10061 0.01987
0.00010 -0.17342 -0.08155
-0.07200 0.03439 -0.00967
-0.06308 -0.13961 0.00690
-0.04683 -0.08281 -0.11825
-0.05689 -0.05213 -0.11190
-0.06215 -0.02376 -0.11528
-0.07762 0.05804 -0.14449
-0.03406 -0.11259 -0.12697
0.01529 -0.17281 -0.02791
0.17947 -0.03937 0.13172
-0.04942 -0.03754 -0.11627
-0.01277 -0.14293 -0.13035
0.10441 0.06113 -0.02824
0.01645 -0.17848 -0.02833
0.01645 -0.17848 -0.02833
-0.04595 -0.08627 -0.12189
-0.02385 0.04919 0.01389
-0.11118 0.07713 -0.16722
-0.07449 0.08687 -0.01219
-0.02615 -0.01442 0.01647
0.20335 -0.07348 -0.26488
-0.05846 0.02943 -0.00127
-0.11441 -0.03523 -0.04673
-0.05739 -0.01976 -0.00457
0.25118 -0.02397 0.08815
-0.00749 -0.16002 -0.05209
-0.06288 -0.01815 -0.01064
0.35128 0.11049 -0.10075
0.01342 -0.16564 -0.02212
0.01403 -0.16908 -0.02899
-0.10445 -0.04690 -0.05112
-0.20067 0.01213 -0.07477
-0.11495 -0.03837 -0.05290
0.20603 -0.03789 0.14619
-0.03378 0.07917 -0.14227
0.00388 -0.13089 -0.00070
-0.04308 0.02685 -0.17475
-0.10015 0.04871 -0.02646
-0.00744 -0.08244 0.02896
-0.06269 -0.07691 -0.00324
0.20653 0.06176 0.60413
0.33689 0.03811 -0.12657
-0.10930 0.07933 -0.16854
-0.04387 0.06501 -0.11466
-0.04387 0.06501 -0.11466
0.37251 -0.02919 -0.34799
-0.03436 0.07031 -0.13824
-0.00317 -0.14359 -0.02258
-0.03497 0.07022 -0.14335
-0.02287 -0.13580 0.02155
0.25157 0.03816 0.19185
-0.00552 -0.14709 -0.13443
0.34947 0.05210 -0.40116
0.22721 0.02001 0.19479
-0.00361 -0.15272 -0.04300
-0.04489 0.06756 -0.11673
0.22728 0.01629 0.19813
0.00243 -0.15632 -0.01702
0.26243 0.05087 0.19722
-0.06938 -0.09925 -0.00523
0.00472 -0.14899 -0.02903
0.00334 -0.14934 -0.02830
0.23491 0.02374 0.19627
-0.00517 -0.15222 -0.13535
0.04047 -0.06983 0.34563
-0.03047 0.04145 -0.12046
0.21935 0.01132 0.19629
0.21309 0.00707 0.19471
0.00208 -0.15198 -0.04561
0.24012 0.03526 0.20908
-0.00310 -0.10225 0.00556
-0.00394 -0.10210 0.00605
-0.00097 -0.14356 -0.02719
0.00212 -0.14299 -0.02877
0.24311 0.03584 0.19128
0.25017 0.04423 0.19172
-0.00395 -0.15100 -0.03350
0.35931 0.02935 0.25619
0.35931 0.02935 0.25619
-0.03187 -0.01148 0.02747
-0.03604 0.06007 -0.15426
-0.04023 -0.12136 -0.10263
0.07396 0.07562 -0.05787
-0.04059 0.05433 -0.12849
0.01401 -0.17375 -0.02590
0.19985 0.00862 0.01891
0.31111 -0.01554 0.02987
0.16041 -0.12593 0.17036
0.21945 0.01281 0.19002
0.22465 0.01116 0.19449
-0.03630 0.06163 -0.15048
0.00453 -0.13413 -0.00544
0.16543 -0.13283 0.16659
0.12924 -0.12272 0.24887
0.13025 -0.12345 0.24711
-0.04831 -0.04606 0.04478
-0.03715 -0.12572 -0.09684
0.00726 -0.07559 0.30653
0.14037 -0.14509 0.26644
0.14037 -0.14509 0.26644
0.03419 -0.07844 0.05166
0.03265 0.03901 -0.01729
0.12872 -0.13232 0.29579
0.12632 0.09595 0.04591
-0.03028 -0.12202 -0.06547
0.14538 -0.11842 0.24788
0.15790 -0.13011 0.17231
-0.05561 0.07365 -0.09707
-0.03194 0.04423 0.03002
-0.04626 0.07334 0.00382
-0.03358 0.05977 -0.11374
0.20888 0.00317 0.21366
-0.04885 -0.08357 -0.11518
0.29033 0.08076 0.20634
-0.03816 -0.12049 -0.09859
0.27299 0.10115 0.18662
0.04315 -0.08176 0.05913
-0.01227 0.16784 -0.00835
-0.00029 -0.18524 -0.08065
-0.01174 -0.12937 -0.04137
-0.01295 -0.12955 -0.04081
-0.03321 -0.13214 -0.09950
-0.11291 0.03930 -0.03243
0.16101 -0.08635 0.23260
0.01860 -0.07346 0.06608
-0.02930 0.11752 0.00282
-0.10930 0.03919 -0.03515
-0.03089 -0.00224 0.01669
0.38042 0.03922 0.24303
0.19928 -0.00940 0.20133
-0.05677 0.00970 -0.10302
-0.00931 -0.17409 -0.09125
0.27751 0.07298 0.20494
0.23219 0.00465 0.18122
-0.04384 -0.02038 -0.10741
0.14307 -0.12110 0.24310
0.30451 0.07987 0.21451
0.13809 -0.10680 0.28450
-0.04298 0.07463 -0.10954
0.36784 0.03637 0.24985
0.10677 -0.06096 0.09129
0.18412 0.04508 -0.00298
0.00572 -0.17576 -0.06955
0.32969 0.09247 0.21244
-0.02742 -0.14623 -0.08647
-0.02005 -0.14759 -0.13051
0.15734 0.16397 -0.05754
-0.07491 -0.02976 -0.00992
0.20412 0.01266 0.17794
0.16575 -0.13779 0.16547
0.22171 0.01157 0.19302
0.18668 -0.12266 0.18448
0.18668 -0.12266 0.18448
0.34280 0.09285 0.21406
-0.07058 0.09538 -0.01001
0.22445 0.16268 -0.04130
0.19623 -0.09025 0.16094
0.19039 -0.03207 0.20473
-0.01253 -0.17100 -0.08706
-0.01274 -0.15141 -0.13491
-0.01274 -0.15141 -0.13491
0.20116 0.00430 0.18115
0.16049 -0.10231 0.25237
-0.05225 0.04245 -0.06866
0.18477 0.05479 0.01577
-0.03879 0.07051 -0.01184
0.15705 -0.00117 0.13926
0.18080 0.07568 0.10471
0.22928 0.01454 0.19982
0.14133 -0.11650 0.24796
-0.06865 -0.12106 -0.00403
0.35368 0.08049 0.22247
0.23992 0.04774 0.24510
-0.05255 0.02995 -0.09863
-0.03003 -0.10886 -0.06535
0.33991 0.08680 0.21753
-0.02423 -0.04173 -0.07561
-0.03292 0.06784 0.00903
-0.05472 0.00023 -0.06882
-0.03560 0.08512 -0.01333
-0.03689 0.08543 -0.01268
-0.00527 -0.14805 -0.03960
-0.03090 0.11144 -0.08156
-0.04332 0.08893 -0.05160
-0.03856 -0.10610 -0.12464
0.06020 -0.07835 0.06479
-0.00272 -0.16969 -0.09768
0.04592 -0.08131 0.05080
0.06058 -0.04081 0.01211
-0.04659 -0.07509 -0.08405
-0.05026 -0.08367 -0.10938
-0.04822 0.09162 -0.00037
-0.02490 -0.08080 -0.01699
-0.03101 0.04135 0.03243
-0.01792 0.09273 -0.13740
0.33311 0.09349 0.21438
0.00007 -0.11558 -0.00092
0.17256 -0.06149 0.24298
0.16026 -0.13684 0.16227
-0.03341 0.07233 0.00915
-0.03902 -0.00289 0.03484
0.18355 0.11426 -0.08737
-0.02869 0.08638 0.00686
-0.05767 0.07518 -0.00245
-0.02491 -0.10913 0.02137
-0.01554 0.08630 -0.12549
-0.06562 -0.00314 -0.15163
-0.05598 -0.13427 0.01215
-0.02748 -0.14207 -0.09212
0.22084 0.13110 0.38814
0.27882 0.14359 0.50117
-0.06086 -0.02045 -0.00183
0.05985 -0.07280 0.06304
0.14188 -0.13773 0.16443
0.07746 -0.08233 0.09897
-0.23044 0.05045 -0.08949
0.20716 0.16220 -0.08531
0.30601 -0.00005 -0.28455
0.08755 -0.08049 0.11433
0.26207 -0.05474 0.17785
0.08125 -0.08565 0.10856
0.08125 -0.08565 0.10856
0.13384 -0.09977 0.12092
0.18421 -0.00302 0.24770
0.10845 -0.09498 0.14597
0.46366 0.12674 -0.33180
0.16543 -0.13283 0.16659
0.08929 -0.10522 0.15732
0.20459 0.01282 0.19630
0.18673 -0.12766 0.18384
0.38982 -0.01384 -0.30577
0.23144 0.05012 0.20505
0.10579 -0.12007 0.13408
0.16534 -0.12783 0.16704
-0.03602 0.05008 -0.11971
0.06495 0.05995 0.12254
0.24983 0.04655 0.21243
0.23907 0.03040 0.20140
0.21125 0.01003 0.08904
0.16574 -0.13787 0.16567
0.27488 0.06613 0.24616
0.17888 -0.10973 0.17979
0.07651 -0.07805 0.09277
0.28055 0.10971 -0.01237
0.12698 0.04652 0.44409
0.21973 0.03060 0.22635
0.23147 0.03839 0.21797
0.31058 0.02382 0.14404
0.09855 0.14558 -0.15765
0.11086 -0.09744 0.15273
0.21320 0.03171 0.21134
-0.31179 0.08177 -0.01621
-0.03559 -0.10724 -0.12956
0.06900 0.06492 0.14850
0.25078 0.06243 0.22639
-0.01518 0.13689 -0.18049
0.07076 -0.08409 0.11433
0.15924 -0.13795 0.15883
0.13450 -0.13495 0.15072
-0.04950 -0.13171 0.00858
0.23713 0.04788 0.22271
0.14950 -0.15350 0.15150
0.08198 -0.08005 0.10833
0.27702 0.05324 0.19806
-0.03216 0.08374 -0.14835
0.12994 0.14919 -0.08898
0.20088 0.08818 0.21164
0.19752 0.02961 0.21730
0.09701 0.02292 0.15151
0.23479 0.05024 0.22710
-0.26141 -0.15968 0.01704
0.10806 0.02601 0.13259
0.12559 -0.13360 0.15596
-0.06811 -0.02287 -0.00665
0.12418 -0.10303 0.15459
0.11070 0.14101 -0.15796
0.10790 0.14890 -0.13330
0.10790 0.14890 -0.13330
0.20665 0.07341 0.09458
0.25986 0.11098 -0.03203
0.31637 0.03661 0.24978
0.09093 0.12361 -0.19993
0.09328 0.14133 -0.16796
0.02650 -0.01604 -0.00818
0.29670 0.00283 -0.26886
0.26836 0.08024 0.22631
0.09150 -0.07428 0.12272
0.12179 -0.09876 0.15107
0.28712 0.13466 0.17040
0.15764 -0.13415 0.15983
-0.01642 0.08285 -0.12309
0.09278 0.02304 0.15983
0.25640 0.10809 0.21316
0.10270 -0.00557 0.14210
0.18288 0.01426 0.22013
0.00350 0.16055 -0.17488
0.25654 0.06648 0.23035
0.09050 0.01405 0.16186
0.04028 0.07775 0.10403
0.07396 0.07562 -0.05787
0.33729 0.07436 0.08030
0.16706 -0.05736 0.03265
0.23215 0.16191 -0.08508
0.19740 0.04947 0.22205
0.19740 0.04947 0.22205
0.19740 0.04947 0.22205
-0.04402 0.05718 -0.07272
-0.04402 0.05718 -0.07272
0.29826 0.01099 -0.26184
0.11335 -0.09195 0.13596
0.01601 0.09185 0.06877
0.01601 0.09185 0.06877
0.27187 0.05757 0.18944
0.11767 0.15326 -0.12519
0.16813 0.07729 0.15277
0.19557 0.03296 -0.25780
0.19557 0.03296 -0.25780
0.10815 0.12834 0.12361
0.24814 0.10900 0.21261
0.06377 0.06870 0.09727
0.09088 -0.07215 0.12013
0.20899 0.04325 0.30105
0.22834 0.07120 0.21685
0.28167 0.08178 0.21811
0.26614 0.07650 0.17725
0.25055 0.10241 0.21506
0.13534 0.15051 -0.10126
0.19189 0.05902 0.22156
0.25836 0.09656 0.21626
-0.01226 -0.10736 0.01246
-0.00669 -0.13182 0.00745
0.09831 -0.08107 0.12006
0.09831 -0.08107 0.12006
0.00572 -0.17576 -0.06955
-0.00497 -0.12813 0.00216
0.09839 0.05462 0.15364
0.18373 0.05774 -0.02019
-0.17371 -0.03920 0.01623
0.36541 0.03862 -0.01901
-0.05251 0.08631 -0.00005
-0.03411 -0.01163 0.01996
-0.09415 -0.17865 0.02893
-0.09415 -0.17865 0.02893
-0.03892 -0.01259 0.01933
0.40588 0.00855 -0.16371
-0.03362 0.00340 0.02190
-0.00671 -0.18175 -0.09127
-0.06568 -0.02781 -0.00849
-0.02365 -0.09495 0.02072
-0.03625 -0.14486 0.01549
-0.05123 -0.01584 0.00333
-0.00074 -0.17472 -0.08131
0.07747 -0.08222 0.09881
0.00799 -0.05188 -0.17555
0.44000 0.07269 -0.15574
-0.03132 -0.13028 -0.12106
-0.04657 -0.16299 0.00795
-0.00102 -0.14323 -0.02405
-0.03716 -0.11925 -0.10563
0.01566 -0.07662 -0.21618
-0.06110 -0.02975 -0.11393
0.10762 -0.09503 0.14715
0.11300 -0.10365 0.14882
-0.02871 -0.13493 -0.09643
0.16426 -0.13330 0.16835
-0.09227 -0.07368 -0.11366
-0.01102 -0.14834 -0.13142
-0.00953 -0.14781 -0.13202
0.18583 -0.12814 0.18522
-0.01534 -0.15607 -0.02646
-0.01534 -0.15607 -0.02646
-0.02933 -0.11076 -0.11479
-0.02569 -0.14672 -0.12467
0.10453 -0.13952 0.30293
0.14532 -0.13236 0.13763
0.36062 0.07287 0.23052
-0.08939 -0.02103 -0.05511
0.12738 -0.12454 0.28302
0.00266 -0.16909 -0.09912
-0.00007 -0.13654 -0.01399
-0.00517 -0.15222 -0.13535
-0.01066 -0.09251 0.01184
0.07889 -0.08105 0.11865
0.09801 -0.08638 0.16231
-0.06237 -0.03566 -0.11765
-0.03083 -0.10171 0.03613
-0.10528 -0.01216 -0.04208
-0.02389 -0.13973 -0.09831
-0.02642 -0.13998 -0.09699
0.11768 -0.12100 0.27802
0.16067 -0.10815 0.19916
0.30327 0.03663 0.17004
0.35324 0.04280 0.24885
0.20210 0.08610 0.21643
-0.05673 -0.01581 -0.08888
0.35140 0.03943 0.25555
0.09937 -0.01451 0.14094
-0.06101 0.01835 -0.10481
0.11109 -0.15821 0.25392
-0.03017 0.00039 0.02692
0.29556 0.09528 0.21097
0.07731 -0.08094 0.11381
0.12940 -0.09078 0.12437
-0.05663 -0.02683 -0.06586
-0.01303 -0.20086 0.36866
0.18941 -0.06664 0.20153
0.05906 0.06897 0.01005
0.00824 -0.19398 -0.08909
0.00824 -0.19398 -0.08909
-0.05701 -0.00288 -0.09236
-0.02619 -0.14110 0.02039
0.00382 -0.17786 -0.09655
0.20270 0.00560 0.22233
0.11842 -0.05759 0.14798
-0.05594 0.01950 -0.09690
-0.00745 -0.17682 -0.06029
0.05685 -0.18498 0.31082
0.08811 -0.08676 0.14923
0.03918 -0.08409 0.04523
0.33168 0.09708 0.20884
-0.05078 0.00632 -0.09869
0.24299 0.04053 0.18637
0.00347 0.09483 0.06487
0.00347 0.09483 0.06487
-0.02846 0.00014 0.02377
0.44640 0.07326 -0.17109
-0.06563 0.01051 -0.09227
0.30725 0.09009 0.20671
0.08064 0.06306 0.11403
0.09350 0.09708 0.13074
-0.03347 0.09631 -0.01419
-0.04504 0.07259 -0.10191
-0.02762 0.04359 0.02630
0.10723 -0.06894 0.09305
-0.05384 0.00171 -0.08979
0.23179 0.02895 0.20050
0.21849 0.13535 0.18124
0.00635 -0.14215 -0.00387
-0.28348 -0.01834 0.17082
0.02358 -0.08803 0.05716
0.10643 0.12466 0.12113
-0.01254 -0.14637 -0.12818
-0.01958 -0.14829 -0.12566
0.05019 -0.08481 0.11529
0.09909 -0.09817 0.15277
0.04993 -0.07185 0.10942
0.10924 -0.10553 0.16606
0.01536 -0.08763 0.09059
0.10168 -0.06496 0.13472
0.20276 0.00449 0.18310
0.03737 -0.07414 0.08330
