# .PCD v.7 - Point Cloud Data file format
VERSION .7
FIELDS x y z
SIZE 4 4 4
TYPE F F F
COUNT 1 1 1
WIDTH 802
HEIGHT 1
VIEWPOINT 0 0 0 1 0 0 0
POINTS 802
DATA ascii
-0.01171 -0.07956 0.38960
0.00658 -0.09279 0.27855
0.00090 0.00277 -0.08221
-0.01423 -0.04576 0.36247
-0.00018 -0.00308 -0.05267
0.02343 -0.04790 0.33760
0.01263 -0.01639 0.07599
-0.02865 -0.04231 0.27945
-0.01333 -0.03436 0.20184
-0.02126 0.01073 0.00334
-0.03337 -0.05115 0.34916
0.00034 0.00276 -0.08392
0.00052 0.00271 -0.08367
0.00047 0.00272 -0.08354
0.00053 0.00271 -0.08366
0.00015 0.00287 -0.08179
-0.00132 -0.00288 -0.05548
-0.02119 -0.01953 0.12200
-0.02123 -0.01962 0.11856
-0.00055 0.00240 -0.08267
-0.03434 -0.04157 0.28387
-0.03474 -0.05671 0.43723
-0.01265 -0.04263 0.30394
0.00105 0.00141 -0.06455
-0.01160 0.00411 -0.05583
-0.00383 -0.06871 0.17325
-0.00296 -0.01077 0.02539
0.00052 0.00272 -0.08353
0.00052 0.00272 -0.08353
0.00027 0.00238 -0.08221
-0.00004 0.00280 -0.08278
0.00287 0.00310 -0.07863
0.00189 0.00350 -0.08340
0.00188 0.00351 -0.08341
-0.00134 -0.11304 0.29904
0.01893 -0.00895 0.07947
0.00191 0.00162 -0.07646
0.00060 0.00252 -0.07474
0.01484 -0.01428 0.08255
0.00537 -0.10194 0.29930
-0.00473 -0.10740 0.29931
0.00231 0.00431 -0.07371
0.01350 0.01190 0.05007
-0.00921 -0.09738 0.28958
-0.00862 -0.10105 0.29447
0.00277 -0.09731 0.29592
0.00018 -0.10017 0.30030
0.00413 -0.09375 0.28371
0.03176 -0.06751 1.00000
-0.00922 -0.05329 0.37919
-0.02027 -0.07577 0.40728
0.00004 0.00198 -0.07952
0.00191 0.00321 -0.07927
-0.00800 -0.09686 0.29166
0.00546 -0.01447 0.18019
0.00629 -0.08516 0.30107
-0.00263 0.00167 -0.06173
-0.00772 -0.00657 -0.00802
0.00881 -0.09316 0.30262
-0.02101 0.00729 -0.01134
0.00040 0.00284 -0.07608
-0.01916 0.00584 -0.02857
-0.02055 0.00664 -0.01730
0.00573 -0.08910 0.30134
-0.01856 0.00788 -0.00619
-0.02033 0.00617 -0.02319
-0.02058 0.00643 -0.02115
-0.02019 0.00636 -0.02130
-0.02103 0.00754 -0.00887
-0.02195 0.00916 0.01068
-0.01967 0.00647 -0.02282
-0.01931 0.00568 -0.03001
0.00003 0.00200 -0.07706
-0.00155 0.00286 -0.08047
-0.01072 -0.02003 0.17515
0.00233 -0.00297 0.01003
0.00546 -0.10181 0.29902
-0.00228 -0.03985 0.14856
-0.04451 -0.05570 0.33917
-0.03133 -0.07178 0.35170
-0.00022 0.00211 -0.07332
-0.00551 -0.10841 0.29938
-0.00115 -0.03018 0.19580
0.00270 -0.09584 0.29859
-0.00602 -0.09389 0.29235
-0.00602 -0.09389 0.29235
0.00203 0.00303 -0.07636
0.00038 0.00274 -0.08395
-0.00794 -0.10527 0.29619
-0.00390 -0.11966 0.29166
-0.00261 0.00048 -0.06641
-0.00612 -0.00473 -0.01822
0.01150 -0.07968 0.30234
0.00895 -0.08302 0.30475
0.00547 -0.08723 0.30215
-0.00231 -0.00215 -0.00831
0.00050 0.00272 -0.08355
-0.00404 -0.00542 -0.03719
0.01783 -0.01387 0.08318
0.00050 0.00272 -0.08361
-0.00457 -0.00200 -0.01189
-0.00530 -0.00427 -0.02725
-0.00384 -0.00318 -0.02894
-0.00003 0.00273 -0.08459
-0.00806 -0.00273 0.01121
-0.00743 -0.01049 0.00089
-0.00003 0.00278 -0.08425
-0.00003 0.00198 -0.08019
-0.00010 0.00127 -0.07304
-0.00000 0.00273 -0.08412
-0.00063 0.00279 -0.08300
0.00003 0.00265 -0.08416
-0.00313 -0.00442 -0.03582
-0.00379 -0.00021 -0.01899
-0.00062 0.00277 -0.08340
-0.00790 -0.00715 -0.00387
0.00052 0.00272 -0.08353
-0.01892 -0.02625 0.15855
-0.02207 0.00783 -0.00689
0.00005 0.00265 -0.08411
-0.00130 -0.00578 0.00034
-0.00007 0.00273 -0.08458
0.00039 0.00258 -0.08524
-0.00141 0.00120 -0.07242
-0.00762 -0.00725 -0.00034
-0.00014 0.00087 -0.07158
-0.00148 0.00304 -0.08224
-0.00148 0.00304 -0.08224
-0.00350 -0.00665 -0.02753
-0.00801 -0.00567 -0.01475
-0.00039 0.00316 -0.08180
0.00004 0.00264 -0.08452
0.00007 0.00224 -0.08019
-0.00040 0.00323 -0.08118
-0.00806 -0.00630 -0.00954
-0.01087 -0.00322 -0.00230
-0.01699 0.00571 -0.02856
-0.01698 0.00581 -0.02750
-0.01574 0.00582 -0.03246
-0.00001 0.00285 -0.08414
0.00404 -0.01564 0.01864
0.00007 0.00279 -0.08440
0.00002 0.00276 -0.08421
-0.00007 0.00273 -0.08458
0.00096 0.00139 -0.07442
0.00001 0.00302 -0.08315
0.00006 0.00271 -0.08360
0.00005 0.00294 -0.08321
0.00006 0.00293 -0.08333
0.00005 0.00284 -0.08413
0.00650 -0.00851 0.01682
0.00648 -0.00850 0.01673
0.00005 0.00272 -0.08445
0.00089 0.00155 -0.07525
-0.00078 0.00292 -0.08271
0.00012 0.00265 -0.08438
0.03510 -0.01216 0.31721
0.01208 0.00528 -0.03344
-0.00107 -0.00713 -0.00597
0.00226 -0.00965 0.01934
-0.00032 0.00130 -0.07473
-0.00125 0.00883 -0.06104
0.00034 0.00169 -0.07522
-0.00210 0.00551 -0.06516
0.00004 0.00310 -0.08294
0.00003 0.00164 -0.06777
-0.00033 0.00324 -0.08125
0.00017 0.00266 -0.08418
-0.00280 0.00300 -0.07433
-0.00002 0.00309 -0.08189
-0.00077 0.00421 -0.06287
0.00003 0.00268 -0.08416
0.00045 0.00191 -0.07158
0.00018 0.00048 -0.07297
0.00012 0.00267 -0.08433
-0.00072 0.00364 -0.07326
-0.00002 0.00283 -0.08283
-0.00043 0.00337 -0.08034
-0.04874 0.02364 0.17733
-0.00010 0.00268 -0.08359
0.00008 0.00268 -0.08415
-0.00527 -0.11043 0.29723
-0.00005 0.00330 -0.07726
0.03548 -0.01151 0.29188
-0.00021 0.00034 -0.07332
-0.04699 -0.03757 0.37410
0.00026 0.00252 -0.08339
0.00003 0.00267 -0.08361
-0.00004 0.00269 -0.08474
-0.00274 0.00285 -0.07939
-0.00002 0.00282 -0.08414
-0.00827 0.00449 -0.04622
0.00004 0.00264 -0.08452
-0.00855 -0.03887 0.30102
0.00222 0.00154 -0.06753
0.00003 0.00268 -0.08346
0.00554 -0.09713 0.29940
0.00006 0.00285 -0.08413
0.00010 0.00275 -0.08432
-0.00194 -0.03633 0.15545
0.00005 0.00278 -0.08440
-0.00010 0.00220 -0.07711
0.00030 0.00192 -0.07544
0.00067 0.00414 -0.06406
-0.00006 0.00306 -0.08308
0.00008 0.00306 -0.08168
0.00032 0.00252 -0.08215
-0.00052 0.00277 -0.08093
-0.00025 0.00096 -0.07184
0.00004 0.00269 -0.08281
-0.00502 -0.00533 0.03616
0.00001 0.00280 -0.08431
-0.00061 0.00128 -0.06705
0.00015 0.00270 -0.08437
-0.00050 0.00154 -0.06931
-0.01015 -0.02948 0.13756
-0.00223 0.00308 -0.07316
0.00039 0.00307 -0.07912
-0.00523 -0.00427 0.02122
0.00014 0.00268 -0.08438
-0.00011 0.00322 -0.08048
-0.00151 0.00117 -0.07341
0.00141 0.00305 -0.08083
0.00141 0.00305 -0.08083
-0.00320 -0.00231 -0.04526
0.00010 0.00054 -0.06833
0.00022 0.00292 -0.08372
-0.00144 -0.00088 -0.05793
-0.00009 0.00282 -0.08225
0.00002 0.00279 -0.08413
0.00002 0.00279 -0.08413
-0.00049 0.00077 -0.07259
0.00017 0.00280 -0.08439
0.00002 0.00276 -0.08421
-0.00040 0.00296 -0.08110
-0.00926 -0.01764 0.08191
-0.00004 0.00272 -0.08451
-0.00031 0.00118 -0.07398
0.00026 0.00258 -0.08437
0.00006 0.00188 -0.07972
-0.00004 0.00240 -0.08120
-0.00008 0.00179 -0.07906
-0.00113 -0.00578 -0.01602
-0.00383 -0.11925 0.29427
0.00003 0.00265 -0.08435
0.01280 -0.06153 0.31355
-0.00215 -0.02819 0.20528
-0.00002 0.00319 -0.08208
0.00023 0.00338 -0.08042
-0.00023 0.00225 -0.07853
-0.00274 0.00542 -0.06857
0.00003 0.00290 -0.08180
0.00056 0.00290 -0.07569
-0.00162 -0.00832 -0.02502
0.00242 -0.01036 0.02297
-0.02490 -0.03930 0.23128
-0.00033 0.00186 -0.07644
-0.00679 0.00342 -0.06436
-0.00424 -0.10854 0.29626
-0.00056 0.00152 -0.07368
0.00183 -0.10739 0.29968
0.00004 0.00146 -0.07306
0.00001 0.00268 -0.08325
0.00166 -0.11771 0.30063
0.00423 0.00448 -0.06676
-0.00348 -0.10953 0.29391
-0.00231 0.00444 -0.07271
-0.00069 0.00271 -0.08287
-0.01823 -0.03864 0.29043
-0.00071 0.00271 -0.08235
-0.00529 -0.00599 -0.00955
0.00008 0.00270 -0.08431
0.00495 -0.10562 0.29926
-0.00012 0.00226 -0.07953
-0.00030 0.00324 -0.08121
-0.00298 0.00558 -0.06867
0.00006 0.00266 -0.08412
-0.00157 -0.10194 0.29939
0.00007 0.00267 -0.08390
0.00007 0.00213 -0.08397
0.01147 -0.00277 0.01181
0.00011 0.00277 -0.08439
-0.00103 0.00243 -0.07778
-0.00095 0.00224 -0.07647
-0.00095 0.00224 -0.07647
0.00034 0.00255 -0.08244
-0.00397 -0.11805 0.30047
0.00667 -0.00911 0.00561
0.00000 0.00270 -0.08430
0.00067 0.00257 -0.08524
0.00002 0.00300 -0.08291
-0.00000 0.00167 -0.07947
0.00000 0.00121 -0.07565
-0.00028 -0.00392 -0.04594
-0.00352 0.00158 -0.05778
-0.00227 -0.00816 0.00145
0.00007 0.00269 -0.08438
-0.00109 0.00177 -0.07740
0.00172 -0.00850 0.02239
0.00002 0.00268 -0.08174
-0.00700 -0.00727 -0.00298
-0.00275 -0.00407 -0.00229
0.00007 0.00238 -0.08050
0.00440 -0.04117 0.16641
-0.00005 0.00171 -0.08015
-0.00010 0.00025 -0.06824
0.00267 -0.01073 0.00304
-0.00428 0.00182 -0.05151
-0.00323 -0.01669 0.01538
0.00025 0.00289 -0.08172
-0.00014 0.00198 -0.07674
-0.07441 0.00777 0.21375
0.03237 0.04041 0.33622
0.00133 0.00404 -0.07336
-0.06668 0.01917 0.11762
-0.06315 0.02082 0.13679
-0.05272 0.02223 0.16365
0.00001 0.00276 -0.08431
0.00002 0.00280 -0.08403
-0.00198 0.00475 -0.07291
-0.03878 0.01775 0.11245
-0.00453 -0.04742 0.20348
-0.05379 0.02089 0.16175
0.03592 -0.03953 0.31599
0.03649 -0.04010 0.32022
0.03684 -0.02567 0.31291
0.03445 -0.02420 0.29680
-0.00199 0.00443 -0.07273
0.05432 -0.03142 0.46368
0.04352 -0.01895 0.31709
0.04359 0.00689 0.32328
0.02930 -0.05435 0.32032
0.03331 -0.02214 0.29089
-0.00049 0.00329 -0.08039
0.03402 -0.04581 0.31376
0.00001 0.00278 -0.08440
0.03508 -0.01176 0.31552
0.00196 0.00313 -0.07931
0.00013 0.00269 -0.08437
0.04055 -0.01448 0.31799
-0.00007 0.00297 -0.08333
-0.00027 0.00198 -0.07520
-0.00070 0.00179 -0.07497
0.00010 0.00269 -0.08450
0.00001 0.00261 -0.08120
-0.00015 0.00176 -0.07538
-0.00133 -0.11303 0.29900
-0.00011 0.00280 -0.08308
-0.00062 0.00351 -0.07917
-0.00021 0.00261 -0.07965
0.00348 0.00679 -0.06362
0.00061 0.00361 -0.07372
-0.00106 0.00084 -0.06355
-0.00132 -0.14058 0.35283
0.02265 -0.00087 0.43404
0.02239 0.00127 0.33050
0.01891 -0.00227 0.42455
-0.00022 0.00258 -0.07716
0.00011 0.00265 -0.08431
-0.00230 -0.09491 0.29553
-0.00376 -0.09839 0.31011
-0.00001 0.00277 -0.08299
0.00155 -0.06611 0.30863
-0.03080 -0.04944 0.39069
-0.00415 -0.00619 -0.03444
0.00993 -0.08204 0.31068
0.00212 -0.00621 0.45241
0.00070 0.00303 -0.08321
0.01614 -0.04050 0.31927
-0.00065 0.00318 -0.08126
0.02744 -0.03843 0.32358
-0.01388 -0.00584 0.39701
-0.03930 0.02634 0.20792
-0.00052 0.00417 -0.06571
0.00022 0.00280 -0.08438
-0.00066 0.00525 -0.06650
-0.00049 -0.00165 -0.06107
0.00007 0.00279 -0.08440
-0.00176 0.00461 -0.07511
0.02732 -0.01551 0.32249
0.00270 0.00391 -0.07507
0.02247 -0.01142 0.32899
0.00033 0.00122 -0.07028
0.00109 -0.09570 0.28418
-0.01850 -0.02823 0.17899
-0.00486 -0.09977 0.29880
-0.00510 -0.10446 0.31683
0.00005 0.00271 -0.08429
0.01655 -0.01513 0.31750
0.00011 0.00279 -0.08440
0.00136 0.00343 -0.08092
0.00014 0.00225 -0.08012
-0.00072 0.00276 -0.08286
0.00046 -0.11710 0.29800
-0.01902 -0.02948 0.18392
-0.00065 0.00279 -0.08300
0.00738 -0.01690 0.32115
0.00822 -0.01565 0.30723
0.01281 -0.06507 0.30818
-0.00057 0.00275 -0.08357
-0.00027 0.00286 -0.08179
-0.01376 -0.02234 0.12220
-0.00057 0.00278 -0.08272
-0.00554 0.00484 -0.06598
-0.00049 0.00077 -0.07259
-0.03279 -0.01602 0.32704
0.00003 0.00274 -0.08400
0.00004 0.00048 -0.07061
0.00157 0.00493 -0.07364
0.00265 -0.04438 0.42508
0.00021 0.00271 -0.08211
0.00007 0.00265 -0.08444
0.00862 -0.08271 0.29607
-0.00054 0.00189 -0.06595
-0.00044 0.00198 -0.06865
0.00198 -0.03167 0.29089
0.00009 0.00281 -0.08447
0.01694 0.00189 0.38856
0.02073 -0.01034 0.21961
-0.03452 -0.03189 0.26129
-0.01210 -0.03303 0.29799
-0.02412 -0.02500 0.18570
0.00022 0.00073 -0.07446
-0.00022 0.00154 -0.07332
-0.02638 -0.02069 0.35325
0.00001 0.00013 -0.07004
0.03577 -0.04614 0.33153
0.04352 0.00830 0.33729
-0.00520 -0.02118 0.19286
-0.00027 0.00271 -0.08267
0.02573 -0.05701 0.31854
-0.00037 0.00269 -0.08318
-0.01857 -0.03182 0.29085
-0.02619 -0.03846 0.36061
0.01778 -0.06305 0.31447
0.01784 -0.06315 0.31412
0.01804 -0.05841 0.31220
0.02022 -0.02033 0.28934
0.02953 -0.02309 0.33812
0.01797 -0.05829 0.31354
-0.01815 -0.01702 0.20648
0.02667 -0.06496 0.32021
0.04412 -0.01408 0.34322
-0.00038 0.00269 -0.08318
0.02670 -0.02340 0.32766
-0.01494 -0.01659 0.27807
-0.01874 -0.00405 0.49041
-0.00997 -0.00948 0.06389
0.01023 0.00294 0.14166
0.00282 -0.01795 0.32109
0.03496 -0.03891 0.32092
0.01414 -0.02501 0.32265
-0.00000 0.00233 -0.08141
0.00927 -0.04222 0.43233
-0.01997 -0.00361 0.31901
0.00391 -0.01634 0.28087
0.03470 -0.02447 0.37233
0.00143 -0.10250 0.30214
-0.00724 -0.02801 0.34282
0.03559 -0.03874 0.33906
-0.01327 -0.08371 0.30474
-0.03016 -0.01210 0.19725
0.00344 0.00427 -0.06363
0.03128 -0.02240 0.32869
0.03291 -0.04148 0.33322
0.00256 -0.10982 0.29625
0.02422 -0.06645 0.31896
0.02481 -0.06374 0.31943
0.00322 -0.09925 0.30386
0.02411 -0.04465 0.31926
-0.02055 0.00664 -0.01730
-0.01293 -0.02907 0.17648
-0.00063 0.00258 -0.08162
0.00190 -0.06142 0.30464
0.02203 -0.06186 0.31735
-0.02152 -0.03824 0.23858
0.00772 -0.00031 0.23753
-0.03856 -0.04422 0.33651
0.00132 -0.10047 0.30139
0.02332 -0.04313 0.31910
-0.00021 0.00034 -0.07332
0.04126 -0.01975 0.30903
-0.00953 -0.08577 0.29420
-0.00582 -0.10000 0.29191
-0.00474 -0.10548 0.31284
-0.00657 -0.10368 0.28924
-0.00454 -0.11265 0.29476
-0.00019 -0.01620 0.19924
0.03153 -0.04933 0.32619
0.01987 -0.04676 0.31858
-0.00198 -0.04295 0.19861
0.02783 -0.04454 0.32130
-0.01547 -0.03822 0.29507
0.01715 -0.04439 0.31397
0.01695 -0.04650 0.33967
0.03633 -0.03842 0.36165
0.02598 -0.04526 0.32062
0.02491 -0.04283 0.32086
0.00924 -0.06204 0.47279
0.00362 0.00466 -0.06168
0.01786 -0.04680 0.31426
0.00651 -0.06341 0.31087
0.01631 0.00196 0.32204
-0.03432 -0.04282 0.26702
-0.00191 -0.07731 0.35041
0.04095 -0.02180 0.35959
0.03234 -0.04422 0.33132
-0.00050 0.00273 -0.07956
0.00904 -0.06122 0.31366
0.02282 -0.06087 0.31793
-0.00027 0.00773 0.13967
0.02052 -0.06755 0.33766
0.02151 -0.06410 0.31473
-0.00720 -0.05684 0.41085
0.00375 -0.04689 0.38546
0.03207 -0.04999 0.32447
0.00159 -0.11157 0.29199
0.02644 -0.03437 0.32392
0.00064 -0.05330 0.25740
-0.00902 -0.05548 0.26960
-0.00155 -0.10185 0.29904
-0.00269 0.00285 -0.07921
-0.00002 0.00258 -0.08054
-0.04201 -0.02081 0.38106
-0.03944 -0.02622 0.28849
-0.00191 0.00276 -0.07779
-0.05394 0.01214 0.16805
0.00171 -0.11972 0.29783
0.02669 -0.04923 0.31408
0.00037 0.00261 -0.08543
0.00000 0.00288 -0.08327
-0.00540 -0.03228 0.24774
-0.00008 0.00270 -0.08297
0.03085 -0.02831 0.33062
-0.00913 -0.09222 0.27601
-0.02114 -0.07831 0.36097
0.00017 0.00265 -0.08435
0.00017 0.00265 -0.08435
0.02842 -0.03967 0.31869
0.03397 -0.05796 0.37373
-0.00005 0.00265 -0.08423
0.03143 -0.04128 0.32588
-0.00006 0.00289 -0.08183
0.02253 -0.05129 0.31931
0.00003 0.00265 -0.08417
-0.00019 0.00247 -0.08291
0.00025 0.00432 -0.06533
0.02309 -0.04133 0.32191
0.02313 -0.04097 0.32074
-0.00020 0.00212 -0.07653
0.00002 0.00287 -0.08422
-0.00156 0.00324 -0.08090
0.00004 0.00210 -0.07819
-0.01497 -0.05757 0.41012
0.03421 -0.02988 0.24142
-0.04419 0.02490 0.19137
0.00004 0.00286 -0.08414
-0.00001 0.00285 -0.08381
0.00032 0.00308 -0.06867
0.00006 0.00266 -0.08414
0.00208 0.00427 -0.07734
0.00004 0.00265 -0.08418
0.01756 -0.02770 0.25550
-0.03836 0.01745 0.10851
-0.00053 0.00114 -0.07317
0.00155 -0.11179 0.29706
0.03433 -0.03378 0.33411
0.03017 -0.04980 0.32514
0.02608 -0.03624 0.32306
0.02174 -0.06026 0.31567
0.00290 -0.04391 0.30008
-0.00003 -0.01469 0.18146
0.01052 -0.04787 0.31418
-0.00941 -0.10104 0.29871
0.00486 -0.04821 0.37070
-0.00466 0.00701 -0.06272
0.01278 -0.04432 0.30712
-0.01928 -0.02194 0.18300
0.03078 -0.03507 0.32736
0.02279 -0.01423 0.32953
-0.03478 -0.03032 0.26850
0.00019 0.00280 -0.08439
0.00019 0.00280 -0.08439
0.01676 -0.04247 0.31903
0.02777 -0.04116 0.32077
0.00002 0.00273 -0.08440
0.00030 0.00272 -0.08509
0.00122 0.00108 -0.07236
-0.04208 0.02491 0.20279
-0.02650 -0.01640 0.17423
-0.00682 -0.03618 0.31101
-0.01534 -0.08598 0.31900
-0.00069 0.00327 -0.08213
-0.03426 -0.03846 0.27940
-0.00002 0.00303 -0.08333
0.00054 0.00193 -0.06840
0.03575 -0.04628 0.32930
0.00257 0.01184 0.36224
0.00480 -0.09849 0.29891
0.02686 -0.03913 0.32227
0.00010 0.00265 -0.08427
0.02657 -0.05504 0.33243
0.02278 -0.03168 0.32580
0.00030 0.00209 -0.07979
0.02096 -0.04499 0.32993
0.02939 -0.04110 0.32187
-0.00123 -0.13747 0.34302
-0.01167 -0.06290 0.31637
0.00051 0.00270 -0.08362
-0.00295 -0.02682 0.18841
-0.00210 0.00286 -0.08035
0.00059 -0.14742 0.35454
0.01773 -0.06540 0.31714
0.00093 0.00168 -0.06573
-0.00031 0.00307 -0.08313
0.03064 -0.01675 0.38894
-0.01583 -0.08215 0.30983
-0.03624 -0.01908 0.36759
-0.02779 -0.00125 0.15602
-0.02779 -0.00125 0.15602
0.00201 -0.12105 0.29623
0.00017 0.00269 -0.08467
0.00003 0.00278 -0.08416
-0.00695 -0.01787 0.31150
-0.01526 -0.00385 0.15592
0.00218 -0.14492 0.35746
-0.02403 -0.00159 0.28109
-0.00240 -0.15246 0.36936
-0.00008 -0.00013 -0.06654
-0.02385 -0.03174 0.24111
-0.00027 0.00330 -0.07725
0.02257 0.02283 0.14341
-0.00173 -0.10115 0.30270
-0.07026 0.01029 0.18093
0.00006 0.00283 -0.08414
0.00363 -0.10667 0.30173
-0.02991 -0.00074 0.14697
-0.01044 -0.08352 0.29109
-0.01238 -0.08656 0.31003
0.00022 0.00297 -0.08123
0.01400 -0.06390 0.27602
-0.00027 0.00176 -0.08096
-0.00002 -0.11649 0.29814
0.00033 0.00271 -0.08502
-0.00011 -0.12845 0.29692
-0.00638 -0.09591 0.28900
0.15067 0.06768 0.35170
-0.00200 0.00351 -0.07928
0.00103 -0.11957 0.30077
-0.01522 -0.00363 0.30227
0.00181 -0.00374 0.30697
-0.02974 -0.06245 0.28873
0.04281 -0.01488 0.31395
-0.00378 -0.09671 0.29100
-0.02085 -0.05205 0.25681
-0.02754 -0.07898 0.37011
0.03330 -0.04679 0.31752
0.04228 -0.01158 0.30959
0.00003 0.00268 -0.08360
-0.00315 -0.11964 0.28756
-0.00025 0.00273 -0.08231
0.03429 -0.04902 0.32628
0.00185 -0.10890 0.29891
0.03516 -0.03440 0.31029
-0.00088 -0.00237 -0.05706
-0.04419 0.02490 0.19137
-0.02612 -0.03722 0.25972
-0.02279 -0.06321 0.29864
-0.00282 -0.11645 0.29731
0.00015 0.00281 -0.08446
0.03644 -0.04205 0.28692
-0.00365 -0.03042 0.21348
-0.05175 -0.04988 0.35926
0.00006 0.00282 -0.08443
-0.04648 -0.03452 0.36988
0.00020 0.00268 -0.08477
0.00001 0.00281 -0.08443
0.02491 0.13443 0.50096
0.00001 0.00273 -0.08223
0.00005 0.00264 -0.08499
0.00006 0.00272 -0.08395
0.00031 0.00305 -0.08275
-0.00010 0.00281 -0.08428
0.04010 -0.02877 0.31200
-0.00011 0.00218 -0.07969
-0.00603 -0.03865 0.47909
0.00076 -0.00185 0.30664
-0.00032 0.00248 -0.08460
0.04468 -0.01323 0.34729
0.17752 0.08002 0.53467
-0.01926 0.00530 -0.03330
-0.01873 0.00601 -0.02697
-0.04699 -0.03757 0.37410
-0.01928 0.00552 -0.03161
0.03316 -0.03966 0.32931
0.02398 -0.04374 0.33702
-0.02715 -0.01933 0.35847
0.00018 0.00240 -0.08254
0.02821 -0.04245 0.32465
-0.01523 -0.08416 0.30839
-0.00082 0.00152 -0.07416
-0.00005 0.00212 -0.07593
-0.04063 -0.03610 0.36585
-0.02650 -0.03234 0.22638
-0.04126 -0.04682 0.36825
0.00051 0.00271 -0.08357
-0.05035 -0.04256 0.32951
0.00012 0.00291 -0.08176
-0.03608 -0.03827 0.28440
-0.02744 -0.06013 0.43142
0.02420 0.00540 0.08130
-0.00056 0.00234 -0.08186
0.15309 0.05545 0.50033
-0.03600 -0.03660 0.27523
-0.02547 -0.02939 0.20235
0.00056 0.00089 -0.07608
-0.00473 -0.00564 -0.02726
-0.03550 -0.05703 0.34857
0.03274 -0.04817 0.31223
-0.01669 -0.06200 0.29869
-0.00303 -0.00733 -0.01625
0.00069 -0.00417 -0.03619
0.00039 0.00273 -0.08322
-0.00007 0.00365 -0.06620
0.00449 -0.10155 0.30439
0.00041 0.00273 -0.08329
0.00037 0.00273 -0.08319
0.00045 0.00272 -0.08349
0.00036 0.00274 -0.08315
0.00284 -0.10754 0.29800
-0.00955 -0.08804 0.29131
0.04047 -0.03331 0.27620
0.01388 -0.06131 0.26684
-0.00053 0.10211 0.38769
0.02928 -0.04410 0.32126
0.00023 0.00277 -0.08253
-0.02425 -0.07703 0.38156
0.00146 -0.02738 0.18263
0.00028 0.00274 -0.08300
-0.03841 -0.04057 0.33301
-0.05795 -0.02367 0.33696
-0.03990 -0.05815 0.36627
-0.03159 0.00346 0.10544
0.00036 0.00211 -0.07502
-0.00031 0.00173 -0.06825
0.00023 0.00275 -0.08275
-0.00151 0.00201 -0.07736
-0.00634 -0.00358 0.30306
0.00007 0.00070 -0.07510
-0.03386 0.00144 0.13618
0.00516 -0.01822 0.03178
-0.00040 -0.00123 -0.06447
0.02975 -0.02288 0.16310
-0.00932 -0.08553 0.25555
-0.00122 -0.00013 -0.07078
-0.03256 -0.08921 0.46330
-0.02819 -0.01769 0.09689
0.00094 0.00126 -0.07439
-0.04939 -0.04814 0.34337
-0.00033 0.00181 -0.07906
-0.04757 -0.05015 0.34296
0.01277 -0.06011 0.31251
0.00058 0.00158 -0.07583
0.00019 0.00320 -0.08248
-0.01522 -0.00363 0.30227
-0.00091 -0.07531 0.35827
0.00038 0.00257 -0.08519
0.00057 0.00202 -0.07841
-0.03419 -0.03606 0.27262
0.00051 0.00270 -0.08362
-0.00993 -0.01063 0.01180
-0.03728 -0.00471 0.12983
-0.04270 -0.05051 0.32131
0.00016 0.00239 -0.08373
-0.00745 -0.00267 0.31435
0.02742 -0.02083 0.27438
0.00081 0.00021 -0.05869
0.00062 -0.00028 -0.06425
0.00051 0.00298 -0.08045
0.00052 0.00270 -0.08364
0.00003 0.00278 -0.08311
-0.00488 -0.10344 0.31358
0.00039 0.00261 -0.08546
-0.00169 -0.10428 0.31547
0.02229 -0.05792 0.31623
-0.00009 0.00168 -0.07698
0.00010 0.00210 -0.07856
-0.01163 0.00541 -0.04275
-0.02911 -0.01881 0.16853
-0.00008 0.00266 -0.08387
-0.00316 0.02925 0.16362
-0.00045 0.00280 -0.08298
0.00053 0.00264 -0.08511
-0.00004 0.00324 -0.08167
-0.00796 -0.00623 0.04467
-0.03539 -0.06454 0.31637
0.00024 0.00272 -0.08511
0.01362 -0.03747 0.37101
-0.00002 0.00324 -0.08173
-0.00050 0.00087 -0.07104
0.00039 0.00272 -0.08326
-0.00001 0.00289 -0.08362
