# .PCD v.7 - Point Cloud Data file format
VERSION .7
FIELDS x y z
SIZE 4 4 4
TYPE F F F
COUNT 1 1 1
WIDTH 1876
HEIGHT 1
VIEWPOINT 0 0 0 1 0 0 0
POINTS 1876
DATA ascii
-0.02437 -0.11999 0.15825
0.15550 0.20357 0.02228
-0.01568 -0.02192 0.01415
0.00806 0.15355 -0.16893
0.00928 -0.16453 0.17066
0.00551 -0.14606 0.16523
-0.01730 0.03026 -0.02037
-0.00186 -0.28840 0.24160
-0.14966 -0.26855 0.19357
-0.10415 0.08020 -0.09842
-0.01912 -0.15891 0.17066
-0.02483 0.16090 -0.11809
-0.02616 -0.12412 0.16007
0.00584 -0.13583 0.16187
-0.02724 0.11541 -0.16555
0.06144 0.08493 -0.11391
0.01289 0.10357 -0.14500
0.06349 0.01757 -0.10672
0.05966 0.10367 -0.12015
-0.02835 0.11394 -0.14402
0.00737 0.14636 -0.17196
-0.02917 0.09701 -0.16112
0.06072 0.02649 -0.11273
0.05766 0.09068 -0.11467
0.05257 0.16247 -0.13778
0.05423 0.14562 -0.12682
0.05336 0.15017 -0.13253
-0.11555 0.16884 -0.12718
0.05276 0.14361 -0.14146
0.07218 0.06883 -0.02571
0.02905 -0.14464 0.16290
-0.02696 -0.14806 0.16746
0.05324 0.13436 -0.11447
0.05131 0.15154 -0.12625
0.05041 0.14987 -0.13246
0.05602 -0.14648 0.16209
0.05793 0.04826 -0.09417
-0.10969 0.15586 -0.17488
-0.02344 -0.17491 0.17580
-0.02824 -0.14893 0.16806
-0.10826 0.14800 -0.13797
-0.03240 -0.13257 0.16295
0.01854 -0.14744 0.16399
-0.03021 -0.14698 0.16704
0.04562 -0.14551 0.09660
-0.10899 0.14615 -0.12286
-0.02518 -0.17621 0.18072
-0.10902 0.04393 -0.08205
0.05427 0.04209 -0.10230
0.09093 -0.13297 0.15566
0.01526 -0.12353 0.15708
0.02789 -0.17301 0.17209
-0.03273 -0.14945 0.16826
-0.03904 0.11147 -0.24221
0.02764 -0.17095 0.17147
-0.05909 -0.15258 0.17137
0.02629 -0.16355 0.16822
0.00401 -0.01487 -0.00934
-0.03927 0.12686 -0.20154
0.03098 -0.17369 0.17182
-0.03932 -0.12556 0.16122
0.00770 -0.16352 0.17014
0.04973 -0.13503 0.15570
0.05024 0.02414 -0.11254
-0.03152 -0.17265 0.17573
-0.03846 0.05034 -0.10776
-0.10050 0.06684 -0.11374
0.02069 0.06595 -0.12834
0.01739 0.11398 -0.14988
0.03391 0.15353 -0.20734
-0.09985 0.03453 -0.08675
-0.09952 0.01884 -0.07952
-0.08206 0.08340 -0.10385
-0.04202 0.04881 -0.13770
0.08432 -0.14863 0.16402
-0.04302 0.11723 -0.11866
-0.09071 0.09581 -0.11701
-0.04501 0.10355 -0.16673
-0.09116 0.05400 -0.05595
0.04307 0.07661 -0.10722
0.02734 -0.13490 0.15977
-0.08405 0.08189 -0.10702
-0.08362 0.01832 -0.09162
0.04739 0.07571 -0.07496
-0.04217 -0.16531 0.17410
-0.07696 0.17409 -0.22767
-0.08041 0.12783 -0.11192
-0.07979 0.11191 -0.10666
-0.04672 0.05652 -0.12929
-0.07962 0.10597 -0.10659
-0.04944 -0.12571 0.16190
-0.04862 -0.13387 0.16436
-0.04842 -0.13542 0.16482
-0.05100 -0.12272 0.16088
-0.05100 -0.12273 0.16087
0.03105 -0.16086 0.16777
0.02242 0.11934 -0.13007
0.04231 -0.16122 0.16782
-0.07609 0.07417 -0.10680
0.05740 -0.13371 0.15980
-0.07534 0.05323 -0.08605
0.03558 0.07186 -0.11972
-0.05374 0.06623 -0.06493
0.03222 -0.11926 0.15430
-0.05684 0.11506 -0.11219
-0.05201 -0.12354 0.16147
-0.05278 -0.11940 0.16036
0.03161 0.07098 -0.14160
0.03697 0.04146 -0.00477
-0.05649 0.04908 -0.02676
0.03809 0.03658 -0.01480
-0.05702 0.04652 -0.06702
-0.05715 0.04464 -0.06572
-0.06793 -0.13791 0.16786
-0.05102 -0.15055 0.17009
-0.05099 -0.15062 0.17021
0.03141 -0.16370 0.16883
-0.05180 -0.14892 0.16967
-0.06345 -0.16227 0.17909
-0.06052 0.07789 -0.04981
0.03453 0.05622 -0.05944
-0.05956 0.08317 -0.11491
-0.00317 -0.00456 0.00285
0.03897 -0.12117 0.15513
-0.15484 -0.14955 0.17510
-0.05587 -0.13791 0.16616
-0.04766 0.12281 -0.15096
0.03903 0.04877 0.02018
-0.03344 0.02943 -0.01247
0.19981 -0.27009 0.17663
0.05207 -0.16030 0.16631
0.10977 0.13199 -0.07891
0.00703 0.04419 -0.03431
0.00702 0.04432 -0.03534
0.02706 0.02169 0.01240
-0.05534 -0.15282 0.17103
0.04507 0.02054 -0.01662
0.00585 0.07033 -0.12993
0.04302 -0.11926 0.15417
0.05512 0.14668 -0.13535
-0.05711 -0.14710 0.16876
-0.04621 -0.13620 0.16530
0.06253 0.10196 -0.10812
-0.05810 -0.15022 0.17079
-0.05810 -0.15022 0.17079
0.06591 -0.12623 0.15386
0.07472 0.12623 -0.12954
-0.05841 -0.15123 0.17131
0.07511 0.11370 -0.12550
0.07692 -0.15402 0.16535
0.07692 -0.15402 0.16535
0.05294 -0.13610 0.15870
0.05038 -0.12196 0.15424
-0.16687 -0.26838 0.18963
0.05826 -0.14991 0.16297
0.02979 0.11049 -0.12665
0.05159 -0.12369 0.15493
-0.06434 0.13436 -0.29321
-0.00846 0.05949 -0.05726
-0.04854 -0.13395 0.16471
0.04498 0.03877 -0.04959
0.10993 0.16035 -0.06185
-0.06126 -0.16553 0.17560
0.05474 -0.12205 0.15412
-0.04213 0.14673 -0.23774
-0.08137 0.10352 -0.11065
-0.06696 -0.13492 0.16617
0.06652 -0.15984 0.16559
0.06719 -0.15896 0.16497
-0.07976 0.08665 -0.10718
0.07559 0.16274 -0.14212
-0.06596 0.05368 -0.59751
0.05832 -0.12168 0.15371
0.06954 -0.16085 0.16536
0.15651 0.16497 0.02428
0.05890 -0.12312 0.15396
-0.06537 -0.16613 0.17618
-0.03453 0.11421 -0.20629
-0.00856 -0.04416 0.02119
0.05580 -0.15227 0.15902
0.06187 -0.11834 0.15261
0.06709 -0.13301 0.15742
0.00251 0.01004 -0.10665
-0.06299 -0.15073 0.17469
0.07334 -0.14717 0.16090
0.07342 -0.14725 0.16105
-0.05500 0.05038 -0.04320
0.07088 -0.13198 0.11153
-0.07546 -0.14599 0.16849
-0.06879 -0.16119 0.16616
0.06777 -0.11697 0.15144
-0.11615 0.07785 -0.03590
0.09790 -0.14408 0.15796
-0.07804 0.11160 -0.10677
0.02046 0.09499 -0.14918
-0.07609 -0.16018 0.17493
-0.10179 0.03120 -0.08197
0.10442 0.06999 -0.06152
-0.06517 0.06237 -0.06484
-0.05912 -0.13681 0.16650
0.00297 -0.17526 0.17594
-0.03903 0.07586 -0.15873
-0.11236 0.16112 -0.13215
0.02956 0.06914 -0.13912
-0.15915 0.01012 0.11205
0.16725 0.07961 0.09403
-0.05312 0.11348 -0.11020
-0.00899 -0.14805 0.16655
-0.02039 0.09708 -0.11178
-0.12421 0.16794 -0.21931
0.00974 0.04444 -0.03601
0.07521 0.02098 -0.07773
0.02370 0.01385 -0.00830
-0.08333 -0.16038 0.17540
-0.11044 0.15992 -0.12372
-0.16168 0.02230 0.12650
0.05971 0.01598 -0.10637
0.09384 0.04330 -0.06582
0.09525 -0.14619 0.15937
0.09525 -0.14594 0.15903
-0.04225 0.08946 -0.16102
0.08749 -0.13285 0.15555
0.08741 -0.13253 0.15515
0.10018 -0.16221 0.16427
-0.08957 -0.13773 0.16941
-0.13599 0.10950 -0.14165
0.00575 -0.17297 0.17356
-0.00913 -0.14727 0.16568
0.09827 -0.13510 0.15530
-0.08115 -0.13560 0.16672
0.09313 -0.13131 0.15509
-0.00244 -0.00920 -0.00187
-0.00810 -0.13505 0.16525
0.07205 -0.14451 0.15994
0.18433 -0.03865 0.18717
0.01686 -0.12098 0.15611
-0.07818 -0.15316 0.17268
-0.03640 -0.12488 0.16107
-0.08016 -0.16420 0.17608
-0.07494 -0.13500 0.16669
0.04300 0.04193 -0.05154
-0.10240 0.09987 -0.11683
0.00586 -0.16382 0.17059
0.02469 0.02437 -0.01195
-0.05284 -0.15038 0.16986
-0.09658 0.06378 -0.12238
0.09584 -0.13403 0.15558
-0.08229 -0.16274 0.17634
-0.07436 -0.16389 0.17617
-0.07434 -0.16384 0.17606
-0.07268 -0.16641 0.17652
0.01093 -0.14537 0.16476
-0.01549 -0.12160 0.15843
-0.00742 -0.16189 0.17101
-0.04546 0.14295 -0.16818
-0.03174 0.05375 -0.13557
0.05434 0.14423 -0.10976
0.05356 0.14332 -0.11355
0.03539 -0.12064 0.15479
0.00789 0.14657 -0.15725
0.01335 -0.12121 0.15646
0.04540 -0.13356 0.15861
-0.03318 -0.13297 0.16326
0.04541 -0.13152 0.15733
-0.10938 0.14925 -0.12096
0.02058 -0.14706 0.16372
0.16277 0.02475 0.08822
-0.02409 -0.14781 0.16671
0.16516 0.04728 0.09066
-0.05581 -0.14908 0.16996
0.08572 -0.14593 0.16029
-0.05533 -0.15274 0.17095
-0.16397 0.12365 0.07440
0.17201 -0.09705 0.14392
0.16902 -0.04881 0.12355
-0.10190 0.03623 -0.08770
0.10433 0.10095 -0.07016
0.04712 0.23463 -0.24364
-0.05187 0.07737 -0.13246
-0.07683 0.02515 -0.08328
0.05317 -0.15521 0.15656
-0.07619 0.06472 -0.09995
0.17919 -0.08926 0.16610
0.03826 -0.12279 0.15646
0.05279 0.13547 -0.11511
-0.09616 0.02230 -0.09543
0.00652 -0.17242 0.16746
-0.04209 -0.16257 0.17310
0.02965 -0.12412 0.15648
-0.04229 0.08910 -0.16219
-0.03096 -0.13419 0.16367
-0.10971 0.15369 -0.19748
-0.10856 0.02579 -0.30626
0.02881 -0.13112 0.15837
-0.07723 0.15174 -0.21751
0.18469 -0.26386 0.16864
-0.05725 -0.13469 0.16532
0.00147 -0.16345 0.17040
0.06059 -0.15034 0.16339
-0.01429 -0.15729 0.12140
-0.07618 -0.13374 0.16634
-0.00522 -0.11858 0.15671
-0.03635 -0.14335 0.15834
-0.03066 -0.12424 0.16058
-0.01019 -0.01374 0.01074
-0.15562 -0.02284 0.10614
-0.03066 -0.12424 0.16058
0.02909 -0.14674 0.16353
-0.08980 -0.13680 0.16858
0.09757 0.09741 -0.08521
-0.10771 0.11371 -0.10869
0.06094 -0.13243 0.15623
-0.05569 -0.11967 0.16055
-0.07678 -0.14968 0.17119
-0.04944 0.10004 -0.13407
-0.08961 -0.13978 0.16911
-0.01403 -0.02309 0.01505
-0.00507 -0.12438 0.15862
-0.04220 -0.16508 0.17400
0.00770 -0.11832 0.15580
-0.07410 -0.13682 0.16730
-0.16136 0.03601 0.11141
0.00232 0.10330 -0.11204
0.00068 -0.17754 0.17516
0.00069 -0.17772 0.17536
-0.12261 0.01152 -0.19584
-0.07964 0.12787 -0.16045
0.06108 -0.13638 0.15834
0.05886 0.02697 -0.11831
-0.01505 -0.01906 0.01038
-0.07989 -0.13980 0.16867
-0.07989 -0.13980 0.16867
-0.07964 -0.14872 0.17132
-0.04178 -0.12515 0.16112
0.10102 0.14071 -0.07279
0.04200 -0.15762 0.16627
-0.10710 0.13375 -0.14432
0.04199 -0.15764 0.16619
-0.02624 0.05630 -0.12331
0.03349 0.23556 -0.24311
-0.08586 0.02764 -0.09198
0.06032 0.06893 -0.10408
0.00352 -0.13397 0.16121
0.00563 -0.01033 -0.00372
-0.03564 0.12858 -0.19273
-0.04272 0.05325 -0.13037
0.03176 0.06478 -0.13023
0.04635 0.01916 -0.01425
-0.00898 -0.12125 0.15816
-0.06485 0.02285 -0.02833
-0.06855 -0.15165 0.17163
-0.04735 0.10461 -0.15245
-0.00529 -0.15850 0.16946
-0.04746 -0.16529 0.17439
-0.04406 0.12661 -0.19629
-0.01183 0.11186 -0.10567
0.16138 0.12965 0.05261
-0.06548 -0.16577 0.17587
-0.03539 -0.13619 0.16457
0.01803 0.09530 -0.14617
-0.03187 0.13237 -0.20158
0.09721 0.10172 -0.06588
0.13230 0.12764 -0.02831
-0.02339 0.08491 -0.12680
0.15338 0.14034 0.03207
0.10001 0.04071 -0.05115
-0.08325 0.10007 -0.60261
-0.06103 0.14883 -0.21606
0.00309 0.00160 -0.00987
-0.10935 0.15762 -0.17365
-0.12903 0.19039 -0.22991
-0.00366 0.08014 -0.11252
0.00720 0.15031 -0.21997
0.04748 0.07940 -0.10607
0.00720 0.15031 -0.21997
-0.01225 -0.12464 0.15914
-0.06495 -0.13634 0.16656
-0.10413 0.11594 -0.13067
0.01538 0.04656 -0.05038
-0.04906 0.11509 -0.11752
-0.08233 -0.15347 0.17315
0.01385 -0.02056 0.00414
-0.00546 -0.03371 -0.00297
0.01118 -0.15796 0.16834
0.00175 -0.01250 -0.00644
-0.02365 0.02219 -0.01767
-0.07981 0.15987 -0.13141
0.04234 0.04347 -0.03834
-0.09660 0.02070 -0.08169
-0.03851 0.12591 -0.19534
-0.16841 0.18702 0.07754
-0.16325 -0.00635 0.17738
0.11086 0.12549 -0.08209
-0.10928 0.09618 -0.03543
0.02504 -0.14760 0.16432
-0.04305 0.05200 -0.13276
-0.08689 -0.14025 0.16934
-0.02820 0.05579 -0.10409
0.05044 -0.13354 0.15805
0.04193 -0.12345 0.15536
-0.05674 -0.16446 0.17570
-0.05674 -0.16446 0.17570
-0.08332 -0.16029 0.17543
0.00289 -0.13275 0.16083
0.05156 -0.13384 0.15840
0.04897 -0.11759 0.15315
0.17208 -0.14983 0.15334
0.02065 -0.13230 0.16022
0.03057 -0.12227 0.15613
-0.06105 -0.13572 0.16655
-0.01244 -0.15823 0.16990
-0.01623 -0.12458 0.15946
0.07689 -0.14358 0.15986
-0.05801 -0.14958 0.16975
-0.08559 -0.13922 0.16891
0.03808 -0.13277 0.15792
0.04152 -0.12802 0.15813
-0.04749 -0.13540 0.16482
0.17471 -0.17223 0.16800
-0.00523 -0.01638 -0.08478
-0.01992 -0.12070 0.15875
0.03290 -0.14455 0.16300
-0.05101 0.07348 -0.13313
-0.01272 -0.16169 0.17093
-0.01166 0.06902 -0.09413
-0.06351 0.02486 -0.03602
-0.00771 0.07595 -0.11494
0.03814 0.07839 -0.13150
-0.04592 0.12886 -0.24379
0.08098 0.04098 -0.07155
-0.02168 0.07556 -0.13380
-0.02187 -0.13730 0.16369
-0.02187 -0.13730 0.16369
-0.02593 -0.14836 0.16746
0.03465 0.08094 -0.12898
0.05311 0.01898 -0.08101
-0.10533 0.06534 -0.08845
0.01850 0.03286 -0.04117
0.04180 0.07722 -0.05433
-0.04966 -0.12142 0.16039
0.08932 0.08647 -0.08029
0.01789 -0.11786 0.15471
0.01797 -0.11777 0.15444
0.04439 0.18616 -0.24013
0.04439 0.18616 -0.24013
0.01943 -0.14949 0.16521
-0.03564 -0.16186 0.17250
0.03031 -0.14985 0.16492
0.03535 0.07734 -0.12939
-0.01644 -0.11887 0.15758
-0.01649 -0.11880 0.15741
-0.07463 -0.15097 0.17161
0.02108 0.08381 -0.14663
-0.01287 0.08259 -0.12745
0.01480 -0.02419 0.00411
-0.15635 -0.14206 0.17673
0.02887 -0.13065 0.17834
0.03522 -0.13289 0.15903
0.03650 0.08612 -0.13584
-0.01416 -0.02752 0.00769
-0.03120 -0.13594 0.16438
0.02222 0.08567 -0.14119
0.05230 -0.13246 0.15783
-0.04633 -0.13573 0.16467
0.01532 0.04073 -0.05258
-0.02765 0.07189 -0.14314
0.04264 0.16091 -0.23192
0.01737 -0.02153 0.01108
-0.15797 -0.06078 0.14505
-0.00395 0.03328 -0.07250
-0.03847 -0.16353 0.17312
0.05411 0.09134 -0.11536
-0.04056 0.02349 -0.00534
0.00535 -0.01729 -0.01396
-0.04072 0.02311 -0.00483
-0.01073 -0.12339 0.15851
-0.02017 -0.16312 0.17146
0.00252 -0.01675 -0.01120
0.03490 -0.12036 0.15942
-0.03131 -0.14786 0.16741
-0.05486 -0.14899 0.16993
-0.08025 0.02576 -0.08729
0.04124 -0.15049 0.16398
-0.05332 -0.12207 0.16124
-0.00586 -0.13496 0.16169
-0.08178 -0.13667 0.16702
-0.00890 -0.12381 0.15841
-0.06193 -0.13640 0.16655
-0.06682 0.02364 -0.04370
0.01221 -0.13103 0.15976
-0.00822 -0.11960 0.15709
0.00479 0.04066 -0.04802
-0.00395 -0.16030 0.16922
-0.00395 -0.16021 0.16948
0.04478 0.17935 -0.23883
-0.00576 -0.14983 0.16670
0.04559 -0.17185 0.17098
0.00926 -0.12281 0.15685
-0.04621 -0.16613 0.17509
0.01245 -0.01360 0.00192
-0.08329 -0.15186 0.17271
0.08508 0.18069 -0.23403
-0.07431 0.03188 -0.08588
0.00781 -0.12421 0.15750
0.01229 -0.01314 0.01358
-0.07697 0.08509 -0.10165
0.01413 -0.13486 0.16088
-0.08414 -0.14023 0.16980
0.04525 -0.12250 0.15478
-0.01121 0.02701 -0.02633
-0.15629 -0.10359 0.15911
-0.09189 -0.14036 0.16952
0.01168 -0.01062 0.00183
-0.08006 -0.13977 0.16965
-0.01121 0.02701 -0.02633
0.04635 -0.15049 0.16380
-0.03049 -0.15120 0.16852
-0.06162 -0.16245 0.17412
-0.08264 -0.15030 0.17236
-0.03369 -0.14784 0.17005
0.04522 -0.12256 0.15453
0.04306 -0.12110 0.15499
0.04404 0.17509 -0.23911
-0.06709 0.02572 -0.04661
-0.08020 0.02604 -0.09376
-0.00055 -0.00794 -0.00324
-0.00037 -0.00790 -0.00382
-0.06218 0.02917 -0.03596
0.08084 0.09958 -0.10945
-0.08283 0.02551 -0.09350
0.04499 0.17287 -0.23646
0.04499 0.17287 -0.23646
-0.01316 -0.12139 0.15731
0.01324 -0.11928 0.15541
-0.05347 -0.13738 0.16614
0.09617 0.10415 -0.07019
-0.08183 -0.16436 0.17685
-0.01820 -0.16425 0.17274
0.01870 -0.14552 0.16455
-0.01635 -0.14995 0.16641
0.07128 -0.13584 0.15735
-0.03473 -0.15490 0.17535
0.01198 -0.13278 0.15990
0.01405 -0.13274 0.16011
0.02410 -0.13126 0.15902
-0.03153 0.09305 -0.14790
-0.08861 -0.13929 0.16930
-0.07188 -0.14838 0.17151
0.11347 0.10692 -0.06300
-0.14940 -0.15698 0.16301
-0.07689 -0.16249 0.17460
-0.00585 -0.12441 0.16428
0.09436 0.10786 -0.07138
0.00927 -0.13642 0.16187
-0.03314 0.09590 -0.16659
-0.01243 -0.11875 0.15728
0.01982 0.04588 -0.04481
0.01986 -0.15072 0.16562
0.01197 -0.12198 0.15690
0.01685 0.10040 -0.14643
0.04079 0.17074 -0.23351
-0.01067 0.02419 -0.00612
0.05479 -0.11899 0.15550
0.07278 0.03995 -0.09714
0.08201 0.17393 -0.22305
-0.08964 0.03858 -0.09078
0.09419 0.10921 -0.07623
-0.10812 0.09348 -0.09460
0.02824 -0.14930 0.16397
0.02160 0.02901 -0.02838
-0.11734 0.16403 -0.12932
0.05987 -0.13100 0.15595
-0.07025 0.01902 -0.01712
-0.00661 -0.00314 0.00188
0.06010 -0.13609 0.15873
0.07958 -0.13153 0.15580
-0.03343 -0.15093 0.17013
0.09302 0.11237 -0.07534
0.08513 0.16719 -0.23317
0.04690 -0.12646 0.15490
0.02349 0.10549 -0.13682
0.10335 -0.14898 0.15962
0.10089 0.07562 -0.07132
-0.07711 0.06059 -0.08843
0.03972 0.07181 -0.12799
-0.00756 0.00483 0.00058
0.04197 -0.13667 0.16966
-0.02629 0.06589 -0.13260
0.10281 0.07592 -0.08633
-0.00755 0.04392 -0.03356
0.03112 0.07139 -0.14750
-0.15978 -0.03231 0.13752
0.10846 -0.13429 0.16165
-0.07583 0.04051 -0.08358
0.02573 0.10739 -0.12577
-0.02426 -0.15115 0.16834
-0.02386 -0.14592 0.16686
0.01197 -0.13627 0.16128
0.09199 -0.14645 0.16067
-0.07169 -0.15062 0.17141
0.03670 0.07078 -0.12168
-0.08133 -0.14975 0.17243
-0.06468 0.04021 -0.06246
0.10336 -0.15682 0.24028
-0.02983 0.10351 -0.16093
-0.02783 0.10389 -0.16800
0.05634 0.02215 -0.11064
-0.01985 0.06582 -0.11753
-0.07642 0.03417 0.02687
0.06952 0.02239 -0.10138
-0.01512 0.04492 -0.04812
0.08363 0.16960 -0.16879
-0.05986 -0.13422 0.16550
-0.01389 -0.14875 0.16724
-0.02152 -0.16237 0.17272
-0.07487 -0.13830 0.16769
0.04195 0.15729 -0.22656
0.04195 0.15729 -0.22656
0.08094 0.05521 -0.08358
0.01569 -0.14692 0.16465
0.10353 -0.13510 0.15524
0.07066 0.02192 -0.09091
0.01760 -0.11910 0.15588
-0.04155 0.02154 -0.00570
-0.00779 0.02330 -0.02588
-0.09015 0.01847 -0.09131
-0.05307 0.02135 -0.00952
-0.00809 0.10851 -0.10925
0.04518 -0.12266 0.15473
0.09918 0.13971 -0.07959
0.06232 0.02759 -0.08333
-0.00884 0.04512 -0.04013
-0.08875 0.01295 -0.08059
-0.08052 0.02100 -0.08619
0.01585 0.10909 -0.15275
0.04033 0.15579 -0.22658
0.04221 0.15691 -0.21923
0.08375 0.15805 -0.22496
0.02232 0.02763 -0.02719
-0.05511 0.04403 -0.06452
-0.08972 -0.13713 0.16839
0.05934 0.03042 -0.10432
-0.08690 0.02050 -0.08837
-0.08690 0.02049 -0.08863
-0.17786 0.10910 0.14009
0.08492 0.16719 -0.23320
0.10008 0.07406 -0.06863
-0.01042 0.10996 -0.10857
0.09217 0.13941 -0.07936
-0.09479 0.02084 -0.08747
-0.03264 0.06381 -0.13215
-0.10867 0.10327 -0.09730
0.06595 -0.12133 0.15363
0.06598 0.02685 -0.10779
0.02867 -0.12251 0.15592
-0.01554 0.06481 -0.10224
0.03399 0.06929 -0.11557
-0.00088 0.02140 -0.02321
-0.02360 -0.16490 0.17314
0.09408 0.05748 -0.06436
0.03597 0.03922 -0.01283
0.06861 0.02658 -0.10078
-0.05901 -0.13525 0.16564
0.00789 -0.12416 0.15771
0.06484 0.02505 -0.10710
0.03785 0.15418 -0.22283
0.03785 0.15418 -0.22283
0.06886 -0.14974 0.16221
0.07139 0.02259 -0.07834
0.03879 -0.12120 0.15459
0.09868 0.17498 -0.09971
0.03204 0.06902 -0.12179
-0.01935 0.11175 -0.11217
0.00404 -0.12426 0.15775
0.03840 0.16436 -0.14833
0.03753 0.06738 -0.04711
0.03818 0.16288 -0.16033
-0.08982 -0.13395 0.16756
-0.07866 0.04391 -0.08980
0.05401 0.02291 -0.11341
0.03576 0.06875 -0.11399
0.20766 0.17824 0.23146
0.03467 0.11540 -0.14327
-0.09188 0.02945 -0.08964
0.03002 0.06832 -0.12915
0.07940 0.02356 -0.07262
0.01164 -0.16021 0.14895
0.05763 0.03965 -0.09321
-0.08331 0.01186 -0.06555
-0.03085 0.11056 -0.16240
-0.08747 0.03080 -0.09058
0.03584 0.15229 -0.22118
0.03830 -0.17692 0.17277
0.04172 -0.17601 0.17280
0.03987 -0.17576 0.17251
0.03368 -0.17640 0.17281
0.03102 -0.17362 0.17193
0.00923 -0.12285 0.15705
0.10233 0.14447 -0.07693
0.08928 0.07119 -0.07024
0.03518 0.07993 -0.13729
-0.01575 -0.17860 0.17690
0.08103 0.12345 -0.10242
0.02334 -0.17592 0.17325
-0.08196 0.02858 -0.09153
-0.03041 0.11217 -0.17096
-0.03142 -0.17507 0.17660
0.00122 -0.15907 0.16932
0.07880 0.12276 -0.12705
0.03898 0.15322 -0.21157
0.03898 0.15322 -0.21157
0.09609 0.17193 -0.10265
0.03175 -0.12067 0.15424
-0.01331 -0.17807 0.17633
0.05277 -0.17028 0.16987
-0.01587 0.11971 -0.10876
-0.00347 -0.17215 0.17394
0.07507 0.02079 -0.07831
0.04766 -0.16345 0.16815
-0.01005 0.02177 -0.02410
-0.06387 -0.13762 0.16711
0.08265 0.16408 -0.14623
-0.07897 0.11760 -0.11559
0.09455 0.16969 -0.10550
0.06899 0.02623 -0.10121
0.00049 -0.17434 0.17495
0.00049 -0.17434 0.17495
0.07776 -0.15970 0.16494
-0.00359 -0.17488 0.17501
0.08141 0.16343 -0.14069
0.08174 0.16303 -0.14169
0.00753 -0.17305 0.17221
0.09406 -0.15781 0.16310
0.00710 -0.17365 0.17253
0.09202 0.16848 -0.10120
0.06683 0.12829 -0.12346
0.10139 -0.15741 0.16257
0.09867 0.07068 -0.07099
0.03004 -0.17386 0.17232
-0.00301 -0.12276 0.15824
-0.01362 -0.17210 0.17431
-0.03327 0.14624 -0.20622
0.03004 -0.17386 0.17232
0.04440 -0.17087 0.17037
0.09979 0.13579 -0.07739
-0.07179 0.02806 -0.07384
0.01643 -0.17738 0.17425
0.07611 0.16019 -0.13160
0.09450 0.16605 -0.09279
0.09438 0.16639 -0.09058
-0.01352 0.02066 -0.03102
-0.07908 0.04150 -0.08756
0.07843 0.15813 -0.14493
-0.02776 -0.17253 0.17560
-0.02777 -0.17250 0.17554
0.03369 -0.17641 0.17288
-0.09515 0.02839 -0.08936
-0.07251 0.01872 -0.08268
0.08486 0.14047 -0.09268
0.00777 -0.03925 -0.00311
0.07788 0.13720 -0.12665
0.00777 -0.03925 -0.00311
0.10612 0.06194 -0.29544
0.03210 0.06372 -0.13658
-0.07992 0.05133 -0.08323
0.08740 0.14278 -0.08731
0.09770 0.06760 -0.09299
0.08983 0.06511 -0.07088
0.08228 0.14168 -0.12876
0.04490 -0.16082 0.16763
0.10114 0.05371 -0.06696
0.04487 -0.16072 0.16746
0.07924 0.15603 -0.13399
-0.07525 0.01427 -0.06493
0.05072 0.03119 -0.11124
0.00868 0.13709 -0.15451
0.10128 0.14989 -0.07792
0.09859 0.06464 -0.06705
-0.00843 0.05144 -0.05044
0.04997 -0.15848 0.16578
0.02731 -0.12082 0.15539
0.09874 0.16462 -0.04429
0.07079 0.02852 -0.09836
-0.08748 0.02901 -0.09257
0.03091 0.10793 -0.14115
0.08164 0.02931 -0.09143
0.08426 0.06189 -0.07132
-0.01491 -0.16481 0.17250
0.02704 0.01679 -0.01212
0.07915 0.15234 -0.12995
-0.03110 0.13325 -0.22710
-0.01043 0.05244 -0.05550
0.06774 -0.15783 0.16373
-0.04499 0.04316 -0.00706
-0.02743 -0.15929 0.16072
0.03051 0.08380 -0.13872
-0.02123 -0.16392 0.17225
-0.01493 -0.16480 0.17205
0.08605 -0.15841 0.16406
-0.09195 0.01668 -0.09163
0.09366 0.11419 -0.07840
-0.03222 -0.16384 0.17309
-0.03979 -0.16439 0.17375
-0.00451 -0.13403 0.16160
-0.00762 -0.16183 0.17083
0.10133 0.05706 -0.06774
-0.05637 -0.16577 0.17523
-0.05699 -0.13922 0.16683
-0.03267 -0.12437 0.16003
-0.07339 -0.15132 0.17175
0.10325 0.05498 -0.35413
0.01581 -0.02181 0.01287
0.01732 -0.13142 0.15930
-0.01863 -0.12372 0.15916
0.09235 0.04923 -0.04774
-0.14349 -0.27303 0.18870
-0.07851 -0.13554 0.16886
-0.00766 0.00910 -0.00600
-0.04495 -0.16281 0.17369
-0.06762 0.02357 -0.04501
-0.02310 0.04534 -0.04230
-0.03240 0.05008 -0.13384
-0.00818 -0.13455 0.16172
0.06028 -0.14993 0.16166
0.06028 -0.14993 0.16166
0.01876 -0.03236 -0.04492
0.04649 -0.14719 0.16293
0.07017 -0.14779 0.15674
0.01410 -0.11810 0.15519
-0.04618 0.03922 -0.00767
0.02445 0.01716 -0.01015
-0.01608 0.11468 -0.11382
0.07985 0.11178 -0.13257
0.04596 0.06482 -0.07379
-0.02392 -0.15902 0.17091
0.08228 0.06474 -0.11788
0.04097 0.15853 -0.23001
-0.08705 -0.13698 0.16812
-0.01129 -0.01525 0.00998
-0.03139 0.06714 -0.14323
0.04444 0.11476 -0.13456
0.07942 -0.14661 0.16021
0.00566 -0.02170 -0.00403
-0.00587 -0.13514 0.16170
0.08220 0.03628 -0.08255
0.05043 -0.12199 0.15430
0.09671 -0.14496 0.15885
0.06903 -0.13426 0.15736
0.05743 0.10622 -0.12590
0.07111 -0.11781 0.15153
0.02174 -0.15970 0.16796
-0.01576 -0.14557 0.16610
0.06879 -0.14962 0.16205
0.00255 -0.00034 -0.00189
-0.03176 0.05327 -0.13661
0.01757 -0.13728 0.16119
0.03201 -0.13695 0.16018
0.03610 -0.17368 0.17160
0.06903 -0.13426 0.15736
-0.01575 -0.14559 0.16614
-0.02301 0.06450 -0.06372
0.08572 -0.14593 0.16029
-0.04739 -0.16552 0.17475
0.00134 0.10672 -0.12741
0.04917 -0.14408 0.16142
-0.02088 -0.13857 0.16420
-0.07678 0.03702 -0.08628
0.08880 -0.14512 0.15979
0.06659 -0.13218 0.15630
0.05767 -0.15839 0.16551
-0.03545 0.08228 -0.15811
0.04539 0.18690 -0.23745
0.04406 -0.13077 0.15728
0.04698 -0.13066 0.15729
0.01354 0.00108 -0.00102
0.02252 -0.13361 0.15961
-0.08006 0.02289 -0.00226
-0.01744 0.06554 -0.09849
-0.02345 0.14014 -0.19568
-0.01483 -0.14593 0.16613
0.02763 -0.17105 0.17139
-0.07360 -0.13328 0.16603
-0.07360 -0.13328 0.16603
0.01299 -0.13229 0.15943
-0.06356 -0.16169 0.17397
0.03641 -0.13250 0.15848
0.05360 -0.13070 0.15685
-0.07339 -0.14845 0.17062
-0.03273 -0.16113 0.17183
0.05286 -0.14852 0.16273
-0.01446 0.06916 -0.11194
-0.10717 0.14293 -0.12877
-0.07022 -0.14818 0.17050
-0.07745 0.05364 -0.08320
0.09998 -0.15631 0.16263
-0.01337 -0.17785 0.17603
0.01192 -0.13625 0.16123
0.09331 -0.13515 0.15965
0.08363 0.16960 -0.16879
0.04640 -0.14722 0.16324
-0.12699 0.06203 -0.20085
0.07699 -0.14362 0.16014
0.06902 -0.14322 0.15555
0.02836 0.07343 -0.13958
0.02423 -0.14919 0.16468
-0.01095 0.11002 -0.10751
0.05337 -0.13213 0.15632
-0.02458 -0.17500 0.17610
-0.06559 -0.16013 0.17411
-0.07611 -0.13812 0.16716
-0.07851 -0.16032 0.17485
0.05532 -0.12025 0.15332
-0.03598 -0.11910 0.15896
-0.01789 0.07319 -0.13211
-0.01099 -0.15097 0.16685
-0.01572 -0.14707 0.16636
0.03018 -0.14727 0.16378
-0.01086 -0.15145 0.16805
0.01261 -0.13720 0.16067
-0.03600 -0.11910 0.15873
-0.04200 -0.11932 0.15928
-0.02447 0.07615 -0.14632
-0.05932 -0.16312 0.17349
0.02091 -0.13644 0.16061
-0.02873 0.10462 -0.15642
0.07096 -0.16103 0.16473
0.00789 -0.14864 0.16629
0.04465 0.16060 -0.20109
0.06226 0.02637 -0.11128
-0.08235 -0.15349 0.17318
-0.02935 -0.15126 0.16886
-0.01980 0.10695 -0.11268
-0.01980 0.10695 -0.11266
-0.00764 -0.16181 0.17074
-0.02766 -0.11892 0.15845
-0.01038 -0.02312 0.00319
-0.02220 0.10495 -0.11624
-0.01218 -0.02491 0.00830
0.10096 0.09235 -0.06995
0.00352 -0.00235 -0.00547
-0.02692 -0.15011 0.16749
-0.00683 -0.15980 0.17013
-0.00884 0.04512 -0.04013
0.10828 -0.13551 0.15500
-0.01086 -0.02631 0.00304
0.01224 -0.02537 0.00044
-0.05724 -0.13321 0.16487
0.00999 -0.14580 0.16466
0.00993 -0.14587 0.16479
-0.01607 -0.02899 0.01231
-0.01617 -0.02918 0.01234
-0.00158 0.08385 -0.13403
0.00057 -0.02718 -0.00449
-0.06903 -0.14884 0.17130
-0.06902 -0.14885 0.17112
-0.01662 -0.14597 0.16651
0.07898 -0.13229 0.15446
0.10348 -0.13502 0.15500
0.10680 -0.13021 0.15374
-0.02099 0.08370 -0.14269
-0.01730 -0.12085 0.15830
-0.00567 -0.14645 0.16532
0.01664 -0.03122 0.00707
0.02275 -0.14621 0.16405
0.06055 0.10492 -0.12117
-0.00488 -0.14829 0.16630
-0.00428 -0.17404 0.17475
-0.05670 -0.15105 0.17026
-0.00461 -0.15151 0.16708
-0.01369 -0.02531 0.01251
-0.02447 -0.13526 0.16331
-0.00701 -0.14525 0.16548
-0.00578 -0.11791 0.14499
-0.00578 -0.11791 0.14499
-0.00510 -0.12420 0.15824
-0.05279 -0.11941 0.16029
0.09697 -0.13168 0.15384
0.09395 -0.13411 0.15594
0.00574 -0.04158 -0.00223
0.05147 0.01918 -0.08417
-0.03008 -0.14733 0.16766
0.09696 -0.13164 0.15378
0.04983 0.02029 -0.09174
-0.00807 0.09857 -0.11350
0.00694 0.14698 -0.15155
-0.04615 -0.14852 0.16961
0.00661 -0.00382 -0.00421
0.09710 -0.13390 0.15476
-0.08710 -0.14027 0.16929
0.09426 -0.13219 0.15553
0.05175 0.01777 -0.07983
-0.04843 -0.12005 -0.00290
0.09719 -0.13391 0.15491
0.00695 -0.00158 -0.00022
-0.04489 -0.14750 0.16895
0.01164 -0.00783 0.00399
-0.08001 -0.13394 0.16690
-0.01234 -0.01838 0.01339
-0.02349 -0.13581 0.16338
0.02544 -0.14427 0.16300
-0.02100 0.06446 -0.13095
0.04512 0.15973 -0.20299
-0.05063 -0.11934 0.16081
0.06337 -0.12173 0.15347
-0.02390 -0.14810 0.16744
0.04161 0.05136 -0.06992
0.00384 -0.13285 0.16068
-0.00075 -0.16020 0.16984
-0.01067 -0.17526 0.17543
0.05149 0.02014 -0.03396
-0.01317 0.10934 -0.10728
0.00886 -0.00924 0.00227
-0.04699 -0.13644 0.16539
0.02064 -0.17643 0.17285
-0.00263 -0.01368 0.05884
-0.08707 -0.13698 0.16815
-0.07804 0.03186 -0.08543
0.06968 -0.15810 0.16467
-0.04614 -0.15079 0.16999
-0.04528 -0.13523 0.16468
0.09719 -0.15927 0.16373
-0.00951 0.04691 -0.05104
-0.01052 -0.01924 0.00928
-0.04489 -0.14911 0.16792
-0.06405 -0.13432 0.16570
-0.01047 -0.02314 0.00313
0.04260 -0.13197 0.15816
0.04306 -0.17561 0.17191
0.04445 -0.17346 0.17129
-0.04206 -0.13482 0.16398
-0.03351 -0.16522 0.17365
-0.00989 -0.01560 0.00471
-0.03150 -0.17237 0.17509
-0.00350 -0.17199 0.17370
0.07558 -0.13105 0.15508
0.00167 -0.16358 0.17140
-0.06123 -0.16552 0.17556
-0.00693 -0.13416 0.16133
0.10597 -0.13177 0.15280
0.03517 0.02337 -0.01130
0.07207 -0.12297 0.15655
-0.00940 -0.01852 0.00272
0.07364 -0.14828 0.16181
0.02842 -0.13229 0.15903
0.07061 -0.12155 0.15332
0.07049 -0.13040 0.14711
0.02727 -0.13219 0.15964
0.01021 -0.00469 0.00064
-0.02336 -0.17527 0.17658
0.07108 -0.13408 0.15728
0.02228 0.12508 -0.12562
0.01310 0.15148 -0.13640
-0.03954 -0.14847 0.16862
0.06914 -0.12247 0.15333
0.07028 -0.13591 0.15785
-0.01219 -0.12474 0.15933
0.06971 -0.14463 0.15971
-0.00837 -0.04019 0.00436
0.06793 -0.13517 0.15774
0.02089 -0.13152 0.15901
-0.03233 -0.16385 0.17275
0.06953 -0.14202 0.17356
0.00872 -0.12070 0.15748
0.06438 -0.12020 0.15311
0.02061 -0.13558 0.15950
0.05919 -0.14096 0.14516
0.06331 -0.12163 0.15301
-0.05725 -0.13323 0.16522
-0.00055 -0.15946 0.16939
0.06378 -0.13020 0.15635
-0.03955 -0.12225 0.16013
0.06190 -0.13116 0.15659
0.05150 -0.14513 0.16172
0.06110 -0.13420 0.15800
-0.07763 0.04269 -0.08614
0.06110 -0.13645 0.15819
0.00893 -0.14592 0.16449
0.06098 -0.14370 0.16093
0.05831 -0.12158 0.15383
-0.06726 0.14845 -0.21644
0.17478 0.09144 0.12087
0.05806 -0.14825 0.16231
0.04794 -0.13592 0.15896
0.05521 -0.12080 0.15366
0.05521 -0.12080 0.15366
-0.07463 0.04905 -0.08071
-0.03914 -0.11898 0.15916
0.02968 -0.12412 0.15628
0.02968 -0.12412 0.15628
0.05716 0.10637 -0.12518
0.00779 -0.12284 0.15718
-0.02537 -0.13847 0.16456
0.04341 -0.12216 0.15479
-0.02388 -0.15918 0.17129
0.05247 -0.13394 0.15808
0.05325 -0.14804 0.16267
0.08279 0.18897 -0.25264
-0.03751 -0.14596 0.16776
-0.08966 -0.13712 0.16986
0.01392 -0.03417 0.00510
0.01934 0.03182 -0.03633
0.08288 0.02769 -0.09153
0.00507 -0.02447 -0.00555
-0.01075 -0.15128 0.16759
-0.01096 -0.12000 0.15757
-0.01096 -0.12000 0.15757
-0.03742 -0.14514 0.16625
0.00854 -0.14485 0.16440
0.06649 -0.16282 0.16651
0.00415 -0.12476 0.15911
0.00313 -0.00031 -0.17375
0.01367 -0.02242 0.00458
0.01367 -0.02242 0.00458
-0.00330 -0.17763 0.17531
0.01240 -0.02559 0.00037
0.01263 -0.03740 0.00587
0.01426 -0.03283 0.00489
0.03348 -0.15035 0.16515
0.00044 -0.17188 0.17346
-0.00168 -0.02483 0.12742
0.02184 0.01157 -0.00623
0.03283 -0.13500 0.15914
-0.00737 -0.00679 0.00039
0.01473 -0.01580 0.01323
0.00357 -0.14955 0.16612
-0.03590 -0.13700 0.16403
-0.03596 -0.12040 0.15939
0.00792 -0.12406 0.15758
0.01206 -0.13282 0.15960
0.00648 -0.17340 0.17466
0.00690 -0.11884 0.15637
0.04486 0.15490 -0.22275
0.02426 -0.14584 0.16335
0.03745 0.09024 -0.12115
0.02275 -0.14448 0.16326
-0.07631 0.03191 -0.07901
-0.02847 0.10711 -0.17161
0.04108 -0.12011 0.15476
-0.03361 -0.12265 0.15968
-0.03371 -0.12208 0.15839
0.03423 -0.12372 0.15506
0.04162 -0.13396 0.15859
0.07966 -0.13240 0.15791
0.00398 -0.13552 0.16161
0.00737 -0.17772 0.17455
-0.03364 -0.16375 0.17329
0.03898 -0.12007 0.15501
-0.01542 -0.12851 0.17849
0.03851 0.04229 -0.00724
0.01857 -0.02856 0.01191
0.01552 0.00480 -0.00375
-0.08017 0.05103 -0.09658
-0.01526 -0.13296 0.16141
-0.07324 -0.16293 0.17582
-0.00580 -0.00964 -0.00048
-0.01443 -0.17755 0.17667
-0.08806 0.08063 -0.55071
-0.08087 -0.16079 0.17588
-0.06020 -0.13906 0.16738
-0.06075 -0.16387 0.17522
-0.01155 0.01882 -0.02833
-0.03223 -0.16387 0.17304
0.06377 -0.13332 0.15691
-0.00393 0.03333 -0.07262
0.06386 -0.13334 0.15705
0.05615 -0.12131 0.15644
-0.08438 -0.13986 0.16914
-0.03694 -0.13849 0.16753
-0.01061 0.10832 -0.10854
-0.03994 -0.16050 0.17259
-0.03298 -0.13798 0.16453
-0.08229 -0.14829 0.17221
0.05888 0.02421 -0.11278
0.00906 -0.11935 0.15465
-0.00879 0.00872 -0.01348
-0.01578 0.03766 -0.04024
-0.05054 -0.12348 0.16095
0.00796 -0.02245 -0.00349
-0.07983 0.05274 -0.10091
-0.01117 -0.01968 0.00914
-0.15020 -0.23581 0.19879
0.07293 -0.14419 0.16016
-0.00870 -0.01046 0.00327
-0.08443 -0.15321 0.17310
0.00941 -0.13210 0.16022
0.06662 -0.13397 0.15661
-0.08366 -0.15118 0.17236
0.07442 -0.14599 0.16128
-0.07879 0.01326 -0.06595
0.00826 -0.00701 0.00013
-0.06238 -0.13423 0.16506
-0.07625 0.03399 -0.07216
0.05165 -0.17185 0.16990
-0.06343 -0.16434 0.17551
0.05139 0.07868 -0.13417
0.01003 -0.01203 0.00102
-0.00528 -0.13802 0.16289
-0.07006 -0.15296 0.17234
-0.07617 -0.13373 0.16642
0.00240 -0.13159 0.16001
-0.00504 -0.12430 0.15849
-0.04222 -0.13485 0.16346
0.05325 -0.13264 0.15672
-0.01100 -0.14856 0.16661
0.08353 -0.14557 0.15956
-0.04697 -0.13648 0.16526
0.03239 -0.11917 0.15433
0.04290 -0.11924 0.15379
-0.05386 -0.14894 0.16974
0.05179 -0.14910 0.16313
0.09446 -0.13214 0.15568
0.06971 -0.16267 0.16716
0.00061 -0.17425 0.17422
0.04526 -0.11801 0.15344
-0.04489 -0.14911 0.16792
0.10233 -0.12915 0.14424
0.07332 -0.14632 0.16061
-0.11082 0.16356 -0.13367
-0.00947 0.00196 0.00260
0.06436 -0.12336 0.15389
0.06434 -0.12331 0.15374
0.06363 -0.12991 0.15559
0.06702 -0.12215 0.15289
0.05355 -0.13066 0.15673
-0.05475 -0.15189 0.17041
0.05017 -0.13150 0.15727
0.00835 -0.01149 0.00023
-0.05113 -0.12069 0.16001
-0.02363 -0.16486 0.17276
0.05048 -0.14828 0.16264
-0.08286 0.02882 -0.08998
0.00672 -0.16247 0.17011
0.04191 -0.13615 0.15950
0.01564 -0.02355 0.00716
0.00128 -0.00861 -0.00615
-0.02892 -0.12353 0.15925
0.06816 -0.12291 0.15351
-0.01510 0.11414 -0.11777
0.01742 -0.14571 0.16384
0.02925 -0.19449 0.34208
0.01745 -0.14574 0.16392
-0.01796 0.06360 -0.10363
-0.00511 0.07234 -0.09108
0.02307 0.00897 -0.77744
0.05396 -0.14410 0.16122
0.03711 0.11633 -0.14592
-0.02766 -0.11889 0.15837
-0.10561 0.11177 -0.10930
-0.07479 -0.13512 0.16686
-0.08748 0.03082 -0.09080
0.07348 -0.14967 0.16179
-0.12870 0.16760 -0.16067
-0.05116 0.04638 -0.07953
0.00721 0.03180 -0.02834
-0.00179 -0.16433 0.17125
-0.08021 0.08476 -0.10292
0.07198 0.14840 -0.28167
-0.09598 0.02826 -0.08629
0.04693 -0.13615 0.15883
-0.09167 0.01379 -0.06096
-0.09179 0.01376 -0.06151
0.01910 -0.13604 0.16076
-0.05027 -0.13410 0.16565
0.10044 0.12505 -0.08118
-0.08376 0.01807 -0.09216
-0.06291 0.02657 -0.02151
0.03593 0.15218 -0.22106
-0.07844 0.06604 -0.06026
0.02688 0.16859 -0.10613
0.04046 -0.13311 0.15871
-0.05015 0.04250 -0.00723
0.01410 0.00617 -0.00049
0.00522 -0.00093 -0.00276
-0.02198 0.01689 -0.01456
0.07959 0.08309 -0.10899
-0.06484 0.11297 -0.10085
-0.00331 0.04347 -0.03561
-0.01402 0.04695 -0.30604
0.08806 0.03181 -0.07242
0.03142 -0.16073 0.16789
0.07927 0.02181 -0.07291
-0.08475 -0.14726 0.17133
-0.01542 0.02935 -0.22117
0.08453 0.05097 -0.08353
-0.07646 0.03422 -0.08566
-0.08480 -0.14726 0.17132
-0.03043 0.11179 -0.18164
-0.06570 0.06575 -0.07020
0.05415 -0.14990 0.16332
-0.01556 0.08809 0.08878
0.00664 -0.16106 0.16936
0.07644 0.02385 -0.07527
0.07598 0.02499 -0.07525
0.07644 0.02533 -0.07435
0.07194 0.02139 -0.09098
-0.05665 0.01996 -0.00649
0.06865 -0.14671 0.16137
-0.04561 -0.13849 0.16580
-0.02100 -0.11894 0.15796
-0.09539 0.02636 -0.08857
0.01529 -0.15070 0.16576
-0.03611 0.07808 -0.13772
-0.04438 0.04350 -0.00293
-0.04549 0.05681 -0.13574
-0.03975 0.07157 -0.16987
0.06754 0.01728 -0.10131
-0.04238 0.09298 -0.16394
-0.08829 -0.03773 -0.87501
-0.04193 0.05152 -0.13359
0.06025 0.02053 -0.10593
0.03302 -0.11809 0.15339
0.07979 0.12441 -0.11657
0.06911 -0.11866 0.15189
-0.02219 0.02458 -0.02589
-0.01587 0.11971 -0.10876
-0.06555 -0.16262 0.17484
0.05730 0.04570 -0.09723
0.20304 -0.19396 0.28605
-0.08176 0.16445 0.18265
-0.00023 -0.16315 0.17086
0.05396 0.08998 -0.10855
0.05371 0.02285 -0.11335
-0.05300 -0.14732 0.16931
-0.03143 0.05131 -0.14098
0.04919 -0.14406 0.16142
-0.06939 0.02371 0.00044
0.05117 0.02440 -0.11084
-0.02616 0.05780 -0.11591
-0.01254 -0.11865 0.15651
0.01984 0.04850 -0.04330
-0.00822 -0.17208 0.17399
0.03263 -0.17212 0.17120
-0.01176 -0.14960 0.16718
-0.01280 0.06927 -0.12737
0.00077 -0.12179 0.15693
0.00071 -0.12219 0.15726
-0.07004 -0.15018 0.17159
0.07368 0.03509 -0.08452
0.04419 0.08332 -0.11561
-0.02050 0.12170 -0.10823
-0.02050 0.12170 -0.10823
-0.01802 0.08591 -0.12119
0.02109 0.08212 -0.14900
0.08267 0.16827 -0.25131
-0.05663 -0.15085 0.17037
-0.01412 0.05970 -0.05022
-0.03144 0.10424 -0.16979
-0.01428 0.06944 -0.06929
-0.01398 0.06733 -0.10087
-0.01483 0.06826 -0.09446
-0.01622 -0.12479 0.15969
0.01902 -0.13597 0.16044
0.01980 -0.13422 0.16008
0.06627 -0.17007 0.21013
0.03456 -0.14789 0.16403
-0.00728 0.00071 0.00373
0.00339 -0.15004 0.16618
-0.02543 -0.14671 0.16651
-0.00764 0.00478 0.00012
-0.02722 -0.17799 0.17726
0.00311 -0.14474 0.16544
0.03650 0.09093 -0.12638
0.00598 0.06782 -0.05745
0.03360 0.11143 -0.14929
-0.03027 -0.14581 0.16716
-0.00785 0.00631 -0.01009
-0.00625 0.00256 0.00050
0.03407 0.08416 -0.13057
-0.01583 0.03328 -0.04247
-0.01211 0.07079 -0.10711
-0.00813 0.05201 -0.04658
-0.00937 0.07178 -0.08822
-0.01007 0.10705 -0.10634
0.06590 -0.13861 0.17575
-0.00501 0.00695 -0.00324
-0.02508 0.08814 -0.14072
-0.00729 0.07154 -0.10209
-0.00802 0.08783 -0.11468
-0.00765 0.10922 -0.10737
0.00064 -0.01484 -0.00816
0.01816 0.04532 -0.04573
-0.00275 0.07497 -0.08441
-0.08491 0.03066 -0.08813
0.01369 -0.13656 0.16119
0.07277 -0.15974 0.16517
0.03713 0.04490 -0.01219
0.05416 -0.12315 0.15471
-0.00243 0.07580 -0.09304
-0.00254 0.07516 -0.10068
-0.00251 0.10720 -0.09835
0.02356 0.08134 -0.14679
0.00026 0.07325 -0.07773
0.05030 -0.11862 0.15310
0.05457 0.07772 -0.05807
-0.00148 0.10443 -0.10873
-0.00565 -0.13195 0.16098
-0.00353 -0.17195 0.17361
0.00695 -0.00178 -0.00103
0.05022 -0.17062 0.17002
-0.02923 0.06680 -0.14234
0.08782 0.13313 -0.07100
0.04936 -0.14994 0.16345
0.00189 0.09955 -0.11874
0.07168 -0.12192 0.15328
0.02511 -0.13343 0.15964
0.03454 0.03434 -0.01410
0.01394 0.00380 -0.00333
-0.03353 -0.16232 0.17271
0.07942 0.16147 -0.13686
0.02926 -0.15033 0.16486
0.07134 -0.11954 0.15147
-0.05910 -0.15253 0.17129
-0.03144 -0.12191 0.16001
0.06989 -0.16201 0.16656
0.07411 -0.16172 0.16618
0.01105 -0.15015 0.16602
0.01241 0.10362 -0.14698
0.08537 -0.14329 0.15885
0.01276 0.00255 -0.84008
-0.00585 -0.13497 0.16171
0.03811 -0.17695 0.17209
0.01564 -0.02154 -0.81943
0.05007 -0.00553 -0.60863
-0.06778 0.03889 -0.06967
-0.07945 0.07794 -0.13287
0.01053 -0.13475 0.16096
0.08457 -0.15971 0.16376
0.07181 -0.11720 0.15173
0.03188 -0.13684 0.16067
-0.08075 -0.16574 0.17707
-0.07883 0.03512 -0.08105
0.05355 0.04036 -0.06771
0.05471 0.06843 -0.11769
-0.06069 0.04195 -0.06273
-0.09839 0.01666 -0.06054
0.00281 -0.02575 -0.89760
0.01627 -0.01831 0.01353
0.01107 0.15070 -0.21775
0.08348 -0.15967 0.16350
0.08222 0.03960 -0.10004
0.02600 -0.13151 0.15848
-0.06613 0.02070 -0.00338
-0.02929 0.14590 -0.19737
0.01858 0.13044 -0.12823
0.08067 0.04124 -0.09720
0.00301 0.10347 -0.12710
-0.06216 0.11083 -0.10897
0.05135 -0.12034 0.15380
-0.00535 -0.13788 0.16289
0.08953 0.03418 -0.06469
0.02330 -0.17253 0.17208
0.01083 -0.14808 0.16532
-0.04230 -0.15967 0.17224
0.02202 -0.17737 0.17316
0.08411 -0.13603 0.15628
-0.04033 -0.12387 0.15964
-0.04613 0.03955 -0.00683
0.01981 -0.15058 0.16569
0.01084 -0.14807 0.16528
-0.07960 0.15267 -0.12370
0.05400 -0.14678 0.16075
0.00430 0.02384 -0.02817
0.00192 0.06523 -0.04285
0.00568 -0.01038 -0.00271
0.05860 0.08847 -0.11151
0.06506 0.01867 -0.10631
-0.03866 0.08267 -0.16433
0.07497 -0.16309 0.16584
0.10435 0.16732 -0.07214
0.08289 -0.14080 0.10041
0.03836 -0.17559 0.17268
0.07399 -0.15810 0.16450
0.01975 0.04859 -0.04277
0.01352 -0.16106 0.16901
0.03921 0.07336 -0.04810
0.00038 -0.01807 -0.00714
0.05933 -0.14493 0.16043
0.04941 -0.14705 0.16225
-0.00322 0.04353 -0.03640
-0.00850 -0.13696 0.16375
0.09813 0.06439 -0.07012
-0.00521 0.05559 -0.05105
0.07638 -0.14326 0.15844
0.04255 -0.14591 0.15405
0.07593 -0.13625 0.15915
-0.00561 -0.14991 0.16667
-0.01314 -0.03076 0.01063
-0.00326 -0.17811 0.17647
0.06863 -0.11846 0.14978
-0.07681 0.02818 -0.08139
-0.01082 0.03808 -0.03480
0.05905 0.15376 -0.14478
-0.01473 0.06948 -0.11043
-0.00630 -0.16096 0.17057
-0.08432 -0.13708 0.16811
-0.00994 0.04160 -0.03593
0.00430 -0.17163 0.17458
-0.00745 0.00887 -0.01861
-0.04701 -0.14958 0.16937
0.05153 -0.14516 0.16191
-0.05821 0.08889 -0.11566
0.08450 -0.15821 0.16510
0.00212 -0.12311 0.15750
-0.02604 0.07594 -0.14494
-0.01042 0.03986 -0.04326
0.02324 0.09602 -0.14291
0.09965 -0.14553 0.15903
0.08351 0.08123 -0.09884
0.00853 -0.14482 0.16436
0.00566 -0.16347 0.17050
-0.04560 -0.13851 0.16581
0.09383 0.05379 -0.06192
-0.09389 0.02853 -0.08886
0.01564 -0.14083 0.16201
-0.03354 0.10608 -0.17484
-0.02819 0.07545 -0.13731
0.04305 -0.12100 0.15477
-0.00282 0.05423 -0.16681
-0.00673 0.05359 -0.04736
0.05743 -0.16164 0.16519
-0.06634 0.02802 -0.04906
0.01976 0.11993 -0.13462
0.05026 -0.11879 0.15336
0.10320 -0.14887 0.15929
0.10278 -0.12937 0.15309
0.05751 -0.15821 0.16432
0.02240 -0.13208 0.15841
-0.05984 0.05314 -0.06562
0.09913 0.04871 -0.03592
-0.01340 -0.17823 0.17691
0.10019 0.13972 -0.06993
0.02431 -0.17099 0.17261
-0.01354 -0.16015 0.17085
0.07613 -0.13621 0.15710
-0.01335 -0.14664 0.16639
-0.02955 0.14034 -0.19657
-0.06051 0.04717 -0.06708
0.07613 -0.13621 0.15710
0.08337 0.03549 -0.07439
-0.02746 0.11884 -0.15820
0.00153 -0.16327 0.17025
-0.03143 0.06708 -0.14867
0.03257 -0.16231 0.16739
-0.04257 -0.14633 0.16823
-0.07875 0.01732 -0.07823
0.04505 0.04277 -0.05542
0.01430 -0.15865 0.16799
-0.07855 -0.16060 0.17589
-0.08865 0.06066 -0.10274
0.02759 -0.17114 0.17193
-0.01435 -0.12117 0.15739
-0.02721 -0.14664 0.16708
-0.00074 -0.12400 0.15819
0.00343 -0.11939 0.15637
0.03975 -0.17564 0.17225
-0.05696 -0.16093 0.17400
-0.01436 -0.12117 0.15819
-0.01489 -0.16193 0.17123
0.00243 -0.13161 0.16044
0.02403 -0.02391 -0.76754
0.06626 -0.15699 0.16459
-0.01427 -0.13282 0.16144
0.00659 -0.15838 0.16879
-0.10173 0.02453 -0.07802
-0.09745 0.02313 -0.08677
-0.09686 0.02055 -0.08490
-0.09501 0.01607 -0.04987
-0.09250 0.01947 -0.08954
-0.08666 0.01509 -0.08397
-0.08526 0.01500 -0.08806
-0.08295 0.02889 -0.09182
-0.07746 0.05164 -0.09012
-0.07760 0.09509 -0.09312
-0.07484 0.04593 -0.07396
0.01381 -0.16070 0.16846
-0.06494 0.02154 -0.01392
-0.06028 0.11500 -0.10562
-0.06026 0.11481 -0.10693
-0.05791 0.08549 -0.12025
-0.05391 0.08501 -0.13551
-0.05179 0.07708 -0.13249
-0.04271 0.09894 -0.17167
-0.03912 0.12745 -0.19437
-0.03915 0.12999 -0.19941
0.05612 0.08575 -0.11041
0.05589 0.08956 -0.11050
-0.08178 0.07333 -0.09301
0.05172 0.11703 -0.12042
0.07850 -0.15775 0.16462
0.04971 0.11375 -0.12528
-0.02695 0.11412 -0.15738
-0.02506 0.07333 -0.13626
-0.02194 0.08850 -0.11471
0.08139 -0.14461 0.15976
-0.02414 0.11687 -0.13779
-0.01720 0.03136 -0.03794
-0.01345 -0.03239 0.01055
-0.01297 -0.01863 0.01238
0.07840 -0.15773 0.16417
-0.01151 -0.02218 0.00710
0.03726 0.11631 -0.14682
0.03675 0.08633 -0.10858
-0.01410 0.07231 -0.12292
-0.01405 0.07240 -0.12203
0.03365 0.08602 -0.13880
-0.04177 -0.12520 0.16137
-0.00133 -0.02467 -0.00566
0.00054 -0.00981 -0.00697
0.02681 0.10689 -0.13857
0.00834 -0.14042 0.16178
0.02127 0.09089 -0.15007
0.00117 0.08365 -0.11859
0.08068 0.05954 0.23408
0.01748 -0.03508 0.08139
-0.02731 0.06472 -0.13422
0.05878 0.08587 -0.10594
0.00497 -0.13705 0.16208
0.00881 0.13664 -0.15252
0.02408 0.00107 0.00469
0.01081 0.12250 -0.14825
0.01199 -0.02777 -0.84120
0.00661 -0.03202 -0.87366
0.10590 0.14815 -0.07746
-0.01356 -0.16340 0.17145
0.06005 -0.14314 0.15592
-0.00131 -0.02214 -0.00353
0.00778 -0.02723 -0.86699
0.10757 0.01953 -0.25572
0.00344 -0.11940 0.15634
-0.00055 -0.15936 0.16925
-0.04678 -0.13391 0.16424
0.01150 -0.02032 0.00101
0.01529 -0.15071 0.16584
-0.05590 0.05821 -0.07035
0.04417 -0.12045 0.15470
0.04088 -0.16255 0.16773
0.03297 0.08291 -0.13229
-0.06380 -0.16216 0.17556
0.00421 -0.16473 0.17100
0.03116 -0.16102 0.16835
-0.00737 -0.16232 0.17113
0.00682 -0.00186 -0.00396
0.04358 0.17301 -0.23453
0.00339 -0.01495 -0.00632
-0.04477 0.12694 -0.18394
0.02540 -0.14439 0.16373
0.03239 -0.15968 0.16781
0.03272 -0.14438 0.16423
-0.04047 -0.12395 0.16093
0.02437 -0.17785 0.17511
0.02330 0.08464 -0.14452
0.02348 -0.17283 0.17316
0.02333 -0.17588 0.17293
0.03231 -0.12230 0.15576
0.03215 -0.12206 0.15487
0.16609 0.07511 0.08881
0.16604 0.07508 0.08848
0.01998 -0.12117 0.15682
0.02180 -0.17132 0.17199
0.03906 -0.17287 0.17141
-0.01876 0.08598 -0.11675
0.01862 -0.11822 0.14846
0.07879 0.13067 -0.13204
0.02002 0.09999 -0.14546
0.09994 -0.16063 0.16356
0.08560 -0.14926 0.16083
0.01744 -0.13596 0.16026
-0.04102 -0.14904 0.16898
0.01409 -0.15846 0.16875
0.01532 -0.17674 0.17428
-0.00748 -0.00406 0.00239
-0.00819 -0.02445 -0.00118
-0.00786 -0.04112 0.00435
-0.00174 0.07761 -0.09985
-0.00296 0.08718 -0.10284
0.01157 -0.15787 0.16849
0.16919 -0.01946 0.11896
0.00881 0.03360 -0.03089
-0.00811 0.01220 -0.01969
0.00903 -0.16461 0.17085
0.00976 0.03842 -0.03134
-0.00747 -0.12100 0.15728
0.00462 -0.17635 0.17461
-0.04494 -0.16281 0.17368
0.00721 -0.17829 0.17661
0.01431 -0.01526 0.00541
-0.00550 0.16051 -0.13801
0.00576 -0.14917 0.17280
-0.00535 -0.12098 0.15685
0.17163 -0.10696 0.14420
0.00475 -0.13478 0.16092
0.09517 -0.14719 0.16039
0.00127 -0.16394 0.17133
-0.03551 -0.16354 0.17387
-0.00142 -0.11839 0.15636
0.10104 0.16613 -0.08029
0.00053 -0.17576 0.17549
0.00053 -0.17576 0.17549
0.04425 -0.17060 0.16868
0.04414 -0.16354 0.16624
0.04433 -0.16359 0.16666
0.05186 -0.14715 0.16254
0.08857 0.13376 -0.06329
0.00673 -0.13567 0.16164
-0.00424 -0.13650 0.16074
-0.04319 0.11585 -0.18812
-0.04048 0.05755 -0.13145
-0.04263 0.09226 -0.16732
0.10146 0.08214 -0.06828
-0.02022 0.11618 -0.11029
0.04763 -0.16337 0.16803
-0.04369 -0.13548 0.16500
-0.00871 -0.13317 0.15993
-0.03343 0.05074 -0.15639
-0.04469 0.10010 -0.16433
-0.00888 -0.16097 0.17069
-0.04507 0.10349 -0.16816
-0.09347 0.02714 -0.08920
0.04847 -0.13227 0.15721
0.00866 -0.04201 0.00337
0.05011 -0.16241 0.16727
0.03822 -0.17385 0.17179
-0.04640 0.10238 -0.16131
-0.04532 0.08729 -0.15037
0.04931 -0.13314 0.15791
-0.05903 -0.13474 0.16529
-0.01318 -0.15063 0.16747
-0.01317 -0.15063 0.16749
0.05129 -0.16131 0.16691
-0.07017 -0.15121 0.17088
-0.01352 -0.15815 0.16991
0.04911 -0.12336 0.15493
0.04486 -0.14940 0.16331
-0.04525 0.05699 -0.13191
0.00780 0.06334 -0.11130
-0.04764 -0.16196 0.17349
0.05019 -0.13154 0.15731
0.05026 -0.13505 0.15871
-0.02310 0.11501 -0.11026
-0.01861 -0.12370 0.15912
0.09730 0.13434 -0.05455
0.05204 -0.13175 0.15753
-0.04955 0.07804 -0.14165
-0.01917 -0.15901 0.17064
0.05342 -0.14953 0.15919
0.05639 -0.16315 0.16692
-0.05042 0.06718 -0.13367
0.10128 0.14986 -0.07735
0.05622 -0.15721 0.16527
0.00705 0.07305 -0.13611
-0.02517 -0.12798 0.18943
-0.04082 0.05530 0.00516
-0.02488 -0.12155 0.15870
0.00950 0.07683 -0.13513
0.05894 -0.12312 0.15447
-0.02700 -0.17815 0.17871
-0.02914 -0.13336 0.16375
-0.02914 -0.13336 0.16375
-0.03064 -0.12500 0.16052
-0.03121 -0.15013 0.16874
-0.03069 -0.12256 0.15974
-0.03225 -0.16387 0.17283
-0.03286 -0.14791 0.16845
0.08015 0.07977 -0.12621
-0.05207 0.05454 -0.03815
0.09735 0.15019 -0.07776
-0.03734 -0.16521 0.17429
-0.03740 -0.16520 0.17411
0.06698 -0.13621 0.15837
0.03655 -0.13676 0.15975
0.06663 -0.13036 0.15576
-0.04044 -0.13087 0.14839
-0.03996 -0.16052 0.17236
0.00844 -0.13350 0.16021
0.05164 -0.17193 0.17034
0.07281 -0.16282 0.16610
0.07246 -0.15680 0.16389
0.06734 -0.13055 0.12934
0.07345 -0.14941 0.16257
-0.04477 -0.15140 0.17026
-0.04478 -0.15141 0.16998
0.04123 0.04695 -0.02265
0.07618 -0.13603 0.15734
0.03409 0.08333 -0.13404
-0.05002 -0.15279 0.17267
0.07756 -0.15837 0.16226
0.04034 -0.12046 0.15445
0.09431 0.17027 -0.09474
0.03648 0.09131 -0.12601
-0.05667 -0.13983 0.17062
-0.06130 -0.13848 0.16669
-0.02689 -0.13748 0.16452
-0.07626 0.02793 -0.07797
-0.07858 0.08689 -0.10259
-0.07837 0.07292 -0.09582
-0.07852 0.07720 -0.09924
-0.08023 0.12239 -0.10929
-0.08030 0.12548 -0.11421
0.08833 0.03588 -0.05413
-0.08029 0.01608 -0.07592
-0.01763 -0.12007 0.15636
0.08910 -0.12919 0.15238
-0.09603 0.03734 -0.08906
-0.08739 0.03074 -0.09041
-0.07463 -0.15390 0.18066
0.09522 -0.14759 0.16085
0.10382 0.08930 -0.06139
0.00836 -0.13392 0.16037
-0.07576 -0.14023 0.17089
0.00220 -0.00043 -0.00213
0.10022 -0.15618 0.16300
-0.07960 -0.14058 0.17774
0.10128 -0.14578 0.15909
-0.09501 0.01801 -0.08858
-0.08413 -0.15444 0.18335
0.06397 0.03627 -0.09676
0.08008 0.08576 -0.11126
-0.09193 -0.13999 0.16719
0.05958 0.04657 -0.09829
0.00869 -0.12217 0.15714
-0.02357 -0.13245 0.16243
-0.03381 -0.15936 0.17202
0.07806 -0.14636 0.16036
-0.03554 -0.16329 0.17315
-0.05563 -0.13801 0.16657
0.01827 0.04520 -0.04603
0.06962 -0.12151 0.15278
0.05949 0.04491 -0.09621
0.04630 -0.11856 0.15391
0.06588 0.02683 -0.10799
0.08136 0.10329 -0.14166
-0.06302 0.03438 -0.05454
-0.07714 0.01955 -0.07484
-0.00035 0.02098 -0.02092
0.09665 0.10213 -0.07126
0.03630 -0.12379 0.16095
0.05085 -0.15893 0.16535
-0.04735 -0.14634 0.16847
0.09732 -0.15930 0.16375
0.04380 -0.15007 0.16370
0.05174 -0.17531 0.17136
-0.06085 -0.13516 0.16599
0.08882 -0.14476 0.15909
0.01275 0.10752 -0.13564
-0.06231 -0.13421 0.16583
-0.05472 -0.15146 0.17039
0.09683 -0.14763 0.15990
-0.01069 -0.12328 0.15851
0.03790 -0.12057 0.15511
-0.05825 -0.15010 0.17016
-0.07191 0.01732 -0.03967
0.02784 -0.12182 0.14899
0.05113 -0.13338 0.15784
0.10513 0.15804 -0.07171
-0.00525 0.05556 -0.05106
-0.04805 0.06609 -0.13725
0.03246 -0.17209 0.17037
0.05968 -0.11939 0.15353
0.03143 -0.17562 0.17531
-0.15484 -0.14955 0.17510
-0.04914 0.06122 -0.12719
-0.02918 0.07019 -0.13938
0.07250 -0.16148 0.16540
0.08066 -0.14733 0.16044
-0.07974 -0.15085 0.17008
0.00953 0.00059 -0.00217
-0.07235 0.11430 -0.09922
-0.11729 0.06382 -0.03997
0.02644 -0.13176 0.15950
-0.01318 0.06748 -0.09823
-0.00199 -0.03419 -0.00280
-0.02628 -0.14798 0.16477
0.00649 0.04623 -0.03717
-0.00978 0.00338 0.00836
0.04220 -0.13162 0.15826
-0.08371 -0.14930 0.17201
