# .PCD v.7 - Point Cloud Data file format
VERSION .7
FIELDS x y z
SIZE 4 4 4
TYPE F F F
COUNT 1 1 1
WIDTH 1872
HEIGHT 1
VIEWPOINT 0 0 0 1 0 0 0
POINTS 1872
DATA ascii
0.17503 0.03662 -0.05687
0.12782 0.03946 0.05425
0.12344 -0.01290 0.05600
-0.06422 -0.05250 0.01974
-0.03849 0.00139 -0.02762
-0.08297 0.06977 0.00811
0.12599 0.03130 0.05582
-0.06962 -0.02288 -0.03785
0.19292 0.00635 0.03745
-0.02661 -0.08216 -0.07732
0.00970 0.03487 -0.07050
0.20784 0.04159 0.11344
-0.03390 0.00687 -0.02665
0.17665 -0.05566 0.04114
-0.02651 -0.04049 -0.02419
0.02625 0.05044 -0.34377
0.21610 0.06416 0.04497
0.02605 -0.00223 -0.33034
0.15950 0.02134 -0.06546
-0.04885 -0.04886 -0.00787
-0.04882 -0.04890 -0.00771
0.18063 -0.01799 0.03116
-0.03708 -0.10061 0.00846
0.02023 -0.04145 -0.00719
-0.01728 0.00351 -0.02320
-0.06727 -0.02196 -0.02175
-0.05597 -0.02959 0.00092
0.01885 0.04824 -0.14649
-0.04724 -0.05853 -0.00809
0.12771 0.06068 0.01808
0.19278 0.03110 0.02408
0.04694 0.05520 -0.00391
-0.05439 -0.06687 0.01375
-0.10633 -0.00995 -0.51514
-0.02815 0.02131 -0.02719
-0.06029 -0.04446 -0.06465
-0.03151 0.02784 -0.02789
-0.05219 -0.02470 -0.26476
-0.05307 -0.04754 -0.00060
-0.05482 -0.04700 0.00558
-0.03379 0.02360 -0.02856
-0.05569 -0.05982 0.01207
-0.05569 -0.05982 0.01207
-0.05874 -0.06954 0.02064
-0.07851 -0.00526 -0.03588
0.30356 0.07760 0.07061
-0.07122 -0.02289 -0.34064
0.09933 0.05249 -0.02340
-0.06158 -0.02388 -0.30573
-0.03584 0.02587 -0.02943
-0.11019 -0.01107 -0.52309
-0.10747 -0.01052 -0.51931
0.29836 0.14154 0.12596
-0.09978 -0.00798 -0.49851
-0.01806 0.01867 -0.02301
-0.03598 -0.04117 -0.02515
0.12412 -0.05353 0.05399
0.13178 -0.01202 0.05646
-0.05464 -0.04678 0.00611
-0.03194 -0.02044 -0.02391
-0.06337 0.01181 -0.01449
-0.06220 0.01422 0.00269
-0.03594 0.00546 -0.02763
0.12509 0.06850 0.33671
0.13006 0.07132 0.35661
-0.03742 -0.02101 -0.02553
0.05841 -0.02815 0.02033
-0.02582 0.01864 -0.02570
-0.02587 0.01758 -0.02650
0.06003 0.02884 -0.23754
-0.09345 0.03481 -0.09977
-0.06388 0.04273 -0.03928
0.13926 0.08654 0.41708
0.02198 -0.04639 -0.00609
-0.02187 0.04643 -0.06242
-0.06284 0.02515 -0.22924
0.03115 -0.02660 -0.17102
-0.06574 0.01068 -0.33987
0.03082 0.04581 -0.00024
-0.05172 -0.04887 -0.00484
-0.03571 -0.04456 -0.02473
-0.09073 0.00248 -0.45653
0.14058 -0.03922 0.15187
-0.03627 0.00630 -0.02739
-0.05653 -0.02864 -0.00197
-0.04758 -0.07823 0.00103
-0.06404 -0.01959 -0.02969
-0.00469 0.08348 -0.05239
0.15385 0.04974 -0.00809
-0.02843 -0.05155 -0.02131
-0.02842 -0.05107 -0.02120
0.06260 -0.02634 0.00413
0.15458 0.00063 0.02830
-0.05132 -0.01591 -0.01212
0.02400 0.05134 -0.12507
-0.03636 0.01768 -0.02893
-0.02796 -0.08401 -0.06793
0.03293 -0.03617 -0.00523
0.16339 0.02275 0.02875
-0.05393 -0.05661 0.00494
-0.02397 -0.04344 -0.02325
-0.04704 -0.06916 -0.00601
-0.06145 -0.02572 -0.01425
-0.09247 -0.02217 -0.43530
-0.02079 -0.06638 -0.01695
0.17651 -0.00706 0.03980
-0.06086 -0.07579 -0.00323
-0.05763 -0.07867 0.02255
-0.04889 -0.04633 -0.00858
-0.04776 -0.04767 -0.01093
0.06161 -0.02615 -0.09561
-0.03658 -0.02599 -0.20660
-0.00246 -0.03367 0.00995
0.05175 0.02712 -0.23550
-0.02821 0.01783 -0.02717
-0.03875 0.02654 -0.03663
0.10448 -0.02314 0.04626
-0.02448 -0.04667 -0.02095
-0.05333 0.02718 -0.02634
-0.01831 0.01648 -0.02642
-0.03526 0.02890 -0.03487
-0.02929 -0.01796 -0.02377
-0.02950 -0.06778 -0.02007
-0.02478 -0.04188 -0.02432
-0.06464 0.03234 -0.02270
0.17936 -0.05021 0.03974
-0.03594 0.02818 -0.02986
-0.09133 -0.00353 -0.03733
-0.07419 -0.02174 -0.00566
0.38949 0.09302 0.26840
0.16987 -0.04492 0.03777
-0.07184 0.01283 -0.36679
-0.02806 0.00035 -0.02439
-0.11515 -0.01418 -0.52961
0.06290 -0.03276 0.00149
-0.02972 0.02656 -0.02754
-0.02816 -0.00072 -0.02508
0.11929 -0.04598 0.07463
-0.00883 -0.04525 -0.02084
-0.03408 0.03014 -0.02940
-0.03290 0.02491 -0.02869
-0.02236 -0.04745 -0.02143
-0.01570 -0.08159 -0.01328
-0.00286 0.03158 -0.03640
-0.01194 0.03486 -0.04095
-0.01624 -0.08926 -0.01210
-0.01056 -0.06776 -0.01461
0.07756 -0.04115 0.00784
0.03363 -0.04137 -0.00573
0.21634 0.03266 0.04265
0.14085 -0.03198 0.04454
-0.06333 0.01380 -0.02059
-0.03978 0.02652 -0.03036
0.20821 0.03237 0.06240
0.15255 0.03792 0.02372
0.14391 -0.04605 0.04279
0.15185 0.03882 0.02199
-0.03062 -0.02113 -0.02350
0.14221 -0.02458 0.03052
0.17929 -0.04641 0.03758
0.16186 0.04926 0.02510
0.15755 -0.03140 0.03146
-0.02968 0.00626 -0.02613
0.11681 0.05514 0.05321
0.16562 -0.02613 0.03320
-0.01198 -0.05248 -0.01695
0.06569 -0.04419 0.00383
-0.03212 0.02543 -0.04036
-0.02883 -0.04075 -0.02485
0.15509 -0.07464 0.06054
-0.01510 -0.09041 -0.01260
-0.00625 -0.02061 -0.01012
-0.02160 -0.07841 -0.01576
-0.02176 -0.07844 -0.01624
-0.02216 -0.07472 -0.01698
-0.02678 -0.07975 -0.01795
-0.02129 0.03037 -0.03522
-0.00212 -0.05746 -0.01778
0.19301 0.01086 0.03861
0.20025 0.01467 0.04064
0.15905 -0.07734 0.05925
0.15880 -0.07799 0.05637
-0.01697 0.00896 -0.02383
-0.01697 0.00896 -0.02383
0.12750 -0.04960 0.04801
-0.02131 0.01195 -0.02384
0.15347 -0.08018 0.05950
0.06941 -0.04761 0.00590
0.06941 -0.04761 0.00590
0.16070 -0.05846 0.03799
0.20664 0.02381 0.04152
0.15541 -0.08866 0.06067
0.15417 -0.08782 0.05896
0.15923 -0.07520 0.05516
0.17092 0.00548 0.03164
0.15555 -0.09033 0.06092
0.18807 -0.00167 0.03922
0.17423 -0.06529 0.04110
0.17429 -0.06531 0.04117
0.04337 -0.02891 0.00781
0.17477 0.00433 0.03203
0.15843 -0.07914 0.05594
0.08795 -0.05921 0.29941
-0.02014 -0.04136 -0.01484
0.17810 -0.03473 0.03656
-0.01341 -0.01694 -0.01483
0.14664 -0.03802 0.04107
0.15651 -0.07585 0.05288
0.13706 -0.03116 0.02707
0.14505 -0.03786 0.04292
0.14533 -0.03782 0.04325
0.10645 -0.03189 0.01909
0.09190 -0.03102 0.00606
0.14760 -0.03848 0.03814
0.15510 -0.07869 0.05676
0.03117 0.05152 -0.00457
0.07621 -0.03869 0.00527
0.16217 0.04481 0.02572
0.12269 -0.03009 0.02198
0.14490 -0.05457 0.04899
-0.01126 -0.04841 -0.01576
-0.03628 -0.01811 -0.02527
-0.03863 0.00581 -0.02856
0.14616 -0.03868 0.04238
0.15756 -0.07305 0.05339
0.12879 -0.03210 0.02478
-0.03594 -0.04102 -0.02533
0.14418 -0.03941 0.04416
0.14484 -0.03950 0.04513
0.15195 0.04806 0.02219
0.16254 0.03897 0.02654
0.09023 -0.03339 0.01593
-0.00323 -0.04496 -0.01319
-0.00310 -0.04497 -0.01287
0.08693 -0.02597 -0.05679
-0.01012 -0.04535 -0.01604
0.03962 0.05280 -0.00662
0.13211 -0.03997 0.03291
-0.01190 -0.04354 -0.01657
0.15877 0.00360 0.02938
0.15177 0.02430 0.02359
0.14508 -0.04778 0.04806
0.14286 -0.03908 0.05139
-0.00745 -0.04533 -0.01422
0.15295 0.03587 0.02420
0.04585 -0.02701 -0.00892
0.15216 0.02078 0.02543
0.12396 -0.03057 0.01775
0.15039 -0.04282 0.03346
-0.02843 -0.06661 -0.02526
0.15494 0.00187 0.02200
0.03123 0.04994 -0.01901
-0.02741 -0.04282 -0.02478
0.12181 -0.02642 0.02043
0.15486 0.00047 0.02902
-0.03185 -0.02236 -0.02411
0.16255 0.03687 0.02629
-0.03208 0.03037 -0.02868
0.12611 -0.02824 0.01326
0.14567 -0.02369 0.02683
0.11419 -0.03260 0.01599
0.13000 -0.02013 0.03605
-0.11756 0.02420 -0.39577
0.13086 0.06221 0.03325
0.15809 0.04453 0.02484
0.16494 0.00065 0.03690
0.15979 0.00113 0.03010
-0.03574 0.00166 -0.02715
0.15790 0.04869 0.02441
-0.02864 0.00032 -0.02488
0.14446 -0.03940 0.03358
-0.02835 0.02868 -0.02887
0.14360 -0.04404 0.04950
-0.02812 -0.06804 -0.01810
0.15343 0.00306 0.02703
0.16386 0.00410 0.03073
-0.02741 0.03108 -0.02942
-0.08872 0.05313 -0.00081
0.01661 0.01308 -0.04918
0.15396 -0.07434 0.05891
-0.14786 0.01043 -0.37639
-0.09147 0.04079 -0.04417
-0.01387 0.03350 -0.03849
-0.01231 0.03314 -0.04128
0.12480 -0.01443 0.07114
-0.06912 -0.02509 -0.00616
-0.13481 0.03699 -0.05268
-0.06674 -0.02595 0.01483
-0.06682 -0.02630 0.01449
-0.03868 -0.09890 0.01276
-0.10803 0.04221 -0.10888
-0.03901 -0.03830 -0.00907
-0.10700 0.03873 -0.04838
-0.05240 -0.07637 0.00605
-0.05248 -0.07635 0.00591
-0.11479 0.01102 -0.02322
-0.04049 -0.09508 -0.01691
0.18684 0.00818 0.03621
0.15177 -0.07594 0.06512
0.15151 -0.07589 0.06470
-0.00965 -0.02178 -0.01424
-0.00166 0.02402 -0.03592
0.24905 0.05164 0.04599
-0.07961 -0.01246 0.00488
0.04249 0.05710 -0.00342
-0.12819 0.00400 -0.34934
-0.03392 -0.06870 -0.02011
-0.03402 -0.06860 -0.02038
0.28984 0.04588 0.17651
0.19383 0.01081 0.03989
0.13538 -0.05050 0.07007
-0.06510 -0.01872 0.03086
-0.06272 -0.06755 0.02154
-0.06278 -0.06775 0.02136
-0.06051 0.04290 -0.03755
0.16776 -0.05387 0.03653
0.16648 0.05003 0.01207
-0.02253 0.02970 -0.05015
-0.05966 0.02703 -0.01715
0.32440 0.07773 0.16974
0.16917 -0.05688 0.03898
0.13953 -0.05483 0.05831
0.13759 -0.05527 0.06777
-0.08795 0.04095 -0.04440
-0.05690 -0.08811 0.02419
-0.09114 0.03892 -0.04099
0.16493 0.00158 0.03153
0.17439 -0.05917 0.04127
0.15100 -0.07074 0.03426
0.15204 -0.07094 0.03575
0.12913 -0.01365 0.06524
0.13576 -0.02340 0.06488
-0.05317 -0.01769 -0.16004
-0.04068 0.03439 -0.04698
0.15078 -0.07433 0.06571
-0.06612 0.04047 -0.03762
-0.05364 0.02699 -0.02760
0.34337 0.08158 0.18289
0.12234 0.04861 0.07522
-0.14753 0.02073 -0.05332
0.17271 0.02787 0.02992
0.09344 0.04570 0.03668
0.13314 0.05137 0.08925
0.17669 -0.01443 0.03495
-0.02312 -0.05122 -0.02036
0.21367 0.03775 0.03611
0.05095 0.06484 0.03426
0.12702 0.01247 0.06823
-0.01033 -0.03684 -0.01908
0.17617 0.02593 0.03238
-0.02668 0.00614 -0.02423
0.05889 -0.03288 0.05042
-0.06901 -0.01632 -0.03642
0.36218 0.04482 0.07002
-0.06627 -0.01816 -0.03470
0.03524 0.06502 0.01166
-0.08082 -0.01033 -0.23896
-0.00257 -0.04661 -0.01183
-0.12380 0.03449 -0.07358
-0.13593 0.02768 -0.05216
0.15050 -0.06632 0.03618
-0.02523 -0.01847 -0.02179
0.21094 0.04251 0.02709
0.21295 0.04263 0.02962
-0.12321 0.01054 0.00456
0.16170 -0.06094 0.03705
-0.04618 -0.04154 -0.02523
0.13892 -0.05317 0.06676
-0.13027 0.00622 -0.34961
0.28449 0.05654 0.15491
0.33857 0.06028 0.13590
0.16095 -0.05523 0.03641
-0.05383 -0.01620 -0.17166
-0.01603 -0.02325 -0.08596
0.34277 0.05069 0.13355
-0.00569 -0.01855 -0.10730
0.08649 0.05965 0.00888
-0.03086 -0.01750 -0.02375
0.29752 0.07093 0.11885
0.12271 -0.04348 0.07425
0.14894 0.06304 -0.00580
0.10498 -0.03322 0.01783
-0.12783 -0.01400 -0.34697
0.13519 -0.06641 0.07904
0.13154 -0.06572 0.07275
0.14353 0.04916 0.05471
0.15569 -0.04797 0.03065
-0.03334 -0.01724 -0.14354
-0.07854 -0.00937 -0.24247
-0.03112 -0.04477 -0.02506
0.15719 0.02717 0.00262
-0.10379 0.00295 -0.04568
-0.00988 -0.03364 -0.02215
0.35740 0.08433 0.10752
0.34958 0.04865 0.08584
-0.05147 -0.01562 -0.17758
0.04110 -0.02983 0.01545
-0.03087 -0.01889 -0.02387
0.02837 -0.04490 -0.00657
0.11201 0.06725 0.02079
0.26909 0.06972 0.05562
0.17603 -0.00986 0.03309
-0.00912 -0.03417 -0.01107
0.15120 -0.07201 0.06455
-0.00184 0.04774 -0.06175
0.14671 -0.05225 0.08336
0.14557 -0.05112 0.08264
0.11766 0.06808 0.01772
0.21040 0.03669 0.03649
0.34162 0.04661 0.12185
0.13009 -0.04627 0.07734
0.12997 -0.04498 0.05977
0.15183 -0.07799 0.06462
0.13782 -0.04278 0.07090
0.20634 0.04323 0.02266
-0.05158 -0.04656 -0.00362
-0.05164 -0.04648 -0.00372
-0.06259 -0.02239 -0.03274
-0.09521 -0.00478 -0.04287
-0.01509 -0.01044 -0.02099
0.17714 0.05436 -0.00995
-0.02500 -0.04791 -0.02054
-0.05153 0.03851 -0.03218
0.14436 0.06571 0.06846
-0.01451 -0.01158 -0.02132
-0.06410 -0.05371 0.01983
0.01416 -0.04542 -0.00773
-0.05052 -0.04118 -0.00965
0.05712 0.06085 0.05156
0.02388 0.04575 -0.05029
0.14033 0.03657 0.02763
0.12398 0.06512 0.03580
0.35702 0.04484 0.07438
0.05625 0.06260 0.01915
-0.03721 -0.01866 -0.02609
-0.07010 -0.01825 -0.03426
-0.02383 -0.04578 -0.02189
0.28914 0.07565 0.05983
0.16284 0.05159 0.02338
-0.05627 -0.01782 -0.16859
0.09417 -0.03483 0.01721
0.02323 0.05169 -0.02843
0.08253 -0.03761 0.09992
0.14689 -0.05322 0.08143
0.15695 -0.04602 0.03218
0.35160 0.08610 0.13324
0.34199 0.05102 0.10805
-0.09263 0.00063 -0.03072
0.31247 -0.08233 0.65226
0.14550 0.05085 0.00376
0.12255 0.06604 0.05214
-0.03399 0.02718 -0.02648
-0.02379 -0.01969 -0.02183
-0.06369 -0.01947 -0.02823
0.15765 0.05383 0.00162
0.07652 -0.02906 0.04750
0.10675 0.06685 0.01729
-0.05380 0.03591 -0.02752
0.23596 0.04021 0.02243
-0.05246 0.00693 -0.02620
0.34136 0.08244 0.09880
0.37801 0.11090 0.20880
-0.03628 -0.01958 -0.02531
0.17522 0.06265 0.07761
0.15999 -0.02359 0.02881
0.15992 -0.02366 0.02875
0.04743 -0.03925 0.00240
0.04698 -0.03916 0.00172
-0.01662 0.03036 -0.02436
0.34932 0.04690 0.08030
0.00547 0.05574 -0.02254
-0.09174 0.00351 -0.03618
0.12676 -0.03151 0.03173
0.03972 0.06556 0.01482
0.12434 0.06409 0.02105
0.12843 0.02861 0.06303
0.09262 0.06276 0.01160
-0.13921 0.02274 -0.02737
0.00078 0.04702 -0.04317
0.01835 -0.04286 -0.00282
0.36948 0.07281 0.07119
-0.01720 -0.02346 -0.08619
0.05516 -0.03309 0.05033
-0.10175 0.00450 -0.01689
0.08002 -0.03622 0.01036
-0.05028 -0.07820 0.00188
-0.02440 -0.04694 -0.02050
0.14401 -0.03999 0.05195
0.14312 -0.03997 0.05019
0.34181 0.05149 0.13732
0.05766 0.05364 0.00073
0.16802 0.06192 0.07229
0.12672 0.04303 0.01423
0.21969 0.10912 -0.03171
-0.04878 -0.07395 -0.00131
-0.04880 -0.07388 -0.00163
-0.02971 -0.06502 -0.02035
0.35719 0.04203 0.07982
-0.02981 0.00662 -0.02507
0.33240 0.06600 0.06882
0.34098 0.05503 0.10349
0.22955 0.11181 -0.02043
0.31883 0.06738 0.11144
0.10364 -0.02848 0.01423
0.13063 -0.02411 0.06449
0.13295 -0.03095 0.03410
0.12285 -0.05414 0.14846
0.01186 -0.02806 -0.02539
0.09129 0.06307 0.01227
0.05710 -0.03655 0.00449
-0.05225 0.01146 -0.02088
-0.13911 0.02829 -0.05571
-0.03107 -0.04362 -0.02370
-0.01381 -0.06095 -0.01837
0.21464 0.06051 0.04542
-0.07726 -0.01268 -0.03006
0.15222 -0.06368 0.03520
-0.10708 0.05288 -0.09583
0.08293 0.06454 0.04353
-0.00341 -0.04501 -0.01388
0.10278 -0.02842 0.05845
0.10278 -0.02842 0.05845
0.35337 0.05633 0.07355
0.35337 0.05633 0.07355
-0.05666 -0.02459 -0.17912
0.16073 0.00364 0.03008
0.26268 0.04700 0.13575
0.26399 0.04710 0.13757
-0.08086 -0.00527 -0.03667
0.14468 -0.03681 0.03717
0.00329 0.04799 -0.03000
-0.05289 -0.07475 0.00809
0.05921 -0.03737 0.01086
0.15958 -0.04425 0.03308
0.23752 0.08479 0.34432
-0.01301 -0.02981 -0.02197
-0.00421 0.04313 -0.04130
-0.01598 0.00794 -0.02308
-0.01673 0.04350 -0.10945
0.00146 -0.04451 -0.01128
0.13979 0.01226 0.04119
0.06271 -0.03800 0.00579
0.13416 -0.03585 0.03084
0.06000 -0.03381 0.00480
0.14930 0.05367 -0.00100
0.14930 0.05367 -0.00100
-0.03855 0.02033 -0.03006
-0.04819 -0.05474 -0.02230
0.19774 0.03764 0.05772
-0.08750 -0.00897 0.01213
0.13695 -0.04377 0.04151
0.14278 -0.04522 0.05897
0.34902 0.05196 0.08108
-0.04213 -0.01611 -0.20183
0.12620 -0.02583 0.06306
-0.02383 -0.03326 -0.07374
-0.10476 0.01645 -0.03698
0.02714 0.05279 0.01055
-0.01364 -0.08961 -0.01059
-0.06504 0.00831 0.01179
0.15530 -0.07067 0.27724
0.04256 -0.01959 -0.06084
0.35250 0.05100 0.07373
0.01268 -0.04435 -0.00816
0.11811 0.04831 0.08887
0.32577 0.10262 0.13266
0.13920 -0.04254 0.05892
-0.09050 -0.00786 -0.26552
0.09449 -0.02821 0.05701
0.09022 -0.03501 0.01299
-0.05735 -0.02792 -0.03055
-0.01819 0.02727 -0.02522
-0.03700 -0.06776 -0.02290
0.14060 -0.04017 0.05558
0.13832 -0.03989 0.05031
0.11655 0.05867 0.04169
-0.02898 0.02765 -0.02707
-0.01670 -0.00654 -0.02185
-0.02528 0.03055 -0.04166
-0.03012 0.02025 -0.02805
-0.02448 -0.04396 -0.02738
-0.02640 0.00101 -0.02397
-0.13212 -0.01707 -0.34276
0.08831 -0.03573 0.01558
0.04652 -0.04015 0.00461
-0.04702 -0.03510 -0.02821
-0.03172 -0.05301 -0.02187
-0.03172 -0.05301 -0.02187
0.30386 0.07183 0.06258
0.06469 -0.03861 0.01148
-0.06204 -0.01506 -0.18698
0.03456 -0.03154 0.03854
0.33583 0.05378 0.11429
-0.13667 -0.00681 -0.34802
-0.04926 -0.06114 -0.00501
-0.04924 -0.06113 -0.00494
-0.03475 0.02971 -0.02955
-0.04720 -0.01673 -0.02115
-0.04720 -0.01673 -0.02115
-0.02049 -0.02108 -0.09269
0.36587 0.05471 0.07276
0.06110 -0.03304 0.07598
-0.02450 -0.02681 -0.07929
-0.04930 -0.01482 -0.16656
0.08676 0.03992 -0.12020
-0.03454 -0.03031 -0.02560
0.00237 0.04099 -0.05134
-0.05418 -0.05832 0.00702
0.15688 -0.05111 0.26568
0.15941 0.00387 0.02295
0.01114 -0.03883 -0.01099
-0.05816 -0.08678 0.02355
0.14177 -0.04702 0.05909
0.14043 -0.04704 0.05641
0.13979 -0.03889 0.20083
0.15819 0.01954 0.02718
0.00957 -0.04344 -0.00952
0.01619 -0.04434 -0.00489
0.26989 -0.07011 0.49422
0.04923 -0.03896 0.00289
0.33033 0.06529 0.07550
-0.06711 -0.01202 -0.24587
0.15827 0.02282 0.02716
0.12328 -0.02649 0.06401
0.26221 0.04108 0.13535
-0.01445 -0.07510 -0.01724
-0.03777 -0.09399 -0.01091
0.01907 -0.03761 -0.00952
-0.05646 -0.08133 0.02246
-0.01382 -0.03452 -0.02131
0.01336 -0.04167 -0.00590
0.01181 0.04815 -0.03463
0.03827 -0.03373 0.04263
-0.03055 -0.07598 -0.01836
-0.07918 -0.02679 -0.36012
-0.07918 -0.02679 -0.36012
0.03086 -0.02361 -0.11487
0.14105 -0.03658 0.14829
-0.02083 0.02281 -0.02457
0.09857 -0.02352 0.04987
0.28006 -0.06929 0.50091
-0.03119 -0.04768 -0.02083
-0.01570 -0.01402 -0.02129
0.06929 -0.04579 0.00528
0.16460 -0.05563 0.03516
-0.07958 0.04383 0.00029
-0.13240 0.01181 -0.05097
0.24523 0.07454 0.06897
-0.12275 0.00704 -0.03356
0.17554 -0.06285 0.04337
0.03078 -0.04465 -0.00566
0.09064 -0.03731 0.01064
-0.01874 0.04685 -0.05584
0.20845 0.02678 0.07244
0.16462 0.02600 0.02885
0.26593 0.07194 0.06176
0.25800 0.06847 0.11963
-0.08604 0.03760 -0.03269
-0.12065 0.02592 -0.18896
-0.00211 0.03166 -0.03928
-0.00249 0.03150 -0.03981
0.23597 0.04814 0.25501
0.18870 0.04292 0.17997
0.27056 0.05941 0.11284
-0.00216 0.03525 -0.03950
-0.01668 0.01379 -0.02371
0.23063 0.04766 0.04522
0.04574 0.05789 0.00120
-0.15973 0.00717 -0.37373
0.13926 0.03588 0.08720
-0.15638 0.01125 -0.39097
-0.15204 0.00679 -0.38528
-0.13825 0.00834 -0.34079
-0.00462 0.03168 -0.04179
-0.00411 0.03175 -0.04049
-0.15151 0.00699 -0.38460
0.23324 0.03989 0.08026
-0.05884 -0.08513 0.00567
-0.14047 0.01550 -0.33107
-0.08114 0.03125 -0.14758
-0.03706 -0.09623 0.00321
0.12265 -0.02882 0.01243
-0.15968 0.00645 -0.37362
0.05029 -0.03902 0.00194
0.00205 0.03764 -0.02514
0.09559 -0.02778 0.05209
-0.15217 0.00781 -0.38528
0.01377 -0.04455 -0.00581
-0.03514 -0.10177 0.00551
-0.03193 -0.03081 -0.12056
0.29621 0.03990 0.17442
0.23820 0.06911 0.36112
0.02204 -0.04017 -0.00712
0.12657 0.01023 0.07044
0.06395 -0.04094 0.01628
0.01316 -0.03407 -0.06526
-0.02253 -0.02644 -0.07689
0.10570 -0.03082 0.01576
0.00137 -0.04592 -0.01138
-0.08536 -0.01995 -0.22626
-0.11087 -0.00772 -0.28910
-0.08581 0.02442 -0.17855
-0.08163 -0.01648 -0.20186
-0.04717 -0.05885 -0.01206
-0.00443 0.03141 -0.04132
0.04588 -0.04141 0.00332
0.15173 0.06215 0.04539
0.10070 -0.03178 0.01935
-0.12490 -0.00499 -0.32000
0.01443 -0.04222 -0.01069
0.19675 0.06754 0.10979
0.05898 -0.03824 0.00515
-0.01058 0.03685 -0.04281
0.14488 -0.02670 0.02934
-0.08480 -0.01360 -0.21852
-0.12265 -0.00568 -0.31096
0.22790 0.07379 0.31472
-0.03514 -0.01670 -0.02604
0.08650 0.05838 0.03760
-0.11607 -0.01011 -0.30330
0.10538 0.06305 0.04389
-0.01498 -0.09339 -0.01127
-0.14160 0.01374 -0.34276
-0.13991 -0.00616 -0.34776
0.14178 -0.00826 0.09509
0.12799 -0.00767 0.07303
-0.06221 -0.02367 -0.02897
-0.04505 -0.01717 -0.20295
0.09714 -0.03611 0.02401
-0.03838 -0.01415 -0.21146
0.00523 -0.04970 0.01501
-0.10778 -0.01531 -0.27149
0.14496 -0.04347 0.04040
0.00027 -0.02112 -0.13542
-0.04954 -0.07110 0.02757
-0.05452 -0.01388 -0.22747
-0.12705 -0.00508 -0.31948
0.14579 -0.04169 0.10260
-0.12094 -0.01008 -0.30898
-0.04942 -0.08053 0.00110
-0.04870 -0.08120 0.00436
0.14409 -0.04549 0.01507
0.17151 0.02935 0.02595
0.14966 -0.01201 0.11809
-0.02929 -0.01612 -0.02383
-0.03839 0.03000 -0.03036
-0.06257 -0.00897 -0.23140
0.13401 0.04487 0.08147
0.06552 0.07519 0.05141
0.09984 -0.03353 0.02537
0.27077 0.05155 0.14659
-0.00510 -0.01738 -0.11458
-0.03775 0.00628 -0.02670
0.11045 -0.03460 0.02862
0.14382 -0.02757 0.02939
0.05985 -0.02895 -0.04494
-0.07704 -0.01428 -0.24202
-0.04445 -0.02158 -0.12813
-0.00973 -0.01556 -0.13184
-0.03479 0.02286 -0.02896
-0.03309 -0.10068 0.00061
-0.03983 -0.03126 -0.11361
-0.06641 -0.02129 -0.04306
-0.02781 -0.08070 -0.01122
0.33084 0.07567 0.17559
0.04193 -0.03535 -0.00241
-0.10004 -0.01038 -0.28422
0.00410 0.03474 -0.02644
-0.03351 -0.02183 -0.11217
-0.03425 0.02563 -0.02908
0.00247 -0.03977 -0.01351
0.00604 -0.03912 -0.01398
0.01556 -0.03839 -0.00953
0.16147 0.00345 0.03627
0.04208 -0.03414 -0.00824
-0.05532 -0.05513 0.00881
-0.12972 -0.00811 -0.32381
-0.05724 -0.05425 0.00792
0.14415 -0.01205 0.07733
0.13867 -0.02591 0.08075
0.11172 -0.03475 0.01884
-0.10701 -0.00866 -0.29512
-0.00520 -0.01824 -0.15928
0.10261 -0.02822 0.07063
-0.03704 0.03087 -0.03006
-0.12495 -0.00527 -0.31524
-0.02864 -0.01404 -0.15941
0.11050 -0.02745 0.01621
-0.10411 -0.00814 -0.28049
-0.09518 0.03392 -0.11187
0.14675 -0.03896 0.03906
0.09474 -0.03095 0.02181
-0.06339 -0.01200 -0.20101
0.14297 -0.04101 0.05164
0.13998 -0.04488 0.05495
-0.05782 -0.05410 0.01111
-0.13207 -0.00530 -0.34109
0.02660 -0.04142 -0.00659
0.06310 -0.03959 0.00862
0.12883 -0.00259 0.07095
-0.07865 -0.02304 -0.19593
0.04538 -0.02375 -0.01755
-0.08321 -0.01318 -0.22614
0.02711 -0.03899 -0.00516
-0.00809 -0.04442 -0.01200
-0.05133 -0.06223 0.00426
0.11956 -0.03526 0.02101
0.06523 -0.03469 0.00034
0.12689 -0.00998 0.07362
-0.05855 -0.07776 0.01922
0.14063 -0.02638 0.03169
-0.04973 -0.05623 -0.02078
-0.04754 -0.07835 0.00154
-0.03049 -0.05266 -0.02142
0.02014 0.05362 -0.01098
-0.04882 -0.04838 -0.00045
0.02578 0.03279 -0.15675
-0.05413 -0.06504 0.00603
-0.14848 0.01415 -0.34485
-0.02596 0.02014 -0.02592
0.15912 0.02505 0.02755
0.21140 0.06804 0.02606
-0.03451 -0.10847 0.01028
-0.06590 -0.06889 0.00642
0.16419 0.00258 0.02889
0.16818 0.05038 0.03852
0.07002 -0.03282 0.01608
-0.01251 -0.01611 -0.13620
-0.03390 0.00163 -0.02632
0.11595 -0.02209 0.05581
-0.06598 0.00632 -0.03688
-0.04956 -0.07089 -0.00129
0.02575 -0.01818 -0.12826
0.02561 -0.03233 -0.04513
0.04541 0.02281 0.16926
-0.05740 -0.06070 -0.00823
-0.05605 -0.04595 0.00644
-0.04898 -0.06713 -0.00469
-0.04849 -0.06759 -0.00264
-0.05541 -0.01502 -0.18842
0.04866 0.05729 0.00172
-0.04756 -0.04620 -0.00995
0.15265 0.01936 0.02019
-0.05052 -0.07531 0.00401
-0.04700 -0.03316 -0.02623
-0.08741 -0.00392 -0.30421
-0.01439 -0.03012 -0.02220
-0.11542 -0.00711 -0.29873
0.17554 -0.06285 0.04337
0.00495 -0.04636 -0.00905
-0.05831 -0.05189 0.01351
-0.06674 -0.00658 -0.27123
-0.04524 0.00056 -0.05768
-0.01932 -0.02830 -0.06551
-0.02898 0.00784 -0.02418
-0.06256 -0.00689 -0.03439
-0.01400 -0.07919 -0.01382
-0.02553 -0.03879 -0.02332
0.13744 -0.05491 0.26517
-0.02914 -0.02028 -0.02357
-0.06853 -0.01558 -0.19715
0.14352 -0.05266 0.05541
-0.01361 0.05388 -0.07367
-0.03033 -0.03961 -0.02398
-0.04496 -0.00803 0.03228
-0.08988 -0.01726 -0.24854
0.14343 0.02321 0.03374
0.17460 0.06432 0.08374
0.03626 0.05010 -0.02186
0.10546 -0.02981 0.06686
-0.05044 -0.04454 -0.00935
-0.00109 -0.04758 -0.01332
-0.00112 0.06135 -0.06586
0.06067 0.05059 -0.02029
0.05414 0.05734 0.00574
-0.01130 -0.03890 -0.01403
0.00683 -0.03656 0.01285
-0.03071 0.00065 -0.02544
0.01243 0.05500 -0.02117
-0.02641 -0.07806 -0.01774
-0.03337 0.03171 -0.02722
-0.03424 0.02724 -0.03154
-0.02448 0.02807 -0.02574
-0.04119 0.04618 -0.05195
-0.07154 0.00393 0.00329
0.20882 0.04562 0.02001
0.20513 0.05109 0.02510
0.19373 0.05017 0.01771
0.19422 0.04431 0.00668
0.32144 0.04226 0.19956
-0.06401 0.01398 0.00112
0.28859 0.03836 0.16875
-0.07285 -0.01572 -0.03851
0.24237 0.05377 0.06122
-0.08999 0.00526 -0.04193
0.17092 0.05384 -0.02427
-0.08296 -0.00978 0.00577
0.22664 0.05852 0.04290
-0.05114 -0.01586 -0.01155
0.21883 0.04633 0.08149
-0.06894 -0.00558 -0.00104
-0.06514 0.01364 0.01125
0.25541 0.03437 0.12441
-0.15579 -0.00167 -0.38094
0.22840 0.04639 0.08344
-0.15611 0.00509 -0.38121
-0.15464 0.00762 -0.38127
0.23716 0.04574 0.09298
-0.03329 0.02715 -0.02866
0.22805 0.03797 0.09591
-0.04840 -0.01639 -0.01541
0.21358 0.05317 0.03325
0.23314 0.02989 0.10118
-0.06980 -0.02732 0.01244
-0.03829 0.02731 -0.02996
-0.15615 0.00749 -0.38146
-0.03689 0.02688 -0.03208
-0.06201 -0.02651 -0.00077
-0.05645 0.04804 -0.04596
-0.08415 -0.02176 -0.02834
0.22936 0.06330 0.09713
-0.03442 0.00747 -0.02518
-0.04847 -0.00161 -0.01906
-0.04937 -0.00154 -0.02222
-0.14392 0.00137 -0.37096
0.22279 0.05574 0.07725
-0.14767 0.00692 -0.40141
-0.04895 0.03649 -0.02821
0.23626 0.06534 0.08478
-0.05995 -0.00814 -0.01090
-0.09139 0.02012 -0.16305
0.14413 -0.03671 0.03843
0.03831 -0.04029 -0.00173
0.00855 0.06542 -0.05288
-0.08950 0.00162 -0.03486
0.09381 -0.02655 0.05207
-0.12633 -0.00139 -0.36106
0.12284 -0.03106 0.02331
0.04761 0.04755 -0.08028
0.07615 0.05990 0.00939
-0.06860 0.02371 -0.13690
0.01503 -0.02468 -0.05410
0.01289 0.04602 -0.13582
0.11182 0.06862 0.01747
-0.09571 0.03773 -0.01994
-0.08613 0.03599 -0.03337
0.04574 0.05789 0.00120
-0.00335 0.03792 -0.03840
-0.00334 0.03778 -0.03872
0.14908 -0.07301 0.05784
0.13940 0.04829 0.03011
-0.16879 0.03251 -0.06295
-0.03374 0.03313 -0.06894
-0.05152 -0.07597 0.00618
-0.16372 0.03208 -0.06502
-0.01527 -0.00947 -0.02051
-0.07189 0.04003 0.00047
0.29814 0.04809 0.09229
-0.09680 0.00715 -0.05845
-0.02173 -0.07477 -0.01648
-0.07476 -0.01299 -0.04432
-0.04546 -0.06585 -0.01140
-0.01575 -0.08155 -0.01332
-0.03776 -0.07381 -0.02958
-0.14917 0.02868 -0.07317
0.14823 0.07291 -0.00683
-0.07638 -0.01050 -0.03744
-0.08435 0.04211 0.00914
-0.05700 -0.08683 0.02071
-0.00734 -0.04681 -0.01413
-0.06419 -0.00885 -0.03342
-0.14225 0.02558 -0.03531
-0.00434 0.04054 -0.04012
-0.03902 -0.09743 -0.01181
0.05583 -0.03834 0.00445
-0.09239 0.00542 -0.04247
-0.05713 -0.05566 0.01320
-0.09333 0.03774 -0.06304
0.16891 -0.04180 0.03483
-0.07289 -0.01905 -0.05352
-0.11305 0.07544 0.22583
-0.02385 -0.08931 -0.00381
-0.07938 -0.01860 0.00805
-0.07886 -0.01881 0.00990
0.15259 0.06338 -0.00165
-0.04730 -0.06088 -0.00851
0.34531 0.05036 0.13063
0.12913 0.07129 0.02520
0.13111 -0.05558 0.07185
-0.04918 -0.06027 -0.00229
0.16861 -0.06627 0.03637
0.19079 0.05949 0.06442
0.04916 -0.03979 0.00226
0.06561 0.05275 -0.01141
0.01845 -0.04305 -0.00694
-0.04118 -0.06470 -0.02101
-0.05234 -0.06919 0.01286
0.14468 -0.04301 0.04770
0.10804 -0.02664 0.05508
-0.05054 -0.06460 0.00206
-0.06695 0.02106 -0.04107
0.00162 -0.04491 -0.01085
0.17450 -0.04847 0.03558
0.34095 0.04681 0.12098
-0.05146 -0.04939 -0.00224
0.13098 -0.05625 0.07396
0.03666 -0.04104 -0.00096
-0.13906 0.06829 0.01758
-0.05177 -0.07294 0.00876
0.11949 0.07064 0.02246
-0.01402 -0.01560 -0.01925
0.00459 -0.04410 -0.01157
0.07048 -0.04136 0.00565
0.00608 -0.04411 -0.00911
0.03419 -0.03831 -0.01422
-0.05751 -0.02771 -0.03116
-0.03714 0.03101 -0.02988
0.01913 -0.03797 -0.00890
0.33883 -0.05260 0.34117
0.13337 -0.02493 0.07463
0.11178 0.06750 0.04316
0.04383 -0.03254 -0.01360
-0.05171 0.01277 0.02846
0.15601 0.06851 0.18957
-0.06261 -0.06392 0.02150
-0.03967 -0.09409 0.01336
0.14469 -0.05195 0.04894
-0.06940 0.04242 -0.04164
0.15157 0.06974 0.14692
-0.02768 0.00239 -0.02469
-0.04701 -0.06007 -0.00896
0.16965 0.06235 0.07189
0.12259 0.07128 0.02081
-0.04102 0.03180 -0.04566
-0.03382 -0.05272 -0.02256
0.05240 -0.02813 0.03697
0.14496 -0.02664 0.02949
-0.05015 0.00002 -0.02014
0.13050 0.01257 0.06617
-0.00305 -0.04825 -0.01241
-0.04148 0.03350 -0.03884
0.15158 -0.06801 0.03502
0.15129 -0.06796 0.03478
-0.09586 0.04007 -0.05053
0.02213 -0.04222 -0.00541
0.08997 -0.03238 0.00333
0.12283 0.02840 0.06290
-0.01282 -0.04039 -0.01808
-0.02637 0.02132 -0.02691
-0.06267 -0.00932 -0.02887
0.10759 0.06897 0.01363
0.12983 -0.02539 0.02215
-0.13369 0.04737 -0.05838
-0.03975 -0.05637 -0.02642
0.05500 -0.04031 0.00303
0.12532 -0.02577 0.02030
0.15116 0.04499 0.04693
-0.03493 -0.10789 0.00862
0.13084 0.06496 0.02296
-0.04878 0.04046 -0.00374
-0.06539 0.01966 -0.03860
-0.04982 0.04808 0.03241
-0.04645 -0.03705 -0.02649
-0.04498 0.05253 -0.06469
0.01072 0.05430 -0.03524
-0.03125 0.03007 -0.03012
-0.15927 0.02451 -0.06160
0.10312 -0.02112 0.02868
-0.04239 -0.06746 0.02286
0.04724 0.05711 -0.00024
-0.02355 -0.01771 -0.02128
0.16668 -0.02258 0.03094
-0.01613 0.01021 -0.02341
0.09608 -0.02921 0.01243
-0.05514 -0.03408 -0.02987
-0.03474 -0.06013 -0.02250
-0.01853 0.03890 -0.04994
0.01538 -0.04339 -0.00548
0.11827 -0.02164 0.04638
0.12959 -0.02268 0.06062
0.12863 -0.02306 0.05980
-0.04992 -0.01892 0.04978
0.05932 0.05663 0.00369
-0.05391 -0.03370 -0.02733
-0.03138 0.03178 -0.03556
-0.00010 -0.04336 -0.01111
-0.03716 0.00739 -0.02869
-0.05171 -0.07172 0.00474
-0.10721 0.03741 -0.04314
-0.02469 -0.06101 -0.02028
-0.04847 0.01100 -0.02622
-0.02088 -0.05867 -0.01879
-0.02088 -0.05867 -0.01879
0.01601 0.04309 -0.01478
0.07395 0.07177 0.04061
0.12484 0.08576 0.09994
-0.02458 -0.05564 -0.02184
0.14944 0.05152 -0.00150
0.15392 0.05174 0.00272
-0.03234 0.01571 -0.02809
0.15804 -0.02426 0.02895
0.15324 -0.05128 0.02912
0.11828 -0.03859 0.01959
-0.05062 -0.03567 -0.02345
-0.11187 0.03809 -0.02374
-0.04996 -0.03578 -0.02664
-0.02635 0.05235 -0.24304
-0.06419 -0.03265 0.01382
-0.03887 -0.07377 0.03575
0.07383 -0.03854 -0.00244
-0.03173 -0.05185 -0.02257
0.14126 0.00384 0.04234
0.15459 0.05162 0.00029
-0.06457 0.03578 -0.08167
0.33845 0.03972 0.11383
-0.02984 -0.06334 -0.01996
0.13500 -0.01981 0.06042
0.33405 0.05392 0.11269
0.00776 0.05210 -0.03637
-0.04922 -0.05713 -0.00283
-0.02377 -0.06464 -0.01933
-0.06654 0.01241 -0.03720
0.14051 -0.04985 0.05855
-0.06391 -0.02000 0.01189
0.16313 -0.01752 0.03012
-0.15497 0.03164 -0.04599
0.02017 0.05100 0.08875
-0.05144 0.00673 -0.01371
-0.04494 0.05512 -0.06478
0.14797 -0.03553 0.02493
-0.02873 0.03038 -0.02882
0.15782 0.04514 0.02662
0.20997 0.04947 0.08212
0.14080 -0.04244 0.04912
-0.05670 -0.04120 0.00733
0.13604 0.01172 0.04960
-0.05493 -0.03479 -0.04220
-0.03287 -0.05620 -0.02477
0.18161 -0.01292 0.03756
-0.02660 -0.05184 -0.02062
-0.03048 -0.04494 -0.02584
0.15280 0.05715 0.02286
-0.05952 0.00265 0.00627
-0.03218 0.01589 -0.02769
-0.01460 -0.08740 -0.00854
0.14437 -0.04766 0.05389
-0.02991 0.02869 -0.02905
0.15999 -0.03055 0.02939
-0.03520 -0.02963 -0.03193
-0.03139 -0.02989 -0.02449
0.07606 -0.03185 0.00691
-0.02749 0.00611 -0.02537
-0.00993 -0.04608 -0.01474
0.02348 -0.04556 -0.00693
-0.02661 -0.01780 -0.02263
-0.04746 -0.06424 -0.00675
-0.05145 -0.06630 0.00130
0.14400 -0.03636 0.03362
0.16011 0.02597 0.02712
-0.01447 -0.08243 -0.01386
-0.04843 -0.07272 -0.00588
0.14277 -0.04750 0.05102
-0.06651 -0.02874 0.00760
-0.02460 0.02805 -0.02623
-0.02087 -0.06985 -0.01652
0.05126 -0.04077 0.00189
0.15968 -0.05791 0.03564
-0.01199 0.02566 -0.02401
-0.02294 0.02919 -0.04807
-0.00336 0.03566 -0.04201
-0.00529 -0.04452 -0.01396
-0.03961 0.03084 -0.03066
0.04207 -0.04024 0.00031
-0.00282 0.03236 -0.03488
-0.02623 0.03067 -0.04618
-0.00160 0.02396 -0.03722
-0.02752 -0.04010 -0.02551
-0.05958 -0.01115 -0.02387
-0.05361 -0.01127 -0.01256
-0.03188 -0.07659 -0.01454
-0.01334 -0.07728 -0.01379
-0.02733 0.00736 -0.02457
-0.01121 0.03333 -0.04201
-0.03894 -0.04013 -0.00748
0.12483 -0.02933 0.09771
0.07690 0.05096 -0.00253
-0.05815 -0.05519 0.00534
0.11659 -0.02166 0.04135
-0.07364 0.04211 -0.04296
0.15647 0.05167 -0.00134
0.00231 0.05286 -0.08870
-0.00985 0.05400 -0.07550
-0.01624 0.03540 -0.03264
-0.01697 0.03565 -0.03047
-0.00764 0.02302 -0.04912
-0.00897 0.03042 -0.05215
-0.11503 -0.02082 -0.32063
-0.11536 -0.02279 -0.31926
-0.08614 -0.01848 -0.10045
-0.01363 0.03266 -0.04494
-0.06642 -0.01980 -0.20234
0.00611 -0.04555 -0.00904
0.00602 -0.04558 -0.00929
-0.05192 -0.03274 -0.03038
-0.01978 -0.03095 -0.10958
0.01064 -0.04675 0.01694
-0.07791 0.02651 -0.22844
-0.07791 0.02651 -0.22844
-0.11596 -0.02021 -0.31830
-0.06701 -0.01912 -0.03659
-0.12101 -0.01693 -0.31502
-0.01029 -0.04688 -0.01418
-0.00389 0.03324 -0.03950
-0.06269 -0.06938 -0.11768
-0.00376 0.03632 -0.04156
-0.07484 -0.01187 -0.03906
-0.06311 -0.01389 -0.03325
-0.07224 -0.01639 -0.03336
0.05968 -0.02562 0.06365
-0.07033 -0.01425 -0.23519
-0.00394 0.03411 -0.03955
-0.04809 -0.01965 -0.14874
0.39385 -0.10411 0.84598
-0.04387 -0.02681 -0.15274
-0.07876 -0.00385 -0.04021
-0.02831 0.02941 -0.05321
-0.00500 0.03802 -0.04411
-0.08206 -0.01378 -0.21613
0.12322 -0.05497 0.26549
-0.06890 -0.01449 -0.20309
0.01855 0.05997 -0.03295
-0.03857 0.00333 -0.02763
-0.01862 0.03894 -0.04977
0.00388 -0.04557 -0.00901
0.04454 -0.03123 0.01937
-0.02783 0.00442 -0.02472
-0.01526 0.03368 -0.04747
-0.01450 0.03990 -0.04638
-0.03114 0.04641 -0.05477
0.08363 -0.04942 0.15153
-0.08155 -0.00912 -0.25150
-0.11578 -0.02036 -0.31837
-0.05200 -0.01771 -0.15878
-0.05200 -0.01771 -0.15878
-0.03177 0.02603 -0.02771
-0.01352 -0.08896 -0.00983
-0.04667 -0.07045 -0.00637
-0.04539 0.02603 -0.05564
-0.06461 -0.01612 -0.03379
0.00977 -0.04390 -0.01562
-0.03431 0.03101 -0.02716
0.02656 0.05421 -0.01861
-0.07288 -0.01143 -0.03523
-0.00725 0.04291 -0.05893
0.02059 -0.03368 0.02487
-0.11332 0.01518 -0.31740
-0.06466 -0.02107 -0.03254
-0.00324 0.04884 -0.04339
0.02669 -0.05189 0.05351
-0.01379 -0.05356 -0.01921
-0.07772 -0.00413 -0.03900
0.01724 -0.04163 -0.00713
-0.00050 0.03923 -0.03886
-0.06443 -0.01957 -0.02698
-0.13011 -0.00827 -0.32434
-0.04146 0.00775 0.04410
-0.04146 0.00775 0.04410
-0.04976 -0.02283 -0.08848
-0.04976 -0.02283 -0.08848
-0.05663 -0.04378 0.00275
-0.05053 -0.06417 0.00734
-0.00326 0.04056 -0.03878
-0.03662 0.02515 -0.02933
-0.07935 0.04497 -0.04656
-0.02149 0.03081 -0.04834
-0.01502 -0.01493 -0.02050
-0.06409 -0.01883 -0.01620
-0.12058 -0.01617 -0.31489
-0.03840 -0.01413 -0.17250
-0.05050 -0.06382 0.02943
-0.02745 -0.05287 -0.02061
-0.02745 -0.05287 -0.02061
-0.02036 -0.05164 0.01150
-0.03183 0.01786 -0.02774
-0.00359 -0.04031 -0.03459
0.00492 -0.03956 -0.03128
0.10549 -0.04398 0.19953
-0.01376 -0.03201 -0.02163
0.09401 -0.05274 0.20480
0.01762 0.05525 -0.02035
-0.03598 -0.10113 0.00904
-0.04781 -0.04630 -0.01016
-0.01360 0.04136 -0.06887
-0.06293 -0.00863 -0.22490
-0.02801 -0.06278 -0.01980
-0.11281 0.00864 -0.32754
-0.06613 0.03238 -0.13383
0.04484 -0.03357 0.04465
-0.01583 -0.08904 -0.01127
-0.06335 -0.01677 -0.03638
-0.00628 0.00303 0.05721
-0.00268 0.00308 0.07018
-0.00461 -0.02134 -0.08588
-0.08492 -0.00868 -0.28220
-0.05018 0.00006 -0.02022
-0.03979 -0.09690 0.01301
-0.01563 -0.00923 -0.02145
-0.03491 -0.04971 -0.02464
-0.03722 -0.02287 -0.02533
-0.05137 -0.04889 -0.00265
-0.03381 0.01656 -0.04629
0.01844 -0.04410 -0.00657
-0.06387 0.00855 -0.03469
-0.09991 -0.01107 -0.17282
-0.03120 0.02798 -0.02726
0.01243 0.06040 -0.02665
0.01628 -0.03865 0.04072
-0.05673 -0.01586 -0.01069
0.02130 0.05177 -0.00539
-0.03526 0.02943 -0.04470
0.02319 0.05094 -0.02411
-0.05278 -0.06985 0.03077
0.15309 -0.07805 0.06144
-0.06424 -0.05243 0.01949
-0.03930 0.02461 -0.03003
0.17755 -0.04483 0.03757
-0.03148 -0.04100 -0.02556
0.06096 -0.03615 0.00480
-0.02279 -0.04079 -0.02374
-0.03248 0.02617 -0.02559
-0.01159 -0.05113 -0.01533
0.07508 -0.04324 0.00720
0.17780 -0.00424 0.03622
0.10151 0.09663 0.07650
0.17548 -0.05960 0.04296
-0.01515 -0.09057 -0.01174
0.08082 -0.06725 0.11435
0.09308 -0.06890 0.15664
-0.08208 0.02097 -0.01781
-0.01467 0.03231 -0.04859
0.13834 -0.05243 0.06145
0.17001 -0.06439 0.05504
0.01233 -0.03228 -0.13055
-0.02671 -0.07974 -0.01782
0.10536 -0.03433 0.01646
0.33237 0.07708 0.18144
-0.11205 0.03333 -0.11201
0.10404 0.09659 0.07364
-0.08069 0.04172 -0.01537
0.17403 0.00942 0.03117
0.06840 -0.04496 0.00578
0.09273 -0.03139 0.00132
0.07127 0.07037 -0.01213
-0.01570 -0.09052 -0.01081
-0.01461 -0.00673 -0.02164
-0.09664 0.03504 -0.06793
-0.01476 -0.01513 -0.02054
0.12361 0.01048 0.06132
-0.09140 0.03950 -0.02795
-0.01260 0.03281 -0.04486
-0.08955 0.03982 -0.03876
0.18819 0.00946 0.03949
-0.01625 0.03439 -0.04255
-0.10298 0.01287 -0.04350
0.17973 -0.05120 0.03886
0.12622 0.01108 0.05622
-0.10533 0.04937 0.06190
0.10790 0.08722 0.28624
0.04979 -0.06293 0.00318
-0.09915 0.04050 -0.02890
-0.08834 0.04257 -0.01587
0.14124 0.08213 0.33570
0.18023 -0.05263 0.03859
0.07641 0.06379 0.12300
0.07682 0.05265 -0.00361
0.17439 0.00501 0.03194
-0.09793 0.03892 -0.02525
-0.03718 -0.00002 -0.02714
0.17209 -0.05445 0.04239
-0.08748 0.04110 -0.01443
0.03952 0.05023 -0.00761
0.07722 0.11879 0.26441
0.07722 0.11879 0.26441
0.17974 -0.03664 0.03650
-0.00949 0.04355 -0.03474
-0.01121 -0.06822 -0.01458
0.08129 0.11852 0.26458
0.07173 0.11444 0.27270
0.06790 -0.04388 0.00545
0.17778 0.03583 -0.00552
0.17715 -0.06808 0.04414
0.03691 0.08436 0.00630
0.08564 0.11577 0.27647
0.08439 0.11976 0.25908
0.07947 0.11666 0.26589
0.20567 0.04885 0.08526
0.09287 0.07836 0.41867
0.08716 0.08632 0.30701
0.04704 -0.03089 -0.09054
0.12043 0.07460 0.43539
-0.00424 0.03146 -0.10500
0.02812 0.04319 -0.07003
0.14031 0.07714 0.33909
0.13208 0.08069 0.36407
0.09597 0.12262 0.27353
0.07296 0.10932 0.25793
0.07147 0.11935 0.27156
-0.09869 0.00766 -0.03906
0.08008 0.12113 0.25951
0.05341 0.08745 0.15997
0.06864 -0.04682 0.00600
0.09361 -0.04385 0.16458
0.10513 -0.04969 0.23517
0.03414 -0.04129 -0.00888
0.07923 0.12022 0.27271
-0.04579 0.05569 -0.06419
0.07744 0.11223 0.29621
0.06313 -0.04459 0.00397
0.09002 0.07921 0.42087
0.08388 0.11140 0.27234
-0.11597 0.04159 -0.02116
0.13288 0.08691 0.43080
0.09452 -0.03289 0.01743
-0.03283 -0.09821 -0.00395
0.10996 0.05830 0.00985
-0.03357 0.02845 -0.06058
0.04297 -0.02891 -0.12639
-0.03106 0.01983 -0.03732
0.07427 0.11731 0.25895
0.06504 -0.04222 0.00469
-0.00376 0.03423 -0.03663
0.04956 0.04394 -0.08983
0.16796 -0.02558 0.03358
0.03524 0.05160 -0.00826
0.06896 0.07234 0.18494
0.06896 0.07234 0.18494
-0.03961 0.04273 -0.01911
0.09164 -0.04501 0.12987
0.12342 0.03174 0.05971
0.17457 0.03792 -0.02258
0.07540 -0.04001 0.00473
0.05011 -0.03088 -0.11281
0.15185 0.02273 0.02526
0.16355 0.02038 0.02873
-0.02414 -0.04038 -0.02214
0.07522 -0.04415 0.00694
0.15528 -0.02023 0.02863
0.07708 -0.03041 -0.03384
0.15457 -0.00156 0.02803
0.09487 0.08209 0.43457
0.16275 0.04011 0.02751
0.10530 0.12129 0.32085
0.07323 -0.04183 0.00743
0.14672 -0.02908 0.05256
0.08780 0.11706 0.26877
0.14521 0.07921 0.41011
0.13463 -0.03605 0.05214
0.15449 0.00210 0.02799
0.02498 -0.03390 0.05389
0.16520 -0.04319 0.03500
0.08356 -0.03177 0.14932
0.16508 -0.04131 0.03483
-0.12737 0.07703 0.06799
0.15734 0.05002 0.02257
0.05767 -0.02820 0.02949
-0.02962 -0.04010 -0.02998
-0.03106 -0.01628 -0.02352
-0.12103 0.05664 0.03455
-0.11851 -0.00844 -0.48360
0.07674 0.06798 0.12585
-0.02740 0.01829 -0.02723
0.01673 -0.03436 -0.12130
0.15977 -0.00123 0.02978
-0.05563 0.01188 -0.34469
0.01445 0.04787 -0.03490
0.03604 -0.03414 0.09054
0.29080 0.06684 0.03784
0.22810 0.07567 0.33575
0.01731 0.03919 -0.11770
0.13874 0.07043 0.36509
0.02640 -0.02816 -0.04293
-0.10514 0.05098 0.06153
0.05415 0.04963 -0.03751
0.02886 0.04965 -0.02052
0.15801 -0.02751 0.01407
0.15106 0.04318 0.02265
0.12088 0.06921 0.01666
-0.08674 0.04654 0.01585
-0.02797 -0.06545 -0.02277
0.15947 -0.03085 0.03236
0.11872 0.07661 0.42563
0.15172 0.03596 0.01132
0.15999 0.02573 0.02719
0.07843 0.10407 0.25726
0.13800 0.07407 0.41168
-0.02662 0.00347 -0.02430
0.06957 -0.04551 0.00548
-0.02772 -0.06710 -0.01964
-0.03809 0.00517 -0.02910
-0.01372 -0.02908 -0.01860
-0.01693 0.00903 -0.02302
-0.01081 -0.07294 -0.01456
0.16310 0.04000 0.02646
0.14482 -0.03849 0.03394
-0.01636 0.01269 -0.02355
-0.04770 0.05844 -0.03694
0.11537 0.03377 0.05634
-0.08355 0.04260 -0.01554
-0.13504 0.03626 -0.04063
-0.09455 -0.02266 -0.44773
0.12213 0.07980 0.43263
0.00543 -0.04565 -0.01751
0.01917 0.03673 -0.04810
0.14136 -0.04635 0.27020
0.00980 0.03387 -0.07434
0.04183 0.05130 -0.01085
0.23214 0.06809 0.35013
0.15137 -0.04210 0.20773
0.14458 0.08530 0.45015
-0.04197 0.04616 -0.05083
-0.12409 0.05356 -0.00047
0.06370 -0.02437 -0.02822
0.23533 0.07587 0.33940
-0.09518 0.04036 -0.04596
0.11785 -0.02266 0.06150
0.01801 0.04800 0.01717
-0.06776 -0.01941 -0.03379
0.15356 -0.07556 0.04039
0.16094 -0.08549 0.10019
0.30940 0.06869 0.22872
0.24506 0.06432 0.04764
0.26107 0.07086 0.05705
0.25529 0.07548 0.14742
0.08501 0.04469 0.01492
0.27308 0.07458 0.05967
0.18315 0.06090 -0.02092
0.15969 0.00269 0.03005
-0.02427 -0.07805 -0.00944
0.01092 0.01406 -0.01614
-0.07829 -0.00544 -0.03708
-0.05157 -0.08206 -0.00584
-0.09172 0.00110 -0.04505
0.14584 -0.04298 0.03923
-0.06185 -0.07185 0.00535
0.15432 -0.08130 0.06077
0.17737 -0.04840 0.03679
-0.06909 -0.07197 0.01483
0.20112 0.04946 0.09484
0.13942 -0.05697 0.05547
0.20036 0.06451 0.00772
0.16366 0.02547 0.03252
-0.06781 -0.03058 -0.01319
0.28623 0.08184 0.12836
-0.04135 0.03592 -0.09930
0.22501 0.07314 0.06843
-0.06741 -0.02853 -0.02078
0.03673 0.04221 -0.06783
0.20635 0.05412 0.06937
-0.00808 0.07559 -0.03041
0.16239 -0.04605 0.03752
-0.12603 0.03690 -0.04954
-0.09555 0.03866 -0.05199
-0.07199 0.04154 -0.03528
0.15746 -0.02677 0.03242
-0.03626 -0.01804 -0.02529
0.15628 0.04869 0.02822
-0.05435 -0.07759 -0.00332
0.15334 -0.07317 0.03945
-0.08904 0.03796 -0.06846
-0.12142 0.03875 -0.04653
-0.05792 -0.08541 -0.00397
0.15338 0.01960 0.02574
0.02397 0.04113 -0.08311
0.09815 -0.02232 -0.01056
0.20346 0.04201 0.02082
0.15313 0.02442 0.02529
0.15332 0.02443 0.02564
0.21351 0.03970 -0.14825
-0.12767 0.03124 -0.06166
0.16123 -0.03057 0.03443
0.25890 0.07244 0.04880
-0.07870 -0.02005 -0.02622
-0.06542 -0.02806 -0.01734
0.15804 0.02602 0.02615
0.26353 0.09124 0.22710
-0.06332 0.04289 -0.03730
0.15472 -0.00143 0.02843
-0.06145 0.01251 -0.00998
0.15217 0.01902 0.02469
0.16040 -0.00125 0.03391
0.13514 -0.04053 0.05785
-0.08392 0.03708 -0.06357
-0.03780 -0.09175 -0.02223
0.24773 0.07428 0.10563
0.26159 0.07648 0.14395
0.14243 -0.04713 0.04802
-0.11232 0.01011 -0.02063
0.16394 0.04044 0.03203
0.08009 0.05573 0.00494
0.08011 0.05540 0.00346
0.16797 -0.05400 0.03774
0.15470 0.00218 0.02842
0.19264 0.00930 0.06598
-0.06119 -0.06361 0.00854
-0.09703 0.00520 -0.03965
-0.06288 -0.09223 0.01291
0.05901 0.04346 -0.10032
0.15802 0.04043 0.02323
0.12944 -0.03214 0.08648
0.12947 -0.03241 0.08652
0.21232 0.05709 0.04008
-0.00673 0.04187 -0.02322
0.14541 -0.03714 0.04692
0.15964 0.02039 0.02982
-0.09408 -0.00901 -0.02431
0.22722 0.06612 0.05994
0.15941 0.02244 0.02752
-0.06149 -0.08834 0.00758
0.20477 0.04873 0.08603
0.15767 -0.02893 0.03330
0.15770 -0.02890 0.03343
-0.12228 0.02170 -0.05252
-0.03211 -0.04618 -0.02399
0.20393 0.05876 0.03900
-0.09060 0.03919 -0.06134
0.16464 -0.02825 0.03545
0.15548 0.03976 0.02263
-0.03321 0.03101 -0.03767
0.15363 -0.00070 0.02869
0.07891 0.05249 -0.00897
0.18187 -0.00535 0.03794
-0.06454 -0.01336 -0.01074
-0.03185 -0.09816 -0.01050
0.02613 0.05044 -0.01822
0.11811 0.04683 0.05718
0.27320 0.05776 0.20248
-0.02527 0.00465 -0.02431
0.14202 -0.03506 0.03223
-0.03473 -0.01847 -0.02491
-0.03742 -0.09603 -0.01090
0.14991 0.05061 0.02065
-0.04714 0.04046 0.02129
-0.04027 -0.09108 -0.01891
0.14142 -0.02560 0.03326
-0.08245 -0.01012 0.00871
0.16423 -0.01963 0.02938
0.16449 -0.01967 0.02996
0.17974 0.04508 -0.01414
-0.12124 0.03570 -0.08845
-0.11057 0.00189 -0.00667
0.11614 -0.01574 -0.02085
0.14352 -0.04321 0.04272
0.16646 -0.02052 0.03088
0.13172 -0.05233 0.07918
0.14772 -0.04939 0.03673
-0.00103 0.04357 -0.03999
0.21816 0.06211 0.08902
-0.08947 -0.00743 -0.03033
-0.03457 -0.02086 -0.02511
0.15314 -0.07021 0.03905
0.25784 0.07413 0.11479
0.17031 -0.04889 0.03957
0.13653 -0.02799 0.02705
0.30441 0.07034 0.25432
0.13506 -0.04470 0.06218
0.08821 -0.03490 0.01200
0.24709 0.07717 0.08629
0.13551 -0.04867 0.05770
0.14171 0.03519 0.02491
-0.03448 -0.09701 -0.00524
-0.07230 -0.01387 -0.05361
-0.08070 -0.01174 -0.03723
-0.00228 -0.04000 -0.01563
0.16210 -0.04183 0.03690
0.07515 -0.04307 0.00685
0.12415 0.01112 0.05743
0.13083 -0.02919 0.04054
-0.00663 -0.04026 -0.01678
0.12852 -0.02839 0.00680
0.15284 -0.04988 0.03073
0.09145 -0.02949 0.01025
-0.11667 0.03493 -0.07262
-0.03191 0.00182 -0.02509
-0.03186 0.00175 -0.02562
0.02590 0.05081 -0.01103
0.24548 0.06980 0.10501
0.07618 -0.03711 0.00700
-0.03395 0.02800 -0.01979
-0.09045 -0.01280 -0.00706
-0.11775 0.03584 -0.05950
0.15031 -0.04267 0.03232
-0.00064 0.04350 -0.01121
-0.04422 -0.05516 -0.04097
0.17706 -0.00729 0.03541
0.03562 0.04848 -0.01542
-0.00707 0.04066 -0.05386
0.05592 0.06301 0.11612
-0.06763 -0.05604 0.00187
0.12739 0.07532 0.18114
0.12452 -0.03112 0.02244
-0.02349 -0.02188 -0.02192
0.11914 0.05514 0.04066
-0.03859 0.02933 -0.03340
0.13663 -0.05397 0.06172
-0.00540 -0.04285 -0.01424
0.23425 0.06512 -0.00432
-0.02649 -0.02031 -0.02248
-0.03495 -0.00008 -0.02672
0.17651 -0.06018 0.04833
-0.04642 -0.03061 0.00796
0.02834 0.04372 -0.07821
0.16441 0.04584 0.02530
-0.02859 0.02448 -0.02721
0.16776 -0.02676 0.03477
-0.03773 0.01750 -0.02919
-0.06760 0.00950 -0.00649
-0.02616 0.02568 -0.02683
-0.03094 0.03139 -0.02908
0.18425 0.06331 0.00033
-0.04670 -0.05693 -0.02470
0.20785 0.05104 0.08611
0.12006 0.06020 0.05826
0.22603 0.05833 -0.09015
0.31896 0.05420 0.23503
0.10686 0.05085 0.09366
0.09206 -0.02394 0.02220
-0.11164 0.00874 -0.02717
-0.00289 -0.02470 0.00733
0.17984 0.03764 0.05465
0.10587 0.06472 0.07215
-0.03525 -0.04695 -0.02375
0.10572 -0.03343 0.01681
0.08625 -0.03552 0.01464
-0.02019 0.04782 -0.04591
-0.09609 0.08264 0.01779
0.23786 0.07193 0.05053
-0.02581 -0.06300 -0.02904
-0.09400 0.03792 -0.04620
-0.02365 -0.04546 -0.02194
-0.03939 -0.09796 0.01142
-0.05246 0.00693 -0.02620
0.14695 0.05263 -0.01217
-0.03883 0.01672 -0.02977
-0.06549 0.01303 -0.03807
-0.06678 0.02030 0.01153
-0.05186 -0.07406 0.02054
0.14797 -0.02184 0.05428
-0.00784 -0.02210 -0.01063
-0.11006 0.03505 -0.04638
-0.07553 0.03729 -0.02052
-0.11280 0.01394 -0.05296
-0.11257 0.01420 -0.05042
-0.08919 0.03613 -0.03869
-0.06763 0.04108 0.00945
0.23801 0.05664 0.28534
-0.03868 -0.09891 0.01266
0.22539 0.05445 0.26335
-0.09098 0.01140 -0.04386
-0.07496 0.01489 0.00402
0.23611 0.05254 0.05773
-0.06730 0.02469 0.01319
0.13188 -0.06694 0.07058
-0.09326 0.01336 -0.04051
-0.08862 0.03392 0.00168
-0.08026 0.02309 0.00617
-0.01642 0.03524 -0.05161
-0.09885 0.03801 -0.01084
-0.07862 0.02828 0.00465
-0.07862 0.02828 0.00465
-0.02266 -0.07813 -0.00565
-0.09507 0.02647 -0.02396
-0.08719 0.02769 0.00067
-0.10985 0.01152 -0.05655
-0.08826 0.01920 -0.00044
-0.08036 0.02828 0.00587
0.15125 0.04392 0.13778
-0.08369 0.03318 0.00206
-0.08946 0.03213 -0.01025
-0.10965 0.01599 -0.03630
0.05466 -0.05954 -0.00008
0.05420 -0.05923 -0.00069
-0.11457 0.02376 -0.06086
-0.08262 0.02934 0.00215
-0.08795 0.03334 -0.00907
-0.08229 0.02851 0.01086
-0.08273 0.02843 0.00944
0.04623 -0.05956 -0.00646
0.05241 -0.06206 0.00544
-0.11265 0.02021 -0.05668
0.33992 0.07427 0.13728
0.16953 0.04182 -0.02081
-0.10899 0.03125 -0.03548
-0.08111 0.03451 -0.00193
-0.11434 0.01613 -0.04917
0.35689 0.03619 0.08555
-0.09758 0.00952 -0.04884
0.28440 0.05718 0.11979
0.29070 0.07798 0.05742
-0.08346 -0.01750 0.00994
0.21256 0.03348 0.04067
-0.06911 0.04121 0.01119
0.15205 -0.07095 0.03568
-0.08993 -0.00691 -0.04208
-0.03466 -0.11283 0.01004
-0.09047 -0.00557 -0.03642
-0.10384 0.01636 -0.06281
-0.05164 -0.07785 0.00375
-0.01435 0.03160 -0.02040
-0.09341 0.03373 -0.00023
0.13273 -0.05086 0.06585
-0.06736 0.03101 0.00953
-0.09362 0.01743 -0.02275
-0.10406 0.03018 -0.05760
-0.07990 0.02954 0.00297
0.15517 -0.04490 0.02042
-0.10033 0.03898 -0.00724
0.29146 0.05274 0.14933
0.21526 0.00268 0.01764
-0.10905 0.01695 -0.05440
0.17604 -0.03346 0.03558
0.07164 0.09022 0.12503
0.17709 0.05077 -0.03506
0.06367 -0.04071 -0.01540
-0.10670 0.03069 -0.04993
-0.09729 0.03770 -0.01608
-0.07136 0.04284 0.00468
-0.07977 0.02438 0.00314
0.23990 0.05886 0.04028
-0.07229 0.02935 0.00609
0.12826 0.01247 0.07069
-0.08133 -0.00507 -0.03719
-0.08817 0.02896 0.00277
-0.07955 0.03233 0.00444
0.23432 0.04416 0.04246
-0.08381 0.02933 0.00488
0.31985 0.05847 0.18382
0.14792 0.07276 -0.00716
-0.08568 0.03754 -0.03112
0.25268 0.06032 0.05166
-0.07675 0.03804 -0.00926
0.31231 0.07264 0.06411
-0.10055 0.00120 -0.04038
0.17444 0.03227 -0.18375
-0.00224 0.03613 -0.03757
-0.05592 -0.08688 0.02420
-0.00850 0.04193 -0.03797
-0.05965 -0.02229 -0.33243
0.19938 0.05566 0.21740
0.15197 0.05157 -0.07157
-0.04806 0.02718 -0.09830
-0.07385 0.04000 0.00221
-0.06985 0.02910 0.00634
-0.00342 0.03761 -0.03543
-0.06424 0.04143 0.01044
-0.09254 0.02468 0.00626
-0.09293 0.02459 0.00311
-0.07872 -0.00841 -0.03410
0.25718 0.07023 0.04181
-0.01630 0.03887 -0.01848
-0.09771 0.03088 -0.00114
0.24638 0.06536 0.08535
0.11110 0.08049 0.08227
0.10269 0.07845 0.06821
0.10431 0.07879 0.07058
-0.10577 0.03562 -0.01007
-0.06387 -0.04986 0.02229
-0.08013 0.03416 -0.01035
0.10088 0.08149 0.09022
-0.10599 0.02106 -0.05222
-0.11265 0.03672 -0.01911
-0.09555 0.02586 -0.00066
-0.08096 -0.01088 -0.04450
