# .PCD v.7 - Point Cloud Data file format
VERSION .7
FIELDS x y z
SIZE 4 4 4
TYPE F F F
COUNT 1 1 1
WIDTH 1879
HEIGHT 1
VIEWPOINT 0 0 0 1 0 0 0
POINTS 1879
DATA ascii
0.07726 -0.01968 0.01642
0.04137 -0.02001 0.01387
-0.06075 -0.00709 0.00521
-0.01809 -0.00675 0.00782
0.02686 -0.04165 0.01721
-0.00596 0.14146 -0.14265
0.03025 -0.00864 0.01555
-0.01045 -0.03368 0.01304
0.04677 -0.02932 0.01671
0.01250 0.13060 -0.13025
-0.06044 -0.01592 0.00560
-0.06977 -0.00480 0.00286
-0.05437 -0.01834 0.00717
0.01569 0.11177 -0.13047
0.01546 0.11143 -0.13002
0.00125 -0.01448 0.00954
-0.09668 -0.03798 0.01517
-0.09852 -0.03018 0.00691
-0.01941 -0.04186 0.01389
-0.01954 -0.04265 0.01463
-0.07046 -0.00059 0.00252
-0.02826 -0.04685 0.01449
0.05380 0.23226 -0.22848
-0.01939 -0.04648 0.01476
-0.01910 -0.04622 0.01380
0.05411 0.22272 -0.24618
0.00695 -0.04559 0.01653
0.01945 -0.01409 0.01119
0.05896 0.22861 -0.21641
-0.07384 -0.03214 0.00844
-0.02978 -0.00259 0.00632
-0.00546 0.20622 -0.21633
-0.05177 -0.04464 0.01245
-0.02499 -0.03101 0.01161
0.08001 0.16890 -0.22857
-0.07352 -0.02105 0.00628
0.03180 -0.00698 0.01062
-0.05707 -0.00049 0.00341
-0.10520 -0.02124 0.00456
-0.07573 -0.03198 0.00751
-0.05171 -0.04820 0.01358
-0.03321 -0.04784 0.01438
-0.03321 -0.04784 0.01438
0.00449 -0.03092 0.01367
0.00456 -0.03083 0.01351
0.02794 0.18525 -0.16668
0.01553 0.11111 -0.13094
0.01428 0.10971 -0.13448
-0.06531 -0.04835 0.01273
-0.02364 -0.01917 0.00939
0.07123 0.23460 -0.22303
0.07093 0.16695 -0.23059
0.02715 0.16941 -0.16012
0.02703 0.16928 -0.15983
-0.01556 -0.01824 0.00969
-0.04565 -0.03062 0.01010
-0.07503 -0.03085 0.00840
0.05302 0.22211 -0.25117
-0.03437 -0.03239 0.01110
0.00529 0.10466 -0.14044
0.01557 0.11014 -0.13081
0.00065 0.16270 -0.15676
0.00065 0.16270 -0.15676
-0.06562 -0.03279 0.00948
-0.03835 -0.00271 0.00556
0.01136 0.15278 -0.15000
-0.03720 -0.06162 0.01681
0.08072 0.16511 -0.21343
-0.04782 -0.01725 0.00777
-0.07502 -0.03293 0.00842
-0.05870 -0.04357 0.01179
-0.07026 -0.04832 0.01214
-0.04515 -0.03193 0.01037
-0.04085 -0.04349 0.01324
0.00373 -0.03418 0.01392
0.01218 0.12918 -0.13337
0.06784 0.18243 -0.21111
-0.10847 -0.02005 0.00384
-0.04129 -0.04438 0.01260
-0.02910 -0.04577 0.01449
0.00996 -0.02791 0.01486
-0.09971 -0.04326 0.00983
0.00852 0.13349 -0.13612
0.00864 0.09689 -0.13728
0.01119 0.12791 -0.13510
0.01127 0.12807 -0.13510
-0.10369 -0.02010 0.00426
-0.02393 -0.01481 0.00848
-0.04176 -0.04663 0.01348
-0.04773 -0.00171 0.00436
-0.02352 -0.01752 0.00889
-0.06240 -0.04177 0.01123
-0.00071 -0.01898 0.01072
-0.10211 -0.03320 0.00720
-0.08526 -0.04197 0.00992
-0.00696 -0.04392 0.01574
-0.06642 -0.03155 0.00894
0.00632 0.11925 -0.14665
0.02832 -0.03368 0.01568
-0.06661 -0.02827 0.00836
0.00361 -0.03244 0.01379
-0.07211 -0.03077 0.00868
-0.10122 -0.03472 0.00729
-0.05192 -0.06672 0.04099
-0.03177 -0.02990 0.01085
-0.08126 -0.01692 0.00474
-0.05887 -0.00756 0.00512
0.06766 0.17664 -0.20893
0.01538 0.11483 -0.12920
0.06518 0.17000 -0.19736
0.06905 0.25860 -0.22789
0.11126 0.28447 -0.17848
-0.01961 -0.00634 0.00706
0.00133 0.28828 -0.33151
0.06929 0.23196 -0.22206
0.04729 0.25186 -0.24982
0.00224 0.23110 -0.24380
0.00312 0.23151 -0.26609
-0.05996 -0.00688 0.00462
0.03071 -0.04125 0.01773
-0.05838 -0.02931 0.01011
0.06819 -0.02692 0.01293
-0.00008 -0.00599 0.00972
-0.00075 -0.00698 0.01168
0.04956 0.26160 -0.25914
0.04968 0.26146 -0.23594
0.04996 0.26111 -0.24867
-0.07048 -0.00065 0.00260
-0.04571 -0.00056 0.00403
-0.00476 -0.00672 0.00807
0.06861 0.23038 -0.22776
0.02248 -0.05473 0.01892
0.01062 0.25060 -0.21666
0.00993 -0.04291 0.01646
0.07141 0.23154 -0.22277
-0.03027 0.23547 -0.26057
0.07436 0.16501 -0.22667
-0.05355 -0.02862 0.00844
0.00433 -0.03422 0.01399
-0.00195 0.26450 -0.26759
-0.06261 0.16661 -0.22507
-0.03246 0.20704 -0.24009
0.07690 0.24590 -0.23420
-0.05135 -0.04134 0.01203
-0.02697 0.21568 -0.26346
-0.02872 0.25903 -0.23973
0.03915 -0.03376 0.01550
0.00699 -0.04336 0.01722
-0.00267 0.25805 -0.23498
-0.00873 0.25487 -0.19961
0.04006 0.21190 -0.25444
-0.06327 0.16311 -0.22299
-0.05810 0.22737 -0.23367
0.01949 0.22849 -0.23789
-0.10305 -0.02979 0.00690
0.01001 -0.04623 0.01721
0.05193 -0.04585 0.01950
0.00232 -0.03252 0.01370
-0.07775 0.06579 0.43996
0.05668 -0.03087 0.01760
0.00018 0.20947 -0.20791
0.00005 0.20937 -0.19726
0.02101 0.24365 -0.23273
0.05327 0.25374 -0.25832
0.06273 0.14837 -0.10532
0.01271 0.14700 -0.13492
-0.05865 -0.00577 0.00546
-0.06508 -0.01555 0.00499
-0.11008 -0.02132 0.00427
-0.11008 -0.02132 0.00427
0.09710 0.19164 -0.20570
0.06731 0.25636 -0.23666
0.00783 0.22844 -0.24663
0.03194 -0.02978 0.01537
-0.00297 0.20054 -0.22871
-0.05432 0.16269 -0.17919
0.02777 -0.04925 0.03670
0.02777 -0.04925 0.03670
0.05893 0.22783 -0.26336
-0.03182 -0.03007 0.01086
0.07569 0.17050 -0.22982
-0.09331 -0.01700 0.00441
0.05653 0.22035 -0.24615
-0.04328 -0.04595 0.01340
0.02609 0.18063 -0.17192
0.05217 0.25057 -0.25800
0.00583 0.21498 -0.22939
0.00581 0.21496 -0.22969
-0.01100 0.10752 -0.12951
-0.07677 0.18312 -0.22846
-0.04591 0.22899 -0.21205
0.00130 0.26288 -0.27422
0.06621 0.16963 -0.23414
-0.05991 0.16388 -0.21927
0.02652 0.20484 -0.22195
0.10711 0.20819 -0.18159
-0.06032 0.17143 -0.24070
0.04994 0.15423 -0.15011
-0.00637 0.28597 -0.32788
0.00940 0.21818 -0.23382
-0.00901 0.20119 -0.25325
0.01260 0.22359 -0.23969
-0.05460 0.23386 -0.21844
-0.00405 0.14285 -0.14242
0.08196 0.17009 -0.22154
-0.04688 0.20798 -0.19379
0.02381 0.20124 -0.17409
0.03015 0.29340 -0.26368
-0.01280 0.21736 -0.26935
-0.05044 -0.06005 0.01680
-0.00928 0.27930 -0.31269
0.06594 0.16693 -0.22571
0.01935 0.10496 -0.12534
0.05108 0.23233 -0.25067
0.02027 0.18564 -0.20795
-0.06039 0.17146 -0.22081
-0.08099 0.16926 -0.22388
0.09086 0.26934 -0.23410
0.06731 0.16000 -0.21576
-0.00645 0.17548 -0.17027
-0.01306 -0.00270 0.00600
0.03942 0.25589 -0.22910
-0.06303 -0.03026 0.00902
0.07436 -0.04044 0.01977
0.05060 -0.01971 0.01426
0.05678 -0.03130 0.01804
0.03079 -0.00199 0.00964
-0.06290 -0.03248 0.00926
0.01132 -0.04607 0.01685
0.06039 -0.03373 0.01775
0.02521 -0.01563 0.01112
0.02599 -0.04123 0.01697
0.07292 -0.01853 0.01619
-0.08538 -0.04775 0.01097
0.02561 -0.00356 0.00989
-0.04896 -0.01745 0.00751
-0.00658 -0.04764 0.01594
0.03459 -0.04723 0.01883
-0.07645 -0.01967 0.00703
-0.02942 -0.05513 0.01607
0.03951 -0.02690 0.01425
0.03076 -0.00521 0.01007
-0.00945 -0.03105 0.01275
0.05879 -0.01601 0.01445
0.00870 0.25269 -0.22398
0.06538 -0.04228 0.01947
-0.01617 -0.05826 0.01555
-0.02682 0.22235 -0.27145
-0.08081 0.22948 -0.23645
0.00114 -0.05904 0.01883
-0.06424 0.15781 -0.22517
-0.00664 -0.05982 0.01691
-0.06660 0.15761 -0.22886
-0.09964 -0.04288 0.00894
-0.05968 -0.01655 0.00645
-0.00385 -0.01576 0.01000
-0.06851 0.16947 -0.22779
-0.10151 -0.01686 0.00394
0.04971 0.24362 -0.25484
0.01243 -0.03233 0.01488
-0.06219 0.16554 -0.21813
-0.07465 0.17292 -0.20933
0.00562 -0.04661 0.01860
-0.00356 0.14292 -0.13796
-0.01330 0.11142 -0.12327
-0.06247 -0.04766 0.01243
-0.01063 0.10298 -0.12997
0.09991 0.30423 -0.23965
-0.08829 0.22008 -0.21766
0.06897 0.25885 -0.22885
0.04397 0.19868 -0.19945
-0.00642 0.13467 -0.12973
-0.00098 0.25886 -0.22922
-0.08703 0.31175 -0.26623
0.02140 0.29959 -0.26370
-0.08479 0.30588 -0.25934
0.08389 0.16333 -0.20301
-0.04261 0.22889 -0.22275
-0.08354 0.31187 -0.32966
-0.08368 0.31185 -0.32877
0.06262 0.16338 -0.20125
0.09485 0.30422 -0.23951
0.05486 0.23513 -0.24042
0.01231 0.21661 -0.23297
0.05071 -0.04114 0.01875
0.00187 0.18321 -0.17294
-0.05805 -0.02957 0.00927
-0.05708 -0.04042 0.00539
-0.10760 -0.02050 0.00389
0.00860 0.21430 -0.22228
-0.05950 0.16015 -0.20675
0.10708 0.30213 -0.19432
0.03050 -0.04446 0.01821
0.06598 0.17549 -0.20539
0.02243 0.19020 -0.18681
0.05377 0.19066 -0.20027
0.07170 0.22781 -0.22177
0.10509 0.31144 -0.24950
0.10565 0.30612 -0.29442
0.01083 0.24207 -0.23257
-0.08646 0.32247 -0.34181
-0.08758 0.32483 -0.34474
0.00312 0.21131 -0.20703
0.00914 0.20272 -0.18203
0.00604 0.21832 -0.24678
0.01469 0.23023 -0.23749
-0.05614 0.16116 -0.20184
-0.09781 0.20839 -0.18774
-0.03284 0.21043 -0.20471
0.11267 0.26619 -0.18628
-0.02670 0.20439 -0.26130
0.02226 0.20242 -0.19915
0.06343 0.24763 -0.23694
0.05426 0.26050 -0.25460
0.05094 0.17771 -0.17191
0.04658 0.17689 -0.15737
0.02769 0.20277 -0.19148
0.02848 0.29591 -0.27892
-0.00412 0.13912 -0.13587
-0.00251 0.22107 -0.26204
0.00893 -0.05966 0.02041
0.11464 0.32268 -0.32799
-0.06317 0.16114 -0.22284
-0.09971 0.23867 -0.16475
-0.03620 0.24940 -0.23295
-0.03654 0.18823 -0.12626
0.01040 0.20156 -0.17818
0.11219 0.30762 -0.32432
0.11219 0.30770 -0.32433
-0.05296 -0.00341 0.00677
0.05404 -0.03231 0.01782
0.11493 0.32503 -0.33626
0.02835 -0.04233 0.01745
0.02835 -0.04233 0.01750
-0.04713 -0.05714 0.01331
0.02427 0.20588 -0.21016
0.02532 0.20568 -0.24213
-0.08547 0.16083 -0.19765
0.11551 0.28297 -0.17773
-0.00454 0.19690 -0.18599
-0.00431 0.14180 -0.14341
0.05776 0.15648 -0.15909
-0.03408 0.24323 -0.22996
0.03779 0.25619 -0.26121
0.03006 0.22331 -0.25269
-0.04629 0.30988 -0.29408
-0.02715 0.25882 -0.22846
-0.00621 0.13768 -0.13747
-0.02233 0.26546 -0.27065
0.01450 0.19447 -0.17857
0.08005 0.17125 -0.22787
-0.06007 -0.04683 0.01257
0.03082 0.21069 -0.25829
-0.01634 0.29057 -0.29696
-0.03745 0.25663 -0.23242
0.07187 0.16946 -0.21633
0.07158 0.17040 -0.23437
0.02345 -0.00423 0.00993
0.04675 0.19293 -0.18389
-0.04987 0.17556 -0.19212
0.03862 0.14539 -0.12986
-0.01122 0.29610 -0.32466
-0.00189 0.19964 -0.18178
0.05070 0.23341 -0.24471
0.05656 0.28331 -0.23483
0.02061 0.24612 -0.23124
0.02180 0.19477 -0.18874
-0.00917 0.28121 -0.30862
0.04770 -0.04235 0.01902
-0.00074 0.28775 -0.29654
-0.01323 0.26766 -0.30379
0.10600 0.27766 -0.17934
-0.01408 0.28401 -0.30473
-0.02208 0.19419 -0.17227
0.02538 0.22275 -0.24758
0.10139 0.31401 -0.24900
-0.07175 0.15596 -0.16618
-0.08773 0.32883 -0.34589
-0.08400 0.16145 -0.20028
-0.08400 0.16145 -0.20028
-0.04123 0.25460 -0.23395
-0.05633 -0.01967 0.01294
0.03470 0.24991 -0.25898
0.03514 -0.00172 0.01077
0.05210 0.22828 -0.24688
0.07048 0.25461 -0.24176
-0.00244 0.23559 -0.25685
-0.06025 0.16440 -0.22119
-0.00661 0.28093 -0.31179
0.01815 0.18806 -0.20279
0.06241 0.23183 -0.22998
0.01073 0.30354 -0.22454
-0.02427 0.25224 -0.26837
-0.04189 0.17980 -0.14585
-0.03234 0.26372 -0.23064
0.09574 0.22832 -0.22071
0.01061 0.20128 -0.17228
-0.01609 0.20667 -0.26917
0.09453 0.23023 -0.22281
0.03971 0.17248 -0.14120
0.00041 0.28518 -0.33265
0.11424 0.29081 -0.17400
-0.08029 0.29756 -0.24913
0.08990 0.16952 -0.23528
0.11303 0.23981 -0.19586
0.11297 0.32263 -0.32602
-0.03150 -0.04563 0.01470
-0.07337 0.16238 -0.23102
-0.10578 0.19490 -0.15462
0.04905 0.15792 -0.15260
0.00618 0.21020 -0.21591
0.00016 0.12466 -0.13939
0.04698 0.15795 -0.13947
0.00355 0.21151 -0.26666
-0.04860 0.23928 -0.23918
0.01700 0.18342 -0.16468
0.07408 0.23058 -0.22444
-0.07074 -0.00369 0.00345
0.01779 0.23230 -0.22084
0.02827 0.16221 -0.17340
0.02346 0.23414 -0.23895
-0.04518 0.21857 -0.21396
-0.00607 0.18124 -0.18160
-0.00620 0.18042 -0.17400
0.06350 0.21417 -0.17086
-0.00004 0.13055 -0.13769
0.02999 0.29065 -0.26611
-0.05699 0.16325 -0.21832
0.02779 -0.01004 0.01050
-0.00858 0.28758 -0.33881
-0.06080 0.18206 -0.22267
-0.04303 0.15596 -0.17308
-0.04450 0.25178 -0.23673
-0.08072 0.17657 -0.22562
0.06324 0.26156 -0.25090
-0.05205 0.25677 -0.22767
-0.10221 0.19181 -0.16518
0.10757 0.20296 -0.16482
-0.04085 0.26178 -0.20334
0.02596 0.21226 -0.25783
-0.05069 0.21057 -0.20296
0.00493 0.29650 -0.32004
-0.02471 0.16680 -0.14774
0.09511 0.29588 -0.23442
-0.00673 -0.00989 0.00812
0.00124 0.12601 -0.13960
0.03216 0.29784 -0.32360
0.03212 0.29785 -0.32350
-0.04744 0.17280 -0.15874
0.05241 0.15868 -0.15948
0.00754 0.28502 -0.25085
-0.00854 0.16724 -0.16617
0.04529 0.17245 -0.14696
-0.05423 0.23136 -0.20829
0.01663 0.20340 -0.17946
-0.04638 0.21708 -0.19100
0.01820 0.29453 -0.25100
0.00710 -0.03808 0.01591
-0.07970 0.24115 -0.23847
0.10137 0.17625 -0.17277
-0.02775 -0.01083 0.00729
-0.03653 0.15701 -0.14117
0.03049 -0.02327 0.01326
-0.02850 -0.03827 0.01314
-0.04688 0.18297 -0.19652
-0.04150 0.15622 -0.12597
-0.05876 0.28402 -0.24417
0.09359 0.20762 -0.18231
-0.07603 0.22779 -0.24421
-0.07591 0.22849 -0.23964
0.07266 0.18300 -0.21304
0.01091 0.15384 -0.16304
0.06336 0.17960 -0.19012
-0.07697 0.22764 -0.23989
-0.04612 0.23512 -0.23839
0.07345 0.24004 -0.22850
-0.05851 0.29817 -0.24761
0.08662 0.24057 -0.22951
0.02951 0.29701 -0.29551
-0.00534 0.24863 -0.22712
-0.07021 0.15672 -0.23630
0.03685 0.30006 -0.26197
-0.04940 0.18387 -0.20074
0.07692 0.24278 -0.22800
-0.00789 0.21580 -0.26666
0.03842 0.16789 -0.13739
0.01579 0.16978 -0.15669
-0.03811 0.32705 -0.34713
0.07728 0.24390 -0.23188
0.01760 -0.03700 0.06846
-0.07005 0.16026 -0.21959
-0.05966 0.22950 -0.23311
0.07703 0.22752 -0.22444
0.07703 0.22752 -0.22444
-0.05299 0.20798 -0.20196
-0.07647 0.30302 -0.26813
-0.07457 0.30155 -0.28426
0.02467 0.21445 -0.22431
0.06561 0.30336 -0.28920
-0.00369 0.32180 -0.33722
-0.01222 0.27152 -0.30837
-0.07401 0.18421 -0.24868
0.04319 0.18912 -0.18169
-0.01630 0.28780 -0.30287
-0.03836 0.18275 -0.21346
0.00030 0.14333 -0.13951
-0.00068 0.28287 -0.30580
0.03763 0.16745 -0.13268
0.03308 -0.02807 0.01509
0.03311 -0.02799 0.01497
-0.02106 -0.04600 0.01454
-0.06843 -0.04650 0.01065
0.00202 0.11302 -0.13954
0.01511 0.20803 -0.18557
0.08846 0.16405 -0.19278
0.03821 -0.03246 0.01609
0.03697 -0.03377 0.01633
-0.07707 0.17371 -0.22682
0.11025 0.27565 -0.17508
0.01810 -0.00417 0.00901
-0.05248 -0.03380 0.01490
0.02190 0.19169 -0.18828
-0.06137 0.15793 -0.22530
0.01479 0.22022 -0.21766
-0.02403 0.20158 -0.26324
-0.09063 0.13979 0.27055
-0.08447 -0.03729 0.07795
-0.04491 0.25991 -0.22307
-0.04677 0.16607 -0.39516
-0.04920 0.18394 -0.20160
0.11197 0.30843 -0.21615
0.01861 0.29448 -0.28352
-0.04464 0.25577 -0.22879
-0.08603 0.29560 -0.28383
0.09445 0.16928 -0.20810
-0.07569 0.19609 -0.19912
0.05991 0.26428 -0.22864
-0.08652 0.31751 -0.35396
-0.06243 0.15807 -0.21751
0.08411 0.16725 -0.21051
-0.07669 0.16908 -0.22933
0.00277 0.28572 -0.33109
0.05242 0.20744 -0.20060
-0.06737 0.22604 -0.32299
-0.16737 0.30581 -0.05990
0.03480 0.29453 -0.26232
0.05523 0.20874 -0.18380
0.03843 0.21778 -0.26564
-0.00784 0.27050 -0.30669
0.05091 0.20801 -0.24121
-0.07820 0.16628 -0.22636
0.01316 0.21976 -0.22465
0.06918 0.25518 -0.22615
-0.01005 0.27680 -0.31357
0.07208 0.25086 -0.24663
0.09831 0.30804 -0.31279
-0.01578 0.13564 -0.13913
-0.03449 0.25427 -0.23232
0.04344 0.23078 -0.22302
0.11386 0.30090 -0.16847
0.04136 0.26813 -0.22772
0.00795 0.11806 -0.14235
0.08615 0.16057 -0.19975
0.07405 0.24815 -0.23712
0.07266 0.18715 -0.21402
0.07989 0.16181 -0.22752
0.11640 0.32991 -0.33185
-0.05308 0.17002 -0.22315
-0.06954 0.16349 -0.22854
0.00388 0.28799 -0.33078
0.00348 0.24836 -0.23696
-0.01443 0.28058 -0.31018
0.10799 0.24366 -0.16113
-0.02102 0.23596 -0.27274
0.04983 0.24328 -0.25718
-0.07877 0.16443 -0.21181
0.04022 0.25646 -0.26087
0.02364 0.19494 -0.18378
0.03968 0.16860 -0.08469
-0.07422 0.27878 -0.27759
-0.01665 0.25434 -0.30713
-0.05528 0.16361 -0.22020
-0.06615 0.17583 -0.22903
0.06568 0.23127 -0.22290
-0.01882 0.24937 -0.29444
0.01814 0.21379 -0.21263
0.07266 0.15547 -0.20805
-0.08530 0.18534 -0.22509
0.06405 0.29623 -0.31783
0.10617 0.27522 -0.17779
0.06105 0.22840 -0.23911
0.09967 0.29682 -0.23523
0.01664 0.11453 -0.11993
-0.05874 0.30531 -0.24722
-0.02375 0.24811 -0.27555
0.05624 0.22410 -0.22740
0.03285 0.25252 -0.24958
-0.04801 0.24043 -0.23779
-0.01565 0.29829 -0.25533
-0.03539 0.16724 -0.13628
0.07545 0.30061 -0.23837
0.20710 0.18225 1.00000
0.05271 0.22216 -0.25079
-0.04885 0.34624 -0.34687
-0.00430 0.17400 -0.13062
-0.00039 0.17485 -0.16393
-0.02051 0.21430 -0.29346
0.09396 0.23232 -0.22641
0.01994 0.27554 -0.25429
-0.01358 0.27348 -0.31155
-0.04349 0.22540 -0.19243
-0.04508 0.18458 -0.18609
0.01521 0.18078 -0.16188
0.05351 0.23190 -0.25303
-0.08096 0.25844 -0.23946
0.18158 0.08891 0.22175
-0.05930 0.16713 -0.21755
0.07361 0.26220 -0.23232
-0.07361 0.29359 -0.28134
-0.04963 -0.01928 0.00761
0.07792 0.22777 -0.45776
-0.05602 0.20861 -0.21110
0.07798 0.15860 -0.24753
-0.04334 0.19280 -0.20139
0.04776 0.15443 -0.14010
0.06584 0.30308 -0.29468
0.06561 0.30288 -0.29261
-0.02993 0.21582 -0.25347
0.00385 0.21661 -0.24780
0.05337 0.17670 -0.17638
0.00486 0.18743 -0.17552
-0.05879 0.28852 -0.24747
-0.05740 0.20112 -0.20458
0.07354 0.24009 -0.22878
-0.00108 0.24067 -0.23332
-0.08600 0.14980 0.22229
0.01096 0.12675 -0.13224
0.06205 0.17639 -0.17240
-0.07693 0.26103 -0.24308
0.09400 0.23533 -0.22518
0.00785 0.10180 -0.14734
-0.00047 0.17081 -0.16638
-0.02566 0.14632 -0.12757
0.01581 0.21004 -0.21983
-0.00552 0.26050 -0.24021
-0.00013 0.28607 -0.33250
-0.01877 0.27961 -0.27967
0.10259 0.18097 -0.18499
-0.07774 0.23414 -0.25283
0.02272 0.18119 -0.17586
-0.04382 0.19777 -0.18238
0.00073 0.27731 -0.30411
0.03800 0.27769 -0.27084
-0.04706 0.24457 -0.24799
0.04038 0.16582 -0.13920
0.04645 0.23958 -0.27004
0.04645 0.23958 -0.27004
-0.06556 0.18651 -0.14006
-0.04924 0.18003 -0.20251
-0.04191 0.17163 0.09336
-0.05798 0.23248 -0.24339
0.09486 0.30417 -0.23943
-0.06326 0.16800 -0.21958
-0.04565 0.15491 -0.14228
0.08976 0.21228 -0.22111
0.05148 -0.00111 0.00995
-0.00757 -0.01597 0.01142
0.06175 0.20767 -0.17436
0.09265 0.18806 -0.21485
0.04013 0.14723 -0.13173
0.02482 0.15472 -0.38285
-0.01489 0.30246 -0.32929
-0.04062 0.15463 -0.13557
0.02654 0.20235 -0.21274
0.07900 0.16950 -0.23612
-0.03663 0.15853 -0.14537
-0.04627 0.17839 -0.17125
0.07447 0.29728 -0.23350
0.02058 -0.00577 0.00966
-0.03588 0.17289 -0.14404
0.00178 0.17978 -0.16718
0.03505 -0.02946 0.01532
0.03474 -0.03397 0.02860
-0.02128 0.16400 -0.19226
-0.06676 0.20739 -0.13210
-0.00077 0.18435 -0.17473
0.07044 0.16392 -0.23020
-0.15732 0.23473 -0.09428
0.07552 0.24364 -0.23033
0.02227 0.24073 -0.20721
0.07782 0.19891 -0.22246
-0.01347 0.26815 -0.19856
0.07754 0.32680 -0.33854
0.07751 0.32693 -0.33924
-0.04236 0.15902 -0.14250
-0.01190 0.26892 -0.30285
0.01459 0.12029 -0.12668
0.06483 0.26452 -0.25970
-0.04123 0.15207 -0.13379
0.01290 0.16293 -0.15943
0.00520 0.24726 -0.23257
-0.06061 -0.01626 0.00608
-0.00660 0.19546 -0.18315
0.00475 0.18013 -0.16400
-0.09072 -0.03272 0.00755
0.02435 0.22062 -0.25064
0.01077 0.16362 -0.16958
-0.05302 0.22565 -0.29639
0.11612 0.27896 -0.18316
-0.03581 0.19091 -0.24283
0.01822 0.14653 -0.14001
0.01609 0.17875 -0.16483
-0.05422 0.21480 -0.18086
-0.00724 0.21072 -0.25664
0.00496 0.19850 -0.17149
0.04728 0.24266 -0.24955
0.02675 0.17058 -0.16848
-0.01236 0.16818 -0.16389
0.07799 0.24132 -0.21818
0.02362 0.15983 -0.15944
0.02362 0.15983 -0.15944
-0.01571 0.14474 -0.13811
-0.06063 0.16431 -0.22054
-0.01582 0.15220 -0.14374
0.01517 0.24931 -0.22666
0.01001 0.13228 -0.13975
0.02667 0.22784 -0.25954
0.00363 0.25783 -0.23297
0.01102 0.11565 -0.13745
0.05506 0.25728 -0.26138
0.03434 0.29422 -0.24666
0.06248 0.16315 -0.20300
0.04086 0.17806 -0.13713
-0.01740 0.15796 -0.15007
0.10178 0.24147 -0.16939
-0.02404 0.22230 -0.26262
0.04213 0.20445 -0.27639
0.03024 0.21461 -0.25761
-0.04551 0.23902 -0.23806
0.00670 0.29545 -0.30280
0.03064 0.20364 -0.17336
-0.05163 0.20776 -0.20128
0.11023 0.20538 -0.09249
0.10227 0.20590 -0.17936
-0.07367 -0.21678 0.67411
0.03612 0.20306 -0.25265
0.03845 -0.03263 0.01660
0.05047 0.25355 -0.24132
-0.06870 0.16082 -0.22336
-0.00489 -0.00114 0.00736
0.06864 0.30334 -0.31486
0.06864 0.30334 -0.31486
0.10685 0.30218 -0.19315
0.10837 0.31083 -0.29533
0.10910 0.31072 -0.29822
0.00014 0.29161 -0.30676
0.11135 0.28448 -0.17886
0.11179 0.31089 -0.19742
0.10149 0.32630 -0.17498
-0.00988 0.19899 -0.26215
-0.03568 0.18817 -0.20964
0.06899 0.30548 -0.32568
0.06884 0.30547 -0.32518
0.11599 0.32471 -0.32926
0.11270 0.27303 -0.18146
0.00007 0.18252 -0.16827
0.09990 0.30424 -0.23938
0.08211 0.16971 -0.22036
-0.07308 0.15453 -0.20048
0.11208 0.27907 -0.17917
0.06682 0.30336 -0.32389
0.10421 0.30671 -0.22088
0.04764 0.25468 -0.25174
0.11424 0.29170 -0.17044
0.06232 0.24651 -0.23490
0.00337 0.28794 -0.33850
-0.04935 0.18733 -0.20217
0.07206 0.30714 -0.32939
0.00784 0.12072 -0.14382
0.00754 0.12082 -0.14365
0.11379 0.30329 -0.18061
0.07249 0.30755 -0.32079
0.07818 0.29691 -0.24432
-0.00007 0.22237 -0.25576
0.02726 0.17821 -0.17193
0.05167 0.25016 -0.26453
0.00418 0.29440 -0.32411
-0.01095 -0.00058 0.00665
0.02727 0.25076 -0.26190
-0.00782 0.13240 -0.12687
0.03010 0.15032 -0.13702
0.01688 0.13777 -0.13476
-0.01036 0.28097 -0.31535
0.05147 -0.00128 0.01031
-0.07127 0.18433 -0.22721
0.08768 0.16509 -0.20452
0.10956 0.22890 -0.17920
0.00289 0.26196 -0.22641
0.00071 0.26262 -0.22112
-0.00090 0.15932 -0.15721
0.09521 0.17295 -0.17168
-0.07310 0.17533 -0.22766
0.05172 0.25978 -0.24119
-0.04960 -0.01927 0.00756
0.09549 0.26796 -0.16740
0.11283 0.30795 -0.32270
-0.00744 -0.01559 0.00948
0.11550 0.32823 -0.33851
0.00887 0.11983 -0.14150
0.01316 -0.00216 0.00788
-0.03093 -0.00685 0.00623
0.03057 -0.04437 0.01787
0.12004 0.24102 -0.16338
0.02388 0.18413 -0.17504
-0.05766 -0.04798 0.01345
-0.05682 0.22963 -0.23125
-0.00625 -0.01989 0.01081
0.09947 0.22417 -0.18919
0.07286 -0.03313 0.02070
0.01380 0.19193 -0.14622
0.05393 0.16231 -0.17387
0.02796 0.18537 -0.16680
0.04953 0.30297 -0.23813
0.00438 -0.01419 0.01026
0.09570 0.28553 -0.23423
0.08363 0.17850 -0.20281
0.06113 0.21892 -0.25483
0.08452 0.18201 -0.21085
0.00858 0.11319 -0.13886
0.10787 0.27587 -0.20553
-0.00192 0.24219 -0.23014
0.00824 0.06724 -0.22993
-0.06248 0.17120 -0.22484
0.07919 0.16219 -0.20421
0.01087 0.12539 -0.13366
0.07858 0.30446 -0.16994
-0.00680 -0.04352 0.01388
0.06756 0.30585 -0.28068
-0.00944 -0.04640 0.01563
0.05806 0.30310 -0.26981
0.02665 0.16827 -0.16218
-0.00142 0.25706 -0.22070
0.00444 0.20589 -0.09933
-0.00995 0.20342 -0.21027
0.02548 0.17909 -0.17842
-0.03480 -0.06104 0.01675
-0.03485 -0.06115 0.01687
0.02046 0.16567 -0.14857
0.00001 0.21002 -0.25700
0.00364 0.28714 -0.33141
-0.05112 0.17214 -0.19653
-0.00480 0.12963 -0.13079
0.01733 0.10117 -0.12297
-0.05099 0.17103 -0.19043
0.04712 0.20564 -0.20911
-0.02897 -0.03021 0.01122
-0.02905 -0.03067 0.01198
-0.00490 0.26158 -0.27523
0.07308 0.30647 -0.29335
0.00423 0.21375 -0.23599
-0.00354 0.13062 -0.13294
-0.04094 -0.00229 0.00450
-0.00452 0.21346 -0.25691
0.05468 0.21304 -0.24027
0.03268 0.28297 -0.26635
0.03098 0.29295 -0.26585
0.05448 0.21538 -0.23879
-0.06547 -0.01544 0.00611
-0.06039 0.20060 -0.22664
-0.00676 0.13561 -0.12951
0.01451 0.12035 -0.13154
0.01024 0.25110 -0.22721
-0.00038 0.20963 -0.22666
-0.06037 0.18892 -0.22508
0.03182 -0.03234 0.01558
0.09424 0.16798 -0.21070
-0.00528 0.09885 -0.13908
0.08246 0.24063 -0.22994
-0.05013 0.16999 -0.16250
-0.07641 0.16007 -0.21592
0.00903 -0.02244 0.02299
0.01009 0.12537 -0.13672
0.08660 0.24056 -0.22946
0.04775 0.20984 -0.16997
0.04587 -0.04278 0.01862
-0.03808 -0.04471 0.01519
-0.03758 -0.04455 0.01338
-0.00529 0.25678 -0.29391
-0.09606 -0.01600 0.00355
-0.16657 -0.15586 0.02006
0.00104 0.16631 -0.16039
-0.05069 -0.03236 0.00928
-0.00133 0.27478 -0.30233
0.05895 0.23086 -0.21947
0.06825 -0.03022 0.01815
-0.01096 0.09586 -0.12457
0.07339 0.31986 -0.33296
-0.00423 0.12067 -0.14187
0.00149 0.18409 -0.16722
-0.05246 0.16263 -0.16108
0.00530 0.25756 -0.22452
-0.05035 -0.05630 0.01428
0.00707 0.11387 -0.14681
-0.02706 -0.06032 0.01756
0.10407 0.23790 -0.18029
0.11393 0.30643 -0.20282
-0.04361 0.18367 -0.15458
0.05698 0.20935 -0.18183
0.09493 0.29293 -0.23436
0.09475 0.23558 -0.22302
0.00854 0.09100 -0.12869
0.00975 -0.03211 0.01435
0.07184 0.17768 -0.22883
0.06834 0.22362 -0.21945
0.04285 0.19608 -0.23479
0.03458 0.28033 -0.26139
0.14418 -0.10634 0.03673
0.00990 0.12770 -0.13557
0.04907 0.21173 -0.18945
0.04942 0.21744 -0.23251
0.03681 0.27666 -0.25970
-0.03054 0.30197 -0.33516
0.05892 0.25646 -0.24876
0.05733 0.21952 -0.24256
0.07098 0.15881 -0.22583
0.01990 0.19637 -0.36083
-0.07505 0.17434 -0.22792
-0.00189 0.13519 -0.13126
0.00540 0.18121 -0.17232
-0.16683 -0.15665 0.01264
-0.05927 0.25330 -0.23738
0.09246 0.30418 -0.24297
-0.00685 -0.00279 0.00755
0.03137 0.15375 -0.13831
-0.02218 0.29543 -0.28535
-0.02978 0.30234 -0.32739
0.04133 -0.01632 0.01216
-0.00848 0.29480 -0.32857
0.05023 0.23528 -0.25538
0.04509 0.30381 -0.30097
-0.07903 0.16317 -0.22835
0.00583 0.12356 -0.15089
0.09048 0.21525 -0.49300
-0.03845 0.15456 -0.14056
0.02220 -0.03535 0.01703
0.09213 0.28553 -0.23776
-0.00231 0.26869 -0.22141
0.07939 0.29582 -0.24162
0.10734 0.18313 -0.16680
0.04785 0.20927 -0.26121
-0.01487 0.20267 -0.17475
0.01093 0.16961 -0.15815
-0.01945 0.19834 -0.26230
0.08332 0.16457 -0.19614
-0.06142 0.15621 -0.21038
0.04482 0.25110 -0.24703
-0.16196 -0.16032 0.03094
0.01228 0.10912 -0.13551
0.05992 0.21961 -0.21066
0.03419 0.21382 -0.32649
-0.00840 0.30142 -0.34877
0.06763 0.22681 -0.21020
-0.03175 -0.04467 0.01539
0.10516 0.18610 -0.17698
-0.04437 0.18143 -0.13851
0.00837 0.11090 -0.14104
0.00837 0.11079 -0.14092
0.02404 -0.01425 0.01147
-0.05260 -0.04289 0.01210
0.02946 -0.03204 0.01539
-0.08352 -0.04449 0.01128
0.04624 -0.00315 0.01091
0.04910 -0.04549 0.01872
-0.06222 -0.04490 0.01171
0.01554 0.10968 -0.13045
0.00512 0.13099 -0.14217
0.07292 -0.01847 0.01596
-0.07425 -0.01607 0.00548
0.03848 -0.02898 0.01536
-0.08539 -0.04779 0.01099
0.08336 0.17137 -0.21739
0.00102 -0.01952 0.01104
0.02675 0.16920 -0.16358
0.02299 0.15712 -0.15607
-0.02594 -0.01492 0.00792
-0.00645 -0.05902 0.02167
-0.06900 0.17495 -0.22978
0.07476 -0.01871 0.01639
-0.00484 0.20421 -0.21354
0.02963 -0.02928 0.01495
-0.05013 0.16999 -0.16250
-0.06464 0.19211 -0.21781
0.06604 0.22977 -0.21929
-0.06318 0.25991 -0.24455
0.06955 0.15570 -0.16022
0.03465 0.16074 -0.13666
0.03771 0.16427 -0.14737
0.04719 0.24527 -0.25045
0.10410 0.31077 -0.25530
0.06547 0.17362 -0.23165
0.05500 0.23460 -0.23993
-0.05611 0.17063 -0.22155
0.01915 0.22843 -0.23611
-0.04005 0.20667 -0.19815
0.01095 0.23198 -0.23520
0.07301 -0.03256 0.01950
0.04367 -0.00472 0.01003
-0.09322 -0.01964 0.00547
0.06765 -0.01534 0.01596
-0.01414 -0.05656 0.01713
-0.05257 -0.04640 0.01284
0.06531 0.17608 -0.21763
-0.05617 0.29816 -0.23782
-0.09682 -0.02729 0.00078
-0.07443 -0.01967 0.00620
0.05055 0.20752 -0.18317
-0.06905 0.17686 -0.22920
-0.09636 -0.01933 0.00534
-0.05676 0.24429 -0.22862
0.01533 -0.01843 0.01134
-0.05571 -0.04307 0.01111
0.11565 0.28262 -0.17722
-0.01455 -0.06120 0.01714
0.00905 -0.05929 0.01879
-0.10038 -0.04547 0.01006
-0.01871 0.02299 -0.10899
0.01917 -0.04630 0.01770
-0.00100 0.17523 -0.15939
-0.16944 -0.01743 -0.00672
0.14757 -0.06092 0.02092
-0.00219 0.26400 -0.23905
0.02846 -0.04615 0.01755
0.02847 -0.04612 0.01751
-0.08066 0.16484 -0.22635
-0.10146 -0.02133 0.01220
-0.06520 0.15761 -0.22409
-0.01808 -0.00228 0.00570
0.07129 0.25133 -0.23874
-0.03102 -0.02479 -0.00445
0.11668 0.34199 -0.33538
-0.05420 0.16172 -0.17443
0.06446 0.16833 -0.21221
0.07463 0.22879 -0.41787
0.14965 0.06166 0.01271
0.01437 -0.00371 0.00732
0.00216 0.13354 -0.13553
0.02000 0.14554 -0.13821
-0.07446 -0.03123 0.00798
-0.16626 0.05562 -0.03004
0.07070 0.30603 -0.25095
-0.05820 0.16272 -0.21460
-0.02506 -0.01747 0.00826
0.14816 -0.04693 0.03090
0.14215 -0.14908 0.03032
0.04598 -0.00519 0.01223
-0.00375 0.20578 -0.25005
0.08227 0.16489 -0.23304
0.07984 0.16287 -0.22762
-0.11141 -0.16134 0.03207
-0.10964 -0.15907 0.02749
0.04952 0.20757 -0.16991
0.15139 0.17084 -0.02527
0.00679 -0.03042 0.01032
0.06840 -0.03216 0.02069
-0.05121 0.18137 -0.21057
0.09057 0.16513 -0.19962
-0.06683 0.16129 -0.22874
0.05471 -0.02726 -0.05539
0.01448 0.11763 -0.13061
-0.05018 -0.01783 0.00736
0.02723 0.25069 -0.26149
0.03780 0.23380 -0.60420
-0.08316 0.31314 -0.29261
0.14815 -0.04307 0.03054
0.07463 0.18191 -0.21260
0.01521 0.21269 -0.19821
-0.07434 0.17616 -0.23909
0.14234 -0.14513 0.03304
-0.04049 0.19130 -0.20012
-0.05971 0.15647 -0.14663
0.00846 0.17983 -0.16064
0.04077 0.17413 -0.12808
-0.17006 -0.15165 0.02835
0.06228 0.16397 -0.20835
-0.00724 0.28232 -0.31555
-0.01272 -0.01751 0.00460
0.10614 0.27685 -0.19058
0.10095 0.22954 -0.17265
0.04229 0.18647 -0.17896
0.14852 -0.05991 0.04343
0.01286 0.21819 -0.20761
-0.01555 0.28409 -0.31070
-0.00929 0.20286 -0.17999
-0.04720 0.21176 -0.20235
-0.00389 0.20636 -0.23755
-0.00898 0.09711 -0.13376
0.11629 0.27796 -0.17848
0.04908 0.21927 -0.24844
0.00563 0.21186 -0.21204
0.10932 0.31242 -0.19191
0.01153 -0.06036 0.01984
0.07893 -0.04218 0.02077
-0.01503 -0.02898 0.01160
0.01534 -0.01605 0.01110
0.02538 0.13404 -0.12821
-0.08056 -0.04535 0.01097
-0.06225 0.15996 -0.22020
-0.05565 -0.03120 0.00966
-0.00502 0.20399 -0.25594
-0.04436 0.15884 -0.15216
-0.03965 -0.04748 0.01386
0.02171 -0.03291 0.01479
-0.10008 -0.03200 0.00671
0.05558 -0.02769 0.01637
0.07890 -0.04581 0.02175
-0.08492 0.30588 -0.25879
-0.02922 -0.05817 0.01659
0.00143 -0.01417 0.00946
-0.07413 -0.03350 0.00891
-0.00698 0.28839 -0.33664
-0.08740 -0.03054 0.00766
-0.02942 -0.06123 0.01722
0.00418 -0.01434 0.01030
-0.03958 -0.00105 0.00488
0.00638 0.21359 -0.21687
0.06739 -0.01473 0.01624
0.05692 -0.06682 0.09519
0.08992 0.26399 0.07623
-0.09076 0.30993 -0.29535
0.05946 -0.03152 0.01782
0.04665 0.25185 -0.22947
0.00401 0.22964 -0.20896
0.07479 -0.03722 0.05967
-0.09636 -0.01933 0.00534
-0.02921 0.20966 -0.25456
0.01339 0.22307 -0.22787
-0.05661 0.29889 -0.23616
-0.05125 0.29823 -0.26009
0.15796 0.02910 0.16073
0.03416 0.29413 -0.24494
0.00777 0.22851 -0.24768
-0.08230 -0.01955 0.00629
0.14783 -0.06747 0.03041
0.14783 -0.06747 0.03041
-0.16944 -0.01743 -0.00672
0.14711 -0.12914 0.04027
-0.01581 0.19896 -0.26484
0.11484 0.32320 -0.32392
-0.08620 0.30972 -0.26633
0.11614 0.32454 -0.32926
-0.16839 -0.02640 -0.01067
-0.16839 -0.02640 -0.01067
-0.08414 0.29506 -0.29388
0.02847 0.29099 -0.33039
0.15675 -0.13610 0.37043
-0.16895 -0.06180 -0.00095
0.09809 0.23971 -0.19689
0.02488 0.14451 -0.13296
-0.16620 0.05610 -0.03142
0.14773 -0.07088 0.02888
0.14638 -0.06047 -0.00827
0.06725 0.17922 -0.20703
-0.03234 0.19802 -0.22964
-0.00686 -0.00523 0.00919
0.05410 -0.04409 0.01599
0.04458 0.23907 -0.27540
-0.07913 -0.02815 0.04285
0.02444 0.19709 -0.19821
-0.04822 0.19836 -0.20923
0.06195 0.26274 -0.24872
0.05643 0.20303 -0.18880
0.02250 0.18948 -0.18475
-0.08774 0.32507 -0.34338
0.00938 -0.05832 0.02133
0.00265 0.21405 -0.24098
0.03826 0.27431 -0.24246
0.05220 0.21469 -0.25802
0.08442 0.16506 -0.19451
0.11234 0.26796 -0.26965
0.02993 0.15366 -0.13929
0.03040 0.15440 -0.14791
0.05929 0.22060 -0.24275
-0.01270 0.11079 -0.12562
0.01790 0.11065 -0.13039
0.01600 0.24902 -0.24078
0.04774 0.20769 -0.22206
-0.08512 0.21693 -0.22813
0.05789 0.25579 -0.76048
0.11653 0.32620 -0.33249
-0.16737 -0.15377 0.01117
-0.02554 0.23568 -0.27041
-0.00095 0.20680 -0.31330
-0.04500 0.20166 -0.19999
0.03548 0.29944 -0.25119
0.07470 -0.03636 0.01792
-0.00481 0.11073 -0.14176
-0.02768 -0.02427 0.01161
-0.08442 0.32190 -0.34153
-0.03965 -0.03120 0.01035
-0.04730 -0.02546 0.01201
-0.06121 0.16223 -0.22279
0.03098 -0.03696 0.01536
-0.10271 0.18459 -0.17888
-0.00926 0.16996 -0.15259
0.02533 0.20820 -0.24766
0.00377 -0.00994 0.01104
-0.07802 0.17174 -0.23646
-0.06888 0.13050 0.01149
0.03678 -0.01127 0.01353
0.11124 0.20703 -0.15239
-0.08270 0.31915 -0.35178
0.06331 0.21040 -0.79331
-0.03094 0.20189 -0.24123
0.00741 0.09118 -0.10637
-0.06742 -0.01599 0.00107
-0.02569 0.20087 -0.25827
0.01883 0.14770 -0.14646
-0.16046 -0.16012 0.00860
0.07415 0.32280 -0.33255
-0.09635 -0.03353 -0.01167
-0.08187 -0.03151 0.00743
-0.00787 0.18404 -0.16964
-0.00393 0.22493 -0.25637
-0.08904 -0.01849 0.00533
0.06354 0.17629 -0.23406
-0.00618 0.24793 -0.28723
0.04928 0.18181 -0.18686
0.14626 -0.12909 0.03924
-0.00244 0.16243 -0.15943
-0.01961 -0.01809 0.01014
-0.07045 0.17620 -0.26134
0.01754 0.20651 -0.17933
-0.02700 0.20425 -0.25870
-0.00050 0.21212 -0.24594
-0.06071 0.17779 -0.22147
-0.04286 0.18017 -0.17867
-0.09269 0.21714 -0.20878
-0.05784 0.30162 -0.25126
-0.00310 0.21777 -0.30866
0.05387 0.22596 -0.24654
0.06524 0.15842 -0.20498
0.03615 0.15015 -0.14262
0.06119 0.15739 -0.17581
-0.01466 0.18273 -0.16865
-0.07599 0.16680 -0.22839
0.02791 0.18553 -0.16707
0.06016 0.23222 -0.23073
-0.01457 0.18274 -0.16887
-0.00289 0.17261 -0.18215
-0.00747 -0.01562 0.00963
0.00166 0.19007 -0.17629
0.01425 0.09695 -0.13117
-0.04711 0.21222 -0.20304
-0.05224 0.16554 -0.16600
-0.08350 0.30852 -0.25842
0.03346 -0.00491 0.00981
0.10655 0.23848 -0.17727
-0.00092 0.09823 -0.13772
-0.07251 -0.03276 0.00868
0.07525 -0.03000 0.01639
-0.01100 -0.01621 0.00898
0.04592 0.24789 -0.25136
-0.05170 0.24428 -0.23547
0.05197 0.21270 -0.23848
0.06346 0.21642 -0.28320
0.00062 0.21086 -0.25408
-0.00745 0.24102 -0.28759
0.06071 0.16363 -0.18885
-0.00818 0.11383 -0.13316
0.02714 -0.01630 0.01240
0.02714 -0.01630 0.01240
-0.00882 -0.00394 0.00765
-0.00882 -0.00394 0.00765
0.04515 -0.00030 0.01023
-0.01132 -0.00996 0.01583
0.00793 -0.00541 0.00915
0.00229 -0.02948 0.01335
0.04336 -0.01369 0.01266
0.07515 0.16447 -0.22592
0.01353 0.13680 -0.13486
0.01426 0.13434 -0.13052
0.03222 -0.01749 0.01275
0.03236 -0.01808 0.01327
0.01284 -0.02816 0.01357
0.02837 -0.02779 0.01465
-0.00554 -0.01518 0.00948
0.02510 -0.00214 0.00875
0.02510 -0.00214 0.00875
0.02365 -0.01637 0.01207
-0.02775 -0.01626 0.00912
-0.00721 0.11634 -0.13366
0.05149 -0.02753 0.01501
-0.01099 -0.00085 0.00674
-0.02858 -0.00559 0.00605
-0.03841 -0.00290 0.00534
0.05109 -0.01865 0.01461
0.01538 0.11483 -0.12920
0.00320 -0.02966 0.01295
-0.02631 -0.03327 0.01170
0.08162 0.18323 -0.21870
0.01680 0.24891 -0.45377
0.03612 -0.00308 0.01056
0.05056 -0.00521 0.01185
-0.07249 0.00009 -0.00493
-0.00639 0.11249 -0.14125
0.05192 -0.01885 0.01454
0.08629 0.18345 -0.21859
-0.00383 0.10161 -0.14146
0.05279 -0.01811 0.01473
-0.03013 -0.00677 0.00722
0.00900 -0.01717 0.01460
-0.00122 -0.01754 0.00911
-0.08125 -0.01735 0.00483
0.02931 -0.02996 0.01523
-0.03850 -0.00514 0.00587
-0.00916 0.11226 -0.13140
0.00226 -0.05788 0.01859
-0.09241 -0.01820 0.00505
-0.09241 -0.01820 0.00505
-0.04786 -0.05871 0.01526
0.02044 0.08351 -0.15323
-0.01345 -0.04664 0.01507
0.05802 -0.03104 0.01701
-0.02115 0.15177 -0.14021
-0.00157 0.10000 -0.14666
-0.00740 0.09649 -0.13354
-0.06577 -0.01813 0.00644
-0.06583 -0.01833 0.00636
0.01141 0.11255 -0.14194
-0.10344 -0.03456 0.00744
-0.08141 -0.04173 0.00967
-0.02287 -0.02069 0.00934
0.03035 -0.00598 0.01018
0.01612 0.10260 -0.13699
-0.09228 -0.02989 0.00705
-0.01118 0.09543 -0.12339
-0.01074 0.10709 -0.13219
-0.02808 -0.02855 0.01026
0.06263 0.17053 -0.20698
-0.05909 -0.00309 0.00415
0.07705 0.18343 -0.21766
0.08728 -0.01473 0.01669
-0.03401 -0.00667 0.00653
0.01469 0.20334 -0.17911
-0.08912 -0.02964 0.00715
-0.00249 0.12981 -0.13649
-0.04330 -0.04408 0.01350
0.01731 0.11602 -0.12381
-0.04656 -0.05856 0.01477
-0.04656 -0.05856 0.01477
-0.00538 0.11857 -0.13607
-0.02674 0.17482 -0.15707
0.05901 0.17400 -0.17963
0.09733 0.09524 0.03553
0.01419 0.13217 -0.12976
0.01732 0.10719 -0.12395
-0.01266 0.10260 -0.12872
-0.09351 -0.02043 0.00548
0.04988 0.15250 -0.13856
0.00213 -0.01488 0.00997
0.03365 -0.01974 0.01337
0.01855 0.13731 -0.13126
0.01883 -0.01442 0.01036
-0.00711 0.11847 -0.13189
-0.00706 0.11777 -0.13030
0.06033 0.16477 -0.20051
0.00723 0.13253 -0.13939
-0.07464 -0.01520 0.00508
-0.03643 -0.03349 0.01111
-0.02844 -0.00138 0.00572
0.01103 0.11873 -0.12023
0.00713 -0.00229 0.00800
0.06473 0.16240 -0.21301
0.01639 0.20406 -0.18028
-0.00580 0.12880 -0.13050
-0.05731 -0.02880 0.00760
-0.04346 -0.01545 0.00683
-0.00900 0.11589 -0.13294
0.13552 0.05663 0.06125
-0.01021 0.11757 -0.12187
-0.05255 -0.01809 0.01040
-0.01437 0.06520 -0.07134
-0.06849 -0.00497 0.00343
-0.01005 -0.01470 0.00954
-0.00409 0.09908 -0.13865
0.02376 -0.03074 0.01460
-0.01035 0.10151 -0.13094
-0.03461 -0.02839 0.01023
-0.09436 -0.04743 0.01118
-0.04879 0.18731 -0.20426
-0.04879 0.18731 -0.20426
0.03605 -0.03357 0.01650
0.01512 -0.03105 0.01384
-0.09926 -0.01660 0.00380
0.01905 0.10372 -0.12313
0.05031 -0.01391 0.01310
-0.02747 -0.04260 0.01386
-0.08929 -0.03446 0.00818
-0.07408 -0.03006 0.00789
-0.02499 -0.03103 0.01164
-0.09291 -0.01614 0.00427
0.07387 0.16063 -0.22749
0.04818 -0.00634 0.01184
-0.06566 -0.03050 0.00912
-0.03485 -0.00666 0.00603
-0.02576 -0.03278 0.01198
-0.02383 -0.01651 0.00870
-0.03951 -0.04166 0.01285
-0.03951 -0.04163 0.01279
-0.04866 -0.02994 0.00923
0.00507 -0.02747 0.01285
0.02029 -0.03423 0.01531
-0.05267 -0.04639 0.01273
-0.05183 -0.02926 0.00831
0.02526 -0.03423 0.01564
0.00375 0.22030 -0.25603
0.04599 0.05429 -0.11401
-0.00729 0.12075 -0.13050
0.04316 -0.00063 0.00908
-0.00708 0.11671 -0.13832
-0.02576 -0.02034 0.01086
0.05468 -0.02089 0.01679
-0.03171 -0.02798 0.01023
-0.02669 -0.02696 0.01091
-0.05172 0.15764 -0.15156
-0.01329 -0.02126 0.01181
-0.03588 -0.06028 0.01640
0.01155 0.12221 -0.11914
0.08496 0.16136 -0.19274
-0.09334 0.30650 -0.17041
-0.02865 0.22503 -0.25897
-0.02861 0.22521 -0.25999
-0.10321 0.25687 -0.13408
0.04277 0.19992 -0.22829
-0.08220 0.22960 -0.30013
-0.09038 0.30295 -0.25283
-0.01307 0.29103 -0.31848
0.01951 -0.00397 0.00830
-0.01550 -0.03088 0.01126
-0.03544 -0.04145 0.01320
0.01178 -0.00346 0.00913
0.04477 -0.00015 0.01012
0.02240 -0.00668 0.01001
0.00065 -0.04326 0.01611
-0.02700 0.06152 -0.14330
0.01694 -0.00037 0.00843
0.03048 -0.04451 0.01819
-0.08024 0.16036 -0.20207
0.03069 -0.00499 0.01082
-0.00479 -0.00411 0.00760
0.03207 -0.00092 0.00989
0.15084 0.17057 -0.02558
0.11988 0.32314 -0.30544
-0.06863 0.17661 -0.22879
-0.05117 -0.02072 0.00797
-0.05133 -0.04121 0.01180
-0.01150 -0.00671 0.00939
0.01206 -0.03569 0.02138
-0.00901 -0.00351 0.00649
-0.05777 -0.04759 0.01272
0.07696 -0.01854 0.01882
-0.01324 0.21715 -0.26195
0.03061 -0.04735 0.01892
0.03068 -0.04727 0.01871
0.08536 0.24935 -0.24727
0.00950 -0.00510 0.00761
0.10611 0.22223 -0.17947
0.00062 -0.00737 -0.02383
-0.05759 0.22091 -0.19177
0.01110 0.21834 -0.29021
-0.06806 -0.00712 0.00373
-0.00239 -0.01906 0.01140
-0.07899 0.15909 -0.20925
0.06753 0.15944 -0.18899
-0.04315 -0.00707 0.00540
-0.05161 -0.00423 0.00455
0.10707 0.30622 -0.19198
0.10214 0.30332 -0.23284
-0.00932 -0.03169 0.01438
-0.00931 -0.03155 0.01378
-0.04867 -0.02110 0.00883
-0.09175 -0.01449 0.00415
0.08155 -0.03373 0.01978
-0.00060 -0.01664 0.01091
-0.04081 -0.02105 0.00929
-0.00966 -0.00196 0.00675
0.03910 -0.00653 0.01087
0.05535 -0.02014 0.01467
-0.06187 -0.03420 0.00992
0.08703 -0.01985 0.01747
0.03711 -0.03076 0.01577
0.00857 -0.04498 0.01565
0.02614 -0.04433 0.01776
0.07145 -0.04666 0.02100
-0.03485 -0.00670 0.00606
-0.05398 -0.00075 0.00381
-0.03422 -0.04619 0.01374
-0.05228 -0.06096 0.01560
0.05200 -0.03374 0.01712
-0.02756 -0.00150 0.00584
-0.03092 -0.00677 0.00633
-0.05770 -0.00386 0.00405
0.06908 0.16814 -0.23345
-0.08728 0.31139 -0.26446
-0.05872 -0.00551 0.00462
-0.04048 0.22739 -0.21178
0.00214 -0.06182 0.02064
-0.01491 -0.00661 0.00732
0.01100 -0.12307 0.19002
-0.02689 -0.02808 0.01142
-0.06914 -0.00472 0.00457
0.05173 -0.04318 0.01922
0.04604 -0.01598 0.01239
-0.06388 -0.01648 0.00560
-0.00126 -0.03230 0.01343
0.06980 0.15581 -0.18936
0.03017 -0.01865 0.01274
0.00536 0.10844 -0.13420
0.00657 -0.01475 0.01068
0.05189 -0.01586 0.01349
-0.07782 -0.04619 0.01138
-0.06701 -0.01905 0.00622
-0.04308 -0.00706 0.00551
0.08815 -0.02023 0.01916
0.11890 -0.20799 0.35470
0.01101 0.16053 -0.15678
0.01526 -0.00058 0.00860
0.05718 -0.02949 0.01717
0.06509 -0.01615 0.01145
-0.03291 -0.00545 0.00627
-0.05947 -0.01844 0.00598
0.08060 -0.01844 0.01620
-0.04398 -0.00260 0.00510
0.04350 -0.00520 0.01100
-0.02373 -0.01905 0.00953
0.07720 -0.01474 0.01571
0.03607 -0.04246 0.01790
0.03915 -0.00662 0.01097
0.00376 0.10835 -0.14029
-0.03939 -0.00642 0.00538
-0.07155 -0.00414 0.00404
-0.00976 -0.00537 0.00744
0.05847 -0.01624 0.01328
-0.08562 0.17057 -0.21869
-0.01570 -0.00341 0.00664
0.05334 -0.01817 0.01611
0.00449 0.12050 -0.14265
-0.03177 0.23272 -0.23334
-0.02618 0.25947 -0.25247
-0.02700 0.25914 -0.23542
0.00125 0.20445 -0.24756
-0.00096 0.25879 -0.23107
-0.04467 0.25574 -0.22833
-0.07132 0.16472 -0.23101
0.06446 0.29331 -0.31746
0.03400 0.29385 -0.25109
0.01657 0.24687 -0.22739
-0.00810 0.11710 -0.13481
0.01067 0.11505 -0.14858
0.03893 0.21649 -0.24331
0.09846 0.17634 -0.17690
-0.00866 0.09397 -0.13070
-0.01106 0.09566 -0.12400
0.06383 0.29585 -0.32112
-0.07307 0.18287 -0.22878
0.01913 0.18566 -0.16903
0.02155 0.26180 -0.24557
0.01644 0.29865 -0.27005
0.01869 0.17773 -0.20216
0.00874 0.13019 -0.14083
0.07658 0.16077 -0.22597
0.01040 0.20836 -0.18497
0.08359 0.16368 -0.22138
-0.06862 0.22829 -0.24085
0.08598 0.18314 -0.21810
0.07155 0.17052 -0.23061
-0.00291 0.25180 -0.23537
0.04681 0.18849 -0.19025
0.08145 0.18315 -0.21877
-0.03878 0.30311 -0.32365
0.00235 0.28554 -0.33638
-0.00635 0.10446 0.04674
-0.06000 0.18440 -0.22587
0.01394 0.15480 -0.18020
0.07672 0.15927 -0.22554
0.01580 0.16446 -0.15820
0.01625 0.16956 -0.17196
0.01594 0.16867 -0.16369
0.00464 0.12339 -0.14115
0.07641 0.29680 -0.23776
0.08125 0.17137 -0.22305
0.04988 0.21190 -0.25438
-0.06249 0.16368 -0.21444
-0.01106 0.11491 -0.12467
0.06238 0.16018 -0.19608
-0.03993 0.17456 -0.14347
0.01666 0.20606 -0.18376
-0.00273 0.09446 -0.14132
0.01064 0.17410 -0.15366
0.00473 0.12595 -0.13966
-0.05182 0.16365 -0.15677
0.02173 0.19358 -0.18399
-0.00245 0.19805 -0.18881
0.01629 0.24677 -0.22871
0.09458 0.16916 -0.20744
0.00038 0.11130 -0.14027
0.04318 0.25483 -0.30455
0.04161 0.24646 -0.25669
0.10236 0.27984 0.23689
0.00025 0.18093 -0.17838
0.06577 0.15929 -0.21008
-0.00233 0.19962 -0.19077
0.01892 0.10611 -0.12396
-0.00164 0.23274 -0.26938
-0.01230 0.11517 -0.12241
0.00230 0.12379 -0.18770
-0.00385 0.15280 -0.12833
0.06434 0.16074 -0.20387
-0.05084 0.17443 -0.18604
0.08602 0.18302 -0.21749
-0.00645 0.11619 -0.13482
0.02032 0.14735 -0.15468
0.01878 0.10584 -0.12501
0.01455 0.21746 -0.21338
0.01844 0.10964 -0.12076
0.06321 0.17591 -0.18533
0.00073 0.14585 -0.16767
-0.00654 0.09721 -0.13452
-0.07965 0.17181 -0.22540
0.00634 0.21085 -0.19457
-0.00278 0.10142 -0.13977
-0.02081 0.19980 -0.25677
-0.07496 0.16643 -0.22832
-0.06884 0.17552 -0.23053
-0.02269 0.20396 -0.25885
0.09909 0.18054 -0.17969
-0.06239 0.22757 -0.22549
0.01315 0.13216 -0.13241
0.05209 0.22855 -0.24942
-0.05275 0.18044 -0.24450
-0.07541 0.17396 -0.22620
-0.01401 0.19879 -0.25809
0.01102 0.11273 -0.13913
0.01617 0.21456 -0.21199
-0.06093 0.18391 -0.22451
0.06535 0.16630 -0.22040
0.10082 0.17343 -0.17097
-0.00263 0.12925 -0.13689
0.01077 0.12535 -0.13447
0.06381 0.16106 -0.20510
-0.00831 0.11413 -0.13387
-0.06379 0.17263 -0.23200
-0.00509 0.15613 -0.15822
0.02204 0.20225 -0.19947
-0.00030 0.17980 -0.17653
-0.07357 0.16584 -0.23006
0.00791 0.22127 -0.24375
0.06264 0.17299 -0.18250
0.05963 0.22734 -0.21780
-0.10233 -0.03042 0.00677
0.02836 0.16249 -0.15656
0.00409 0.21159 -0.21138
0.01163 0.20287 -0.18005
0.08717 0.19428 -0.21408
-0.01136 0.10173 -0.12937
-0.00685 0.28814 -0.33652
-0.05291 0.16748 -0.22539
-0.00188 0.26323 -0.24798
-0.06935 0.19788 -0.22765
0.11182 0.29388 -0.28039
0.11182 0.29388 -0.28039
-0.00821 0.11932 -0.12585
-0.02448 0.20453 -0.25747
0.06202 0.17478 -0.21435
-0.03978 0.23031 -0.25371
-0.04394 0.30707 -0.31173
0.07088 0.15677 -0.18381
-0.00906 -0.01452 0.00970
-0.04301 0.19211 -0.14961
0.02450 0.20266 -0.19822
0.02567 0.13562 -0.13426
0.02481 0.13560 -0.12808
0.04868 0.17821 -0.17884
-0.01492 -0.00655 0.00720
0.01903 0.29507 -0.33200
-0.05512 0.30433 -0.24937
0.06570 0.16895 -0.22971
0.07232 0.30467 -0.24032
0.06415 0.16296 -0.15689
0.02770 -0.00165 0.00916
-0.03984 -0.04472 0.01336
-0.00388 0.09572 -0.13729
-0.03086 -0.03397 0.01179
-0.01253 0.28127 -0.30986
0.11710 0.32968 -0.33681
-0.00117 0.14314 -0.15394
0.05846 0.26481 -0.25125
0.06242 0.17315 -0.23047
0.01805 -0.01565 0.01034
0.07788 -0.04118 0.02135
0.04463 0.18263 -0.17295
-0.01420 -0.04705 0.01507
0.00105 0.10108 -0.13997
-0.00546 0.18312 -0.17543
0.01706 0.08111 -0.49914
0.01393 -0.05658 0.01842
-0.03473 -0.05521 0.01568
0.10477 0.23994 -0.17498
0.03941 0.21207 -0.24306
-0.09805 -0.01491 0.00377
-0.09824 -0.01798 0.00430
-0.09814 -0.02078 0.00479
0.02014 -0.06092 0.02247
0.11285 0.26176 -0.19796
0.02391 0.14580 -0.13600
-0.03473 -0.05524 0.01569
0.03787 0.29864 -0.24508
-0.08538 0.17781 -0.22220
0.10126 0.30381 -0.22594
-0.08205 0.23140 -0.23884
0.11612 0.32215 -0.33509
-0.09277 -0.03351 0.00882
0.02712 -0.00344 0.00998
0.06212 -0.04506 0.02014
0.01636 -0.01997 0.01187
-0.00722 0.13462 -0.12267
-0.00063 0.26186 -0.25403
0.03665 -0.00682 0.02189
0.01804 0.24542 -0.22406
0.02756 0.20514 -0.22975
-0.04899 -0.00689 0.00544
0.03259 -0.04562 0.01873
-0.02733 -0.00124 0.00544
-0.04955 0.32551 -0.34014
0.02171 0.24385 -0.23209
-0.05247 -0.01567 0.00562
-0.07873 0.16510 -0.21532
0.00907 0.21429 -0.22032
-0.00307 -0.03562 0.02692
0.01708 0.29393 -0.27066
-0.02279 -0.05667 0.01660
0.02333 0.24837 -0.24988
0.02165 -0.01461 0.01151
-0.07230 -0.00635 0.00519
0.05606 0.22883 -0.27436
0.00685 -0.13452 0.41061
0.00363 0.21257 -0.22642
0.00172 0.21208 -0.24255
-0.04558 0.32257 -0.34086
-0.02585 0.20244 -0.20853
-0.09338 0.18728 -0.18782
-0.00441 0.13456 -0.13159
0.01379 0.21595 -0.22866
0.02687 0.18267 -0.17057
0.06319 -0.02024 0.01510
0.09704 0.17109 -0.17970
0.00738 0.16747 -0.16767
-0.10077 0.19541 -0.15639
-0.02099 -0.05526 0.01660
-0.05294 -0.03290 0.01344
-0.00602 -0.03069 0.01255
0.03688 -0.00414 0.01137
-0.02212 0.20138 -0.26066
-0.01090 -0.01572 0.00886
-0.08435 0.30428 -0.25040
-0.02943 -0.05514 0.01606
-0.01429 -0.01501 0.00934
0.05803 0.22787 -0.25007
-0.03419 -0.04286 0.01324
-0.02697 -0.03136 0.01166
0.01787 0.18064 -0.16082
0.04367 -0.00166 0.00995
0.09886 0.30474 -0.23264
-0.01346 0.29438 -0.32187
0.02358 0.18614 -0.18408
0.06525 -0.04373 0.01979
0.01917 0.18569 -0.16832
-0.01686 -0.03298 0.01259
0.08915 0.29660 -0.54154
0.07455 -0.01591 0.01466
0.05034 -0.00565 0.01242
-0.04900 -0.00688 0.00517
-0.09684 -0.17183 0.79865
0.07317 0.17302 -0.21808
-0.10063 0.23270 -0.15832
0.01243 0.13262 -0.13149
-0.02407 -0.00131 0.00661
0.09209 0.16934 -0.18813
0.00851 0.25168 -0.21992
-0.07995 0.17467 -0.23414
0.07136 0.25262 -0.25815
-0.04420 -0.05712 0.01681
0.02235 -0.05484 0.01874
0.08278 0.17000 -0.21845
0.15072 0.06223 0.00135
0.15072 0.06223 0.00135
-0.03853 0.23891 -0.23679
-0.03810 0.23941 -0.24305
-0.05504 0.22801 -0.21652
0.01156 0.20350 -0.18280
-0.07975 0.17152 -0.22679
-0.00854 0.11601 -0.13027
-0.00947 0.26904 -0.29234
-0.01239 0.09157 -0.10477
0.03873 0.22180 -0.31126
-0.04238 0.20501 -0.17404
0.01613 0.16917 -0.11784
-0.00819 0.11375 -0.13280
0.03066 -0.04711 0.01865
-0.03277 -0.00409 0.00596
-0.03281 -0.00234 0.00497
0.03254 -0.04592 0.01931
-0.00057 0.26114 -0.23217
0.11101 0.31689 -0.29800
0.11101 0.31689 -0.29800
0.06189 -0.03007 0.01617
0.06215 -0.03009 0.01712
-0.00820 0.11038 -0.13488
-0.17211 0.26797 -0.03828
-0.10195 0.21675 -0.17948
-0.16634 0.30560 -0.06689
0.09063 0.16899 -0.21017
0.10247 0.30691 -0.24902
0.00981 -0.04430 0.01566
0.03259 -0.04230 0.01715
0.03995 -0.00292 0.01079
-0.00456 0.13094 -0.14023
-0.05131 0.17855 -0.21168
0.06160 0.16527 -0.19873
-0.05815 -0.03762 0.03902
-0.00079 0.26935 -0.28469
0.00472 0.13376 -0.13589
-0.02488 -0.06087 0.01714
-0.05305 0.16749 -0.22505
-0.05712 -0.00051 0.00345
0.03073 -0.04125 0.01738
0.04218 -0.00662 0.01120
-0.04467 -0.05853 0.01617
0.06891 0.16159 -0.22747
0.02710 0.14429 -0.13453
0.02642 -0.04251 0.01852
0.05717 0.15652 -0.15890
0.00547 0.10541 -0.14235
-0.01699 -0.05963 0.01735
0.03018 -0.01759 0.01304
-0.06243 -0.01748 0.00661
0.00989 0.09634 -0.13514
0.05667 0.26122 -0.25890
0.01695 0.13782 -0.13476
0.01853 0.11050 -0.12353
-0.04304 -0.00087 0.00405
-0.07228 0.17391 -0.23005
-0.04398 0.23447 -0.23144
0.00409 0.03928 -0.14502
0.00276 0.23147 -0.24174
0.06592 0.22615 -0.22373
-0.05588 0.31343 -0.22255
0.08666 0.19698 -0.22483
0.04453 0.17807 -0.15440
0.01982 0.18887 -0.16570
-0.07409 0.30586 -0.31907
-0.06750 0.17201 -0.24586
0.08318 0.16774 -0.21935
0.05539 0.21963 -0.24022
0.00026 0.20051 -0.20595
-0.01100 0.25581 -0.58385
0.04490 0.18837 -0.19612
0.01836 0.06484 0.03311
0.05944 0.22382 -0.23072
0.02165 0.19914 -0.19217
-0.00136 0.25569 -0.22634
-0.01902 0.15560 -0.14758
-0.02456 0.20414 -0.22312
-0.00388 0.10162 -0.13910
0.08079 0.16407 -0.22486
-0.02129 0.20202 -0.26272
0.09874 0.30164 -0.25720
0.07135 0.25591 -0.26217
-0.06508 0.16445 -0.23041
