# .PCD v.7 - Point Cloud Data file format
VERSION .7
FIELDS x y z
SIZE 4 4 4
TYPE F F F
COUNT 1 1 1
WIDTH 479
HEIGHT 1
VIEWPOINT 0 0 0 1 0 0 0
POINTS 479
DATA ascii
0.02212 -0.00818 -0.06562
-0.03319 0.00642 0.02324
-0.02054 0.00494 -0.01164
0.03314 -0.00406 -0.08066
0.08215 0.00903 -0.20262
0.00886 -0.02238 -0.03951
0.00910 -0.02193 -0.03828
0.02615 -0.00825 -0.06934
-0.00069 0.00253 -0.04520
0.02467 -0.00724 -0.07095
0.04269 0.01116 -0.09624
0.03436 0.01413 -0.08265
0.00904 0.00043 -0.06137
0.00462 0.00019 0.01845
0.00817 -0.00189 0.01441
-0.00092 -0.00267 0.02594
-0.02159 -0.00252 -0.00455
0.00048 -0.02835 -0.01277
0.03650 0.00321 -0.08902
0.04321 0.01624 -0.18363
0.03806 -0.00025 -0.08679
-0.00711 -0.02003 -0.00980
-0.01712 0.00529 0.01000
-0.00993 0.00433 0.04181
0.08219 0.04427 -0.17255
0.00093 -0.02972 -0.00883
0.06529 -0.00498 -0.16020
0.24735 0.01249 -0.66846
-0.00728 0.00322 0.05229
-0.03007 -0.02554 0.04733
0.00269 -0.03921 -0.02677
-0.02630 -0.00746 0.02426
-0.03075 0.00662 0.01329
0.12400 0.02983 -0.29484
-0.01993 -0.00647 -0.00275
0.07687 0.00355 -0.22256
0.02619 0.02386 -0.13908
-0.00831 -0.02488 -0.00916
0.11292 -0.01109 -0.27099
-0.00781 0.00250 0.03943
0.00537 0.00207 0.01053
-0.00507 -0.02579 -0.00322
-0.01623 -0.02624 0.02313
-0.01017 0.00103 0.04404
-0.00529 -0.02859 -0.00732
-0.00342 0.00520 0.00688
0.00646 0.00017 0.01622
0.00188 -0.03860 -0.01775
0.01500 0.01108 0.01590
-0.01342 -0.01219 0.02575
0.01125 -0.00143 0.01167
0.39309 -0.02253 -0.99994
-0.03346 0.00079 0.02512
0.03041 -0.01262 -0.07964
0.01703 0.01705 0.01368
0.19505 0.00749 -0.48211
0.30840 0.00616 -0.74568
0.06529 -0.00498 -0.16020
0.09061 -0.00693 -0.21614
0.04288 0.00437 -0.10165
0.01574 0.02529 0.01309
0.28167 -0.00806 -0.70274
-0.00697 -0.01202 0.02461
0.00753 0.03265 0.04921
-0.03741 0.01908 0.07144
-0.03784 0.01926 0.07268
-0.02325 0.01765 0.06309
0.21653 0.01890 -0.47511
-0.01466 0.00267 0.01271
0.09164 0.01780 -0.15032
-0.03272 0.00912 0.06539
-0.02303 -0.00510 0.00736
-0.03692 -0.00717 0.06480
0.01425 0.01687 0.02383
0.29758 0.00863 -0.74070
0.07570 0.00122 -0.20642
-0.02839 -0.00820 0.06013
0.13941 -0.02035 -0.37775
0.11197 -0.02181 -0.30832
-0.03031 0.00607 0.06427
-0.04314 0.01553 0.06537
0.20702 -0.00457 -0.50494
0.15193 0.01056 -0.34950
0.02950 0.00530 -0.06389
-0.04713 0.00644 0.06737
-0.01963 -0.00877 0.05405
-0.03125 0.00475 0.02449
0.35465 -0.00836 -0.91879
-0.01912 0.00549 0.05769
0.24915 0.01863 -0.55499
-0.04344 -0.00369 0.05809
-0.01550 -0.00790 0.05124
0.13611 -0.02222 -0.37011
-0.01084 0.00000 0.01063
-0.01486 -0.00007 0.01233
0.00218 -0.00203 -0.01059
0.05228 0.01133 -0.10200
0.28686 0.00452 -0.70388
0.00578 0.00446 0.00000
0.06181 -0.01854 -0.17995
0.10229 0.03084 -0.16152
0.04732 0.00045 -0.13343
0.00430 0.00288 0.01519
0.11880 -0.00749 -0.29238
0.11961 -0.00744 -0.29642
0.12116 -0.00855 -0.29894
0.12122 -0.00846 -0.29904
0.11937 -0.00758 -0.29289
0.11650 -0.00656 -0.28901
0.11895 -0.00755 -0.29177
0.12089 -0.00844 -0.29820
0.12128 -0.00856 -0.29815
0.12032 -0.00841 -0.29716
0.12119 -0.00852 -0.29879
0.12155 -0.00880 -0.29940
0.12137 -0.00847 -0.29912
0.11683 -0.00700 -0.29030
0.12088 -0.00834 -0.29804
0.11849 -0.00765 -0.29224
0.12122 -0.00854 -0.29887
0.11959 -0.00836 -0.29522
0.12169 -0.00847 -0.29989
0.12117 -0.00865 -0.29870
0.12114 -0.00864 -0.29866
0.12116 -0.00864 -0.29871
0.12124 -0.00861 -0.29894
-0.00305 -0.00032 0.00777
-0.01768 0.02523 0.05475
0.00100 0.02474 0.02676
0.00086 -0.03495 -0.01441
-0.00955 -0.01212 0.02376
0.12779 0.03323 -0.25685
-0.02512 -0.02626 0.04239
-0.00291 -0.02801 -0.00681
-0.00054 -0.03205 -0.01043
0.00618 0.00348 0.01721
-0.02815 -0.00772 0.02352
0.00107 -0.00194 0.00565
-0.02348 -0.02447 0.03940
-0.02064 -0.02503 0.04091
0.01587 0.01647 0.01767
0.00249 0.00184 0.02196
0.00441 0.02217 -0.00733
-0.02877 -0.01651 0.03790
0.01414 0.00734 0.01625
-0.02088 -0.02609 0.04096
-0.00839 -0.00219 -0.00328
0.06803 -0.00197 -0.17615
-0.03540 0.01180 0.02337
0.08505 -0.00267 -0.21905
-0.03082 -0.03009 0.05102
0.06660 -0.00613 -0.17376
-0.04088 0.00323 0.03332
0.27379 0.00497 -0.67306
0.06197 -0.00824 -0.16203
0.06187 -0.00823 -0.16180
0.14091 0.01915 -0.29666
-0.03882 0.01845 0.01471
-0.01349 0.01451 0.00806
0.03649 0.02952 -0.04447
-0.02559 -0.02569 0.04043
-0.02267 -0.02620 0.03764
0.04974 0.02787 -0.05296
0.07482 0.00407 -0.19386
0.09911 -0.00436 -0.24943
-0.03216 0.01970 0.01138
0.01396 0.01246 0.02195
-0.01637 -0.01203 0.02470
0.12164 -0.00870 -0.29927
-0.00559 -0.00318 0.04117
-0.03685 0.01981 0.02372
-0.03256 -0.00785 0.06205
-0.03131 0.01016 0.02583
-0.00617 -0.00010 0.01303
0.33294 -0.00787 -0.85078
0.00800 0.00218 0.01671
0.00070 -0.00162 0.01068
-0.00121 -0.00640 0.02553
-0.02178 0.00462 0.01495
0.00101 -0.02897 -0.01068
-0.00204 -0.03962 -0.01233
-0.00131 -0.03468 -0.01335
-0.02213 -0.02719 0.03596
0.00001 -0.02901 -0.01571
0.00007 -0.02901 -0.01587
-0.00480 -0.04297 -0.00693
-0.00108 0.00183 0.01072
0.07305 0.01241 -0.17598
0.28106 0.00862 -0.77713
0.03116 0.02774 -0.06754
0.04056 0.02640 -0.09329
0.07521 0.01150 -0.16926
0.07492 0.01175 -0.16740
0.07475 0.01071 -0.17879
0.07475 0.01071 -0.17879
0.11073 0.03756 -0.21960
-0.03215 0.00977 0.06575
-0.02132 -0.02155 0.03137
-0.00107 -0.03921 -0.01728
0.07365 0.01238 -0.17781
-0.00389 -0.03823 -0.01078
-0.00336 -0.03354 -0.01356
0.01567 0.01427 0.01802
-0.03397 0.01448 0.02565
0.19635 0.02667 -0.53086
0.03402 0.02587 -0.07755
-0.00571 -0.01911 -0.01529
-0.00139 -0.04161 -0.01650
0.00374 -0.01987 -0.00864
-0.00166 -0.03911 -0.01689
0.11155 0.03621 -0.21807
0.04833 0.02128 -0.10135
-0.00431 -0.03274 -0.01106
-0.01003 0.05272 0.16879
0.06160 0.03253 -0.07790
0.06194 0.03307 -0.07135
0.24681 0.01518 -0.65611
-0.01448 0.01888 0.06291
0.04668 0.02295 -0.09313
0.00128 -0.03426 -0.01567
0.00259 -0.00220 0.02353
-0.01437 0.01788 0.05112
-0.00775 -0.03661 -0.00208
-0.00195 -0.02811 -0.00385
0.00723 -0.02836 -0.02305
-0.00119 -0.03552 -0.01607
0.00222 0.00407 0.02653
0.03359 0.02471 -0.08174
0.03359 0.02471 -0.08175
-0.02167 -0.00792 0.00960
0.00086 0.01789 0.04328
-0.00973 -0.02720 0.00699
0.00118 -0.03115 -0.01245
-0.00127 -0.03250 -0.01666
-0.02232 -0.00936 0.01697
-0.02410 -0.00932 0.02078
-0.00139 -0.03349 -0.01576
0.21307 0.01841 -0.58444
0.07709 0.01010 -0.17913
0.21243 0.02090 -0.56486
0.27393 0.00415 -0.67281
-0.00034 -0.03366 -0.01309
0.00091 -0.03142 -0.00967
-0.00242 -0.03824 -0.01481
-0.00059 -0.02748 -0.02316
0.24756 0.01240 -0.66799
0.00000 -0.03636 -0.01477
0.01237 0.01737 0.02505
0.14818 0.03130 -0.29900
-0.01890 0.00012 -0.01353
0.21434 0.02173 -0.59327
0.07219 0.01091 -0.17612
0.01130 -0.00280 -0.02496
0.19850 0.02127 -0.48056
0.01229 0.00931 0.01674
0.00130 -0.03224 -0.01316
-0.00223 -0.02859 -0.01047
0.00005 -0.02059 -0.00462
-0.00136 -0.01019 0.01802
0.00572 0.00325 0.00935
-0.00332 -0.00913 0.02384
-0.03990 0.02157 0.01799
-0.02653 -0.00694 0.01484
-0.02136 0.00502 0.04960
-0.01767 0.00448 0.04081
-0.00942 0.00851 0.04154
-0.00233 -0.02353 -0.01691
-0.01527 0.02349 0.00585
-0.01728 0.02428 0.01099
0.00126 0.00867 0.03006
-0.00407 -0.02830 -0.01023
-0.00420 -0.02637 -0.01656
-0.00779 0.01920 0.05191
-0.02619 -0.00843 0.01477
0.00332 -0.02208 -0.01273
-0.00215 -0.03660 -0.01521
0.00082 -0.02411 -0.00934
-0.03692 -0.00717 0.06480
-0.03760 0.02015 0.01951
0.00675 0.01728 0.03442
0.07438 0.01168 -0.16185
-0.02913 -0.00806 0.06227
-0.02359 0.00461 0.02480
0.00070 -0.03660 -0.01486
-0.00418 -0.02767 -0.01374
-0.02257 0.00490 0.04202
-0.02241 0.00494 0.04175
0.00598 -0.02675 -0.02021
0.01158 0.00305 0.01177
0.00972 0.00359 0.01727
0.00145 -0.02142 -0.00686
-0.02762 -0.00542 0.02214
-0.00133 -0.01015 0.01776
0.31073 -0.00084 -0.76583
-0.01486 -0.00097 -0.01890
-0.00375 0.00845 0.03548
-0.00721 -0.01986 -0.01213
0.00837 0.01420 0.04082
-0.00017 -0.03920 -0.01664
0.00256 -0.02052 -0.00838
-0.03051 0.00577 0.02367
0.00924 0.00299 0.01693
0.00656 0.00322 0.02243
-0.03528 0.01616 0.00610
-0.00296 -0.02778 -0.01851
-0.01206 -0.01222 0.02233
-0.00405 -0.02784 -0.00833
-0.00434 -0.02789 -0.00762
-0.02469 -0.00623 0.00686
-0.00045 -0.04099 -0.01470
0.00152 0.01663 0.03144
-0.04109 0.02026 0.02179
-0.00752 -0.02014 -0.01019
-0.00437 -0.00062 0.01235
-0.01336 0.02315 0.03343
-0.03506 0.02973 0.01573
-0.03419 -0.00729 0.02800
-0.02345 -0.00185 -0.00382
-0.02783 -0.00762 0.01817
-0.00533 -0.02220 -0.01264
-0.01455 -0.03762 0.01776
-0.01058 0.01467 0.05698
-0.01033 0.01394 0.04934
0.01359 0.01621 0.01332
-0.02697 -0.00695 0.01578
-0.00364 -0.03186 -0.01176
-0.01787 0.02514 0.05527
-0.00541 -0.01870 -0.01713
-0.00320 0.00201 0.03416
0.01429 0.00184 0.00707
0.00066 -0.03375 -0.01268
0.00066 0.01315 0.03360
-0.00678 0.00246 0.03686
-0.02352 -0.02325 0.03995
-0.00540 -0.02830 -0.00127
0.00184 -0.00964 0.01586
0.00202 -0.00978 0.01527
-0.00922 0.00222 0.00994
0.00387 -0.02712 -0.01808
-0.03069 -0.02486 0.06060
0.00211 -0.01122 0.01378
-0.00270 -0.02759 -0.01496
0.00131 -0.04196 -0.02042
0.00444 0.00293 0.02878
-0.03272 -0.02871 0.05683
0.00210 -0.00860 0.01587
0.00173 -0.00858 0.01687
0.00990 -0.00010 0.01640
-0.02719 0.01725 0.06874
-0.01604 0.00518 0.04260
-0.01497 0.00510 0.04001
-0.03165 0.01856 0.02058
-0.01533 -0.00866 -0.01335
-0.03141 -0.02990 0.05506
-0.00550 0.02007 0.06945
0.01810 0.01018 -0.07419
-0.02070 0.00530 0.04314
-0.02070 0.00530 0.04314
-0.01229 0.00195 0.03081
0.00375 -0.02054 -0.00871
-0.01967 0.00459 0.09193
0.01156 -0.00034 0.01423
-0.02559 -0.02569 0.04043
0.00003 -0.01111 0.02349
-0.02762 -0.00542 0.02214
-0.04214 0.01982 0.02476
-0.00101 0.00081 0.02942
0.00397 0.01848 0.04028
0.00220 -0.02077 -0.00646
-0.00491 0.00092 0.03656
-0.01066 -0.00408 0.04669
-0.00882 0.01030 0.00903
-0.01115 0.00129 0.04973
-0.03214 0.00436 0.02477
-0.04034 0.02018 0.01687
-0.02619 -0.00597 0.02518
-0.02619 -0.00596 0.02513
-0.03132 -0.03146 0.05274
-0.03884 0.02090 0.01467
-0.01282 0.00545 0.04502
-0.01282 0.00545 0.04502
-0.00544 0.01454 0.05261
0.00393 -0.02463 -0.01857
-0.01071 -0.00249 0.04309
-0.03339 -0.00765 0.06442
-0.03512 0.01071 0.01035
-0.00119 -0.02947 -0.00878
-0.01937 -0.01189 0.02439
-0.00130 0.00571 0.03402
0.00162 0.00253 0.02826
-0.03306 0.00373 0.03741
-0.01647 -0.00875 0.03531
0.04312 0.03756 -0.08368
0.00077 0.00657 0.03095
0.00077 0.00657 0.03095
-0.00622 -0.02090 -0.01099
-0.02042 0.00236 0.03963
-0.00432 -0.02919 -0.01457
0.00481 -0.01944 -0.00952
-0.02010 0.00511 0.02156
-0.03055 0.00620 0.04495
0.00159 -0.02819 -0.00982
-0.03560 0.00600 0.04245
0.01265 0.00349 0.01316
-0.00229 -0.00678 0.02216
-0.00128 -0.02147 -0.02084
-0.01742 -0.00367 -0.01193
-0.02119 0.01966 0.06074
-0.02451 -0.00989 0.01176
0.00164 0.00286 0.03004
0.00923 0.00407 0.01731
-0.03263 0.01085 0.02246
-0.03575 0.00538 0.02654
-0.04499 0.02115 0.05802
0.06872 0.00174 -0.18444
-0.03185 0.00979 0.04340
-0.04228 0.02132 0.05746
-0.05425 0.02385 0.07261
-0.00664 0.01520 -0.04038
0.00907 0.01387 -0.00087
-0.02601 0.00092 0.01826
-0.04006 0.01049 0.06242
-0.03072 0.01360 0.05842
0.01098 -0.03873 -0.04151
0.07326 0.00130 -0.18617
-0.02842 0.00147 0.02146
0.00709 -0.00278 -0.05650
0.00499 0.04000 0.01292
-0.02936 0.00175 0.02063
-0.02021 -0.01151 0.01902
0.00599 -0.01022 -0.04937
-0.00523 -0.00333 -0.03560
0.00559 0.00565 0.03193
-0.03116 0.00225 0.02246
0.04137 0.01041 -0.06996
0.02351 -0.01118 -0.06882
-0.03680 0.00476 0.03167
0.01389 -0.00350 -0.06585
0.09742 0.00226 -0.26509
-0.01663 0.00859 0.05721
0.00425 -0.00107 0.01106
0.02869 0.00396 -0.07141
0.08435 -0.00333 -0.22064
0.03785 -0.00496 -0.06560
-0.00871 0.00473 0.00714
0.02605 0.00803 -0.03568
0.05635 0.01676 -0.16390
0.00143 -0.02529 -0.00432
-0.00302 -0.00074 -0.04247
0.00231 0.02534 0.03272
0.08641 0.00573 -0.23139
0.02552 0.00536 -0.08322
-0.00634 -0.02311 -0.00961
-0.03865 0.00925 0.03353
0.05326 -0.00750 -0.13556
-0.03405 0.00323 0.02478
0.00798 -0.00086 0.00076
-0.02018 0.00201 0.05809
-0.01304 0.00525 0.05176
0.07751 0.00310 -0.20555
0.01227 0.02776 0.03116
-0.03995 -0.00868 0.06484
0.02857 0.01962 -0.06374
0.02493 -0.00969 -0.06905
0.02640 -0.00347 -0.07754
-0.03447 0.00341 0.02365
-0.03421 0.00450 0.02435
0.03474 0.01485 -0.08530
0.08110 0.00212 -0.21695
0.10047 0.00582 -0.24746
0.04318 -0.00252 -0.12177
-0.02756 -0.03343 0.05172
0.19444 0.02357 -0.53241
-0.04984 0.02659 0.04901
0.01993 -0.00841 -0.06677
0.00561 0.00127 0.01733
-0.00197 -0.03479 -0.01587
-0.03176 0.00351 0.03511
0.00140 -0.03787 -0.01696
