# .PCD v.7 - Point Cloud Data file format
VERSION .7
FIELDS x y z
SIZE 4 4 4
TYPE F F F
COUNT 1 1 1
WIDTH 1311
HEIGHT 1
VIEWPOINT 0 0 0 1 0 0 0
POINTS 1311
DATA ascii
-0.02954 0.00841 -0.02394
0.08404 -0.01960 0.04390
-0.07432 0.04574 -0.09310
-0.03490 -0.06529 0.02307
0.05375 -0.05127 0.06146
-0.03348 -0.07520 0.02799
-0.00200 -0.05465 0.05766
-0.02848 0.02689 -0.06493
-0.03355 -0.06530 0.01947
-0.03490 -0.06529 0.02307
0.05185 -0.01973 0.04915
-0.04050 0.02470 -0.05606
-0.03251 -0.05656 0.01894
0.08263 -0.02005 0.04456
-0.10383 -0.06874 0.03718
0.00838 0.04218 -0.08708
-0.05548 0.04238 -0.09329
-0.02436 -0.05635 0.02233
-0.09535 -0.02969 0.01335
0.04064 -0.01308 0.03702
-0.02636 -0.05073 0.02128
0.10288 -0.04667 0.05576
-0.10922 -0.07289 0.05252
0.07661 -0.06157 0.07329
0.10065 -0.05732 0.05468
0.04404 -0.05477 0.06882
-0.03599 0.05794 -0.13444
0.04560 -0.04159 0.06035
0.04595 -0.04191 0.06151
0.00701 -0.05663 0.06098
-0.02497 -0.07650 0.02578
0.01297 0.00374 0.00089
-0.01390 0.06322 -0.14665
-0.03460 0.03756 -0.08717
0.03140 0.06157 -0.10725
-0.00177 -0.06648 0.06091
-0.02866 0.05938 -0.14264
0.08691 -0.02433 0.04240
0.05250 -0.04154 0.05597
0.04691 -0.03366 0.05626
0.04063 0.06649 -0.10893
0.04539 0.03869 -0.05199
0.04536 0.03869 -0.05207
0.03334 0.07135 -0.12130
0.02200 -0.00204 0.01723
-0.03435 -0.07505 0.02900
-0.03435 -0.07505 0.02900
-0.04033 0.02896 -0.07015
0.05528 -0.04024 0.05517
-0.05481 0.04526 -0.10507
-0.01502 -0.06196 0.02665
-0.04759 0.02744 -0.06369
-0.00336 -0.06522 0.06254
0.04539 -0.02002 0.05330
0.01257 -0.05594 0.07278
-0.04698 -0.06683 0.03714
0.00539 -0.05289 0.06077
0.01280 0.02992 -0.05745
-0.03922 0.05562 -0.12804
0.06813 -0.00814 0.03102
0.03082 0.05937 -0.10617
0.02340 -0.01013 0.03278
-0.01035 0.04705 -0.10631
-0.02969 -0.05145 0.02012
0.04411 -0.04734 0.06441
0.00058 0.03015 -0.06712
0.01531 0.05578 -0.11257
-0.02279 0.05781 -0.13445
0.02265 -0.00214 0.01715
-0.06380 -0.01270 -0.01687
-0.03282 0.03664 -0.08422
-0.00455 -0.06590 0.06381
-0.01712 0.03169 -0.07472
-0.03490 0.05369 -0.12436
-0.03018 0.05497 -0.12684
-0.04854 0.02017 -0.04257
0.08335 -0.02884 0.04907
-0.01910 0.05385 -0.12479
-0.04213 -0.01064 -0.01023
0.03389 -0.01186 0.05172
-0.04093 -0.01230 -0.00930
-0.04092 -0.01236 -0.00896
-0.02990 -0.06256 0.02099
-0.09555 0.02156 -0.05505
0.09837 0.00741 0.02563
0.00656 0.05837 -0.12349
0.03935 0.07315 -0.12198
-0.04069 0.05594 -0.12849
-0.02395 0.06147 -0.14641
-0.08323 0.04652 -0.09221
-0.04941 0.02571 -0.05623
0.08519 -0.05943 0.06764
0.00555 -0.06579 0.06484
-0.02033 0.05819 -0.13523
0.04529 0.06040 -0.09448
-0.00993 0.06139 -0.13902
0.04795 0.05754 -0.08551
0.04781 0.05757 -0.08594
-0.09178 -0.03197 0.01537
-0.03135 0.03243 -0.07841
0.02749 0.04046 -0.07082
-0.01678 -0.06508 0.02608
0.01593 0.06395 -0.12615
-0.03372 0.02360 -0.05777
0.01715 0.03708 -0.07194
-0.03303 -0.07578 0.02864
0.02194 0.05710 -0.10852
-0.01304 0.06102 -0.14080
0.05565 -0.03950 0.05648
-0.02148 0.02596 -0.06273
0.02527 0.04487 -0.08211
-0.09882 0.02593 -0.05791
0.02761 -0.02643 0.08700
-0.09773 0.03148 -0.55600
-0.01092 0.05117 -0.11460
0.02477 0.06834 -0.12601
-0.00283 -0.05422 0.05451
0.08355 -0.06390 0.07646
-0.03605 0.05592 -0.12848
-0.01302 0.06102 -0.14103
0.00310 -0.06243 0.05696
0.05427 0.05538 -0.07648
0.01752 -0.00247 0.01742
0.01815 -0.06396 0.07415
-0.02846 -0.05140 0.02139
0.07603 -0.06115 0.07439
0.02682 -0.00557 0.03348
-0.00049 0.06494 -0.13845
0.08281 -0.03162 0.04984
-0.11084 0.02833 -0.07661
0.00151 0.01858 -0.04178
0.00151 0.01858 -0.04178
-0.03079 -0.06616 0.02417
0.01480 -0.00262 0.01620
-0.07152 0.03995 -0.07624
-0.01451 -0.01171 0.00465
-0.06559 -0.00952 -0.01718
-0.00509 0.02694 -0.06161
-0.11868 0.03606 -0.08695
-0.00987 0.06482 -0.14400
0.15169 0.06784 0.28057
0.02427 0.06466 -0.11929
-0.02642 0.04141 -0.09633
-0.02874 0.04990 -0.11339
0.00501 0.05785 -0.12275
-0.06017 0.05267 -0.11847
0.00432 -0.06121 0.05668
0.00432 -0.06121 0.05668
0.00586 0.04210 -0.08744
-0.00334 -0.05401 0.05273
-0.09068 0.03546 -0.53609
0.05248 -0.04763 0.05492
-0.02960 -0.07632 0.02356
0.02330 -0.04755 0.08579
-0.04582 -0.06602 0.03463
-0.03970 0.03181 -0.07474
-0.01078 0.02866 -0.06619
0.05484 -0.04326 0.05381
-0.00040 0.03242 -0.07488
-0.11258 0.01785 -0.06080
-0.01252 -0.00631 0.00527
0.07908 -0.02079 0.04035
-0.03397 -0.06071 0.01526
0.05360 -0.02315 0.04997
0.04319 -0.05270 0.07085
0.01872 0.02469 -0.04703
0.00332 0.02790 -0.06099
-0.02808 0.02607 -0.06240
-0.00543 0.03713 -0.08397
0.03040 0.04179 -0.07036
0.00873 -0.05787 0.06972
0.00058 -0.06062 0.05864
0.05066 -0.04342 0.05559
0.01142 0.00556 -0.00577
0.01006 0.05000 -0.10434
-0.02650 -0.07634 0.01756
-0.11670 0.00257 -0.04038
-0.02751 -0.05297 0.02309
-0.06353 0.05095 -0.11066
0.02260 0.03300 -0.05531
-0.02616 0.05026 -0.11729
0.01275 0.02796 -0.05908
0.03591 -0.01956 0.06081
0.02844 0.07054 -0.12609
-0.10613 0.01241 -0.04534
-0.02625 0.05024 -0.11746
0.00499 0.03779 -0.07989
-0.02297 0.06001 -0.14092
-0.06665 0.04558 -0.46841
0.02604 0.09297 -0.24171
-0.01110 0.02789 -0.06556
0.02633 0.05988 -0.10782
0.01543 0.03981 -0.07709
-0.11488 0.00865 -0.04973
-0.00128 0.06190 -0.13055
-0.04874 0.03980 -0.26045
-0.07274 0.03477 -0.25989
0.04885 -0.02336 0.05505
-0.05238 0.05578 -0.46777
-0.02915 -0.00792 -0.00473
-0.07265 0.02847 -0.55491
-0.02472 0.06025 -0.14507
0.00000 -0.05884 0.05882
-0.04014 0.03159 -0.07093
-0.00033 0.03729 -0.08124
-0.00882 0.06261 -0.14015
-0.04600 0.04615 -0.10716
-0.03172 -0.06845 0.01640
0.01134 0.00551 -0.00545
0.07631 -0.01361 0.03532
0.02515 0.05462 -0.10118
-0.05262 0.03925 -0.08775
0.01000 0.05728 -0.11834
-0.04261 0.03705 -0.08534
-0.08291 -0.11340 0.11099
0.14836 0.06564 0.27528
-0.12141 0.05753 -0.11363
-0.02167 0.05905 -0.13995
-0.02799 0.06037 -0.14410
0.04543 -0.03377 0.05878
0.00154 0.01583 -0.03476
0.00122 -0.04531 0.04937
0.05438 -0.02576 0.05570
-0.03939 0.03058 -0.07424
-0.05276 0.02949 -0.06426
0.08365 -0.05250 0.06321
-0.10751 0.03097 -0.55883
0.02763 0.05596 -0.10057
0.00584 -0.01025 0.00847
-0.06126 -0.10657 0.11321
0.00828 -0.06814 0.06969
-0.03548 0.06039 -0.14068
-0.10988 -0.00129 -0.02909
0.06054 -0.04741 0.05872
0.06054 -0.04741 0.05872
-0.07107 0.04328 -0.47886
-0.02383 0.05066 -0.11731
0.04426 -0.04499 0.06360
0.07471 -0.06041 0.07427
0.03049 -0.00767 0.03872
-0.02137 0.05070 -0.11554
0.02906 -0.00414 0.02987
-0.05968 0.04190 -0.09284
0.01777 -0.06334 0.08128
-0.01321 0.03550 -0.07966
0.04155 -0.02167 0.05849
-0.03131 0.03244 -0.07818
-0.02976 -0.07613 0.02249
-0.05024 -0.06440 0.03899
0.02809 -0.04387 0.08789
0.00399 -0.05784 0.05719
0.00976 0.05460 -0.10907
0.03135 0.04842 -0.08278
-0.02532 0.01260 -0.02722
-0.03715 0.02362 -0.05547
-0.07914 0.04407 -0.53798
-0.01588 0.05587 -0.12852
0.06469 -0.04871 0.05886
-0.03306 0.00796 -0.02787
0.01754 0.02396 -0.04648
0.01250 -0.06829 0.07567
0.08992 -0.00656 0.03861
0.03011 0.04181 -0.07151
-0.02959 -0.01084 -0.00425
0.01007 -0.06878 0.07235
-0.02906 -0.06815 0.01791
-0.02307 -0.05024 0.02398
-0.02282 0.05891 -0.13538
-0.10775 0.02373 -0.35787
-0.06812 -0.09360 0.08548
0.03219 -0.04902 0.09118
0.03265 0.02524 -0.03454
0.04363 -0.02177 0.05722
0.08248 -0.05621 0.06667
0.02419 0.03744 -0.06455
-0.10356 -0.09477 0.06843
0.05423 -0.03993 0.05719
0.00794 -0.06249 0.06595
-0.00572 0.05708 -0.12457
-0.04918 -0.01246 -0.01549
0.05111 -0.03217 0.05766
0.06404 -0.04929 0.05971
-0.00458 0.06423 -0.14045
-0.01791 0.00225 -0.00674
0.08877 -0.00509 0.03664
0.07010 0.07102 -0.08091
0.02214 0.03055 -0.05384
-0.07363 -0.05374 0.03737
0.01936 0.05402 -0.10511
-0.02846 -0.04444 0.01338
-0.02476 0.03209 -0.07461
-0.04944 0.02748 -0.06089
-0.04009 -0.07081 0.03274
0.04060 0.03846 -0.05973
0.04220 0.03882 -0.05333
-0.05163 -0.04698 0.01599
0.04935 0.06475 -0.09762
0.05212 -0.01984 0.05041
0.06166 -0.03156 0.05313
-0.00019 -0.05483 0.05720
0.02429 0.05278 -0.09905
0.06611 -0.05688 0.06755
-0.05018 0.01538 -0.03295
-0.00136 0.01943 -0.04365
-0.00138 0.01945 -0.04381
0.11787 -0.00540 0.04023
-0.03259 0.00800 -0.02397
-0.01913 0.02057 -0.05257
0.04633 -0.05735 0.07033
-0.02897 -0.01061 -0.00422
-0.04089 0.05286 -0.12093
0.05525 0.04807 -0.07758
0.05906 -0.03148 0.05199
-0.00468 0.03106 -0.06961
-0.00090 0.03033 -0.06735
-0.05319 -0.04666 0.01596
-0.01392 0.02879 -0.06716
-0.02284 0.03076 -0.07016
-0.08987 -0.00531 -0.02523
-0.04800 0.02283 -0.04926
-0.03861 -0.05662 0.02323
-0.03468 -0.06116 0.01849
-0.08245 -0.05369 0.03012
0.01090 0.01391 -0.02739
-0.04443 -0.05083 0.02102
0.08836 -0.00502 0.03539
-0.09540 -0.02965 0.01295
0.02404 -0.01602 0.05536
0.04377 -0.04251 0.08848
-0.08143 -0.00709 -0.01032
-0.10336 0.07079 -0.24700
0.10534 0.01886 0.02833
-0.03021 -0.07357 0.02084
-0.05885 0.04862 -0.11023
0.12036 0.01753 0.02755
-0.08923 0.03380 -0.55647
0.13825 -0.04948 0.12186
-0.03688 0.02919 -0.07142
-0.03539 0.04586 -0.10817
0.06230 -0.06419 0.06640
-0.00330 -0.06415 0.06112
0.06055 -0.04011 0.05765
-0.12580 -0.05435 0.06092
0.02426 0.06467 -0.11931
0.01029 -0.05482 0.06986
0.04435 -0.05329 0.06597
-0.06538 -0.09774 0.09547
0.04745 -0.01935 0.04783
-0.03732 0.04248 -0.09771
-0.03491 0.02409 -0.05998
-0.02287 -0.02656 0.00143
0.01366 0.02801 -0.05476
-0.08093 -0.11489 0.10446
0.08599 -0.05983 0.06449
-0.01061 -0.00410 0.00635
0.08262 -0.06649 0.07916
-0.02973 0.02484 -0.05962
0.00432 0.05779 -0.12104
0.09643 -0.05516 0.05145
0.05369 -0.00253 0.02759
-0.00578 0.05707 -0.12439
0.01421 -0.01333 0.03388
-0.02078 -0.00898 -0.00190
-0.02078 -0.00898 -0.00190
-0.01593 0.01374 -0.03214
-0.09739 -0.03033 0.01696
0.01542 0.03753 -0.07486
-0.04183 0.05679 -0.13134
-0.04575 0.03762 -0.08489
-0.01361 -0.03117 0.01144
-0.09390 0.00455 -0.02725
0.08288 -0.05676 0.06982
0.01687 -0.06293 0.07744
-0.08132 -0.00723 -0.01005
0.03044 0.03210 -0.04900
0.06069 -0.04819 0.05896
0.07431 -0.05960 0.07168
-0.00667 0.02970 -0.06772
-0.04149 0.05923 -0.13322
0.01168 0.03259 -0.06904
0.10940 0.01156 0.02192
0.05239 -0.02085 0.04853
0.04801 -0.02078 0.05051
0.02214 0.03447 -0.03765
0.05926 -0.02238 0.04750
0.01076 -0.05323 0.07056
-0.03278 -0.01412 -0.00481
0.04461 -0.04955 0.06329
0.04461 -0.04955 0.06329
0.02088 -0.03504 0.08342
0.00246 0.05373 -0.11541
-0.04875 0.03694 -0.08729
-0.06492 -0.01042 -0.01747
0.09269 -0.01462 0.03683
-0.00128 0.02280 -0.05140
0.03912 -0.05735 0.08515
-0.15793 -0.02714 -0.99546
0.00222 0.04914 -0.10242
0.07420 -0.05973 0.07513
0.07803 -0.06206 0.07350
-0.04480 0.02107 -0.04861
-0.02541 -0.02198 0.00000
-0.02541 -0.02198 0.00000
0.04430 -0.01987 0.05348
-0.02319 0.02310 -0.05693
0.05422 -0.04404 0.05343
-0.05761 -0.01199 -0.01668
0.03176 -0.05698 0.09365
-0.02469 -0.02109 -0.00011
0.05705 0.04236 -0.04727
-0.01823 -0.06519 0.02596
0.10127 -0.00270 0.03163
-0.07883 0.02651 -0.06615
-0.02512 -0.07591 0.02152
-0.08226 0.03460 -0.59593
0.00225 -0.05903 0.05729
-0.16206 -0.03124 -1.00000
0.00775 0.00736 -0.01184
-0.10223 0.02393 -0.06064
-0.03408 -0.05669 0.01894
-0.03262 -0.07657 0.02104
0.06562 -0.02242 0.05084
-0.11952 0.06039 -0.11922
-0.03382 -0.07425 0.02392
0.05176 -0.01747 0.05044
-0.03319 -0.06833 0.01657
0.06731 -0.04368 0.05714
-0.03957 -0.05325 0.01900
-0.03961 -0.05324 0.01870
0.05517 -0.02354 0.05387
0.01006 -0.05310 0.06922
0.04926 -0.02997 0.05645
-0.01000 0.06139 -0.13917
0.04888 -0.03372 0.05678
0.08842 0.04171 -0.00492
-0.04316 -0.06764 0.03108
0.06199 -0.03028 0.05883
0.06199 -0.03028 0.05883
-0.02687 -0.02637 -0.00086
-0.07831 0.02582 -0.06370
0.02728 -0.03928 0.08385
0.02728 -0.03928 0.08385
0.00544 -0.07351 0.06719
0.08942 -0.00513 0.03900
-0.03558 -0.07201 0.02532
-0.07696 0.03759 -0.06816
-0.07694 0.03759 -0.06819
-0.12201 0.03302 -0.08173
0.04772 -0.02720 0.05615
0.02532 -0.03487 0.08331
-0.03466 0.01266 -0.04103
-0.01095 0.05808 -0.13186
0.00317 -0.00513 0.01279
0.00175 -0.05728 0.05556
0.15268 -0.02834 0.11280
-0.07122 0.03828 -0.07666
-0.03300 0.00604 -0.02970
-0.00092 -0.05847 0.05826
0.02602 -0.03820 0.08358
0.13035 0.02585 0.03449
-0.12662 0.06531 -0.13246
0.07500 -0.05688 0.07086
0.02315 -0.03538 0.08305
-0.03928 -0.05608 0.02035
0.04554 -0.04149 0.06287
0.04890 -0.01957 0.05287
0.00576 -0.06564 0.06583
-0.03227 -0.06621 0.01676
-0.06835 0.04274 -0.40408
0.10562 0.07020 -0.01945
0.01878 -0.00093 0.01384
0.04492 -0.02122 0.05532
-0.13451 0.06265 -0.12302
0.04737 -0.03354 0.05628
0.04737 -0.03354 0.05628
0.02585 -0.03376 0.08466
0.04900 -0.03525 0.05507
0.06936 -0.05834 0.07352
-0.01408 -0.00702 0.00406
0.00204 -0.07381 0.07220
0.04459 -0.01217 0.04649
0.06188 -0.04640 0.05805
0.06381 -0.01564 0.03502
0.02878 -0.00379 0.03114
0.04364 -0.01322 0.02921
-0.05872 0.04061 -0.09657
0.07759 -0.06394 0.07607
-0.03403 0.02170 -0.05112
0.04396 -0.00924 0.03615
0.05186 -0.01880 0.05087
-0.03480 -0.07510 0.02372
0.02161 0.05278 -0.09927
0.04932 -0.05164 0.06294
0.04932 -0.05164 0.06294
0.10794 0.07327 -0.03050
0.03313 -0.00559 0.03920
0.02277 -0.03451 0.08301
-0.02128 0.00872 -0.01465
0.02924 -0.05566 0.08853
-0.00079 -0.06665 0.06222
-0.06674 0.05471 -0.14836
0.02604 -0.04707 0.08500
-0.06184 -0.01356 -0.01637
-0.06184 -0.01356 -0.01637
0.01729 0.00223 0.00587
-0.01015 -0.00285 0.00666
-0.03038 -0.06721 0.01605
-0.11871 0.00863 -0.04754
0.00665 -0.00708 0.01102
0.05173 -0.02921 0.05507
0.05652 -0.04230 0.05355
0.03341 0.05575 -0.09498
-0.06434 0.04126 -0.10454
-0.00491 -0.00588 0.01254
0.04697 -0.03136 0.05696
0.05300 -0.02116 0.05305
-0.01342 -0.01443 0.00567
0.05671 -0.01327 0.03899
0.01667 -0.05226 0.08309
-0.00277 -0.06210 0.06150
0.03367 -0.00909 0.04826
0.05978 0.04701 -0.07900
-0.00106 0.00945 -0.01851
-0.00106 0.00945 -0.01851
-0.02981 -0.00922 -0.00500
0.08416 -0.03271 0.04824
-0.01913 -0.06385 0.02515
0.05558 -0.03902 0.05874
-0.03919 -0.09443 0.08471
0.04703 -0.05791 0.06547
0.09409 0.00314 0.03668
-0.10080 0.03454 -0.57519
0.09362 -0.00540 0.03948
-0.03040 0.05782 -0.13413
-0.12070 0.04390 -0.47771
-0.01995 0.05000 -0.11591
0.13094 0.05386 0.03004
-0.05285 0.04612 -0.12901
-0.01885 0.01343 -0.05904
0.08511 -0.06064 0.07281
0.06574 -0.06301 0.07660
-0.01398 0.03260 -0.07431
0.01175 0.05687 -0.11620
-0.00776 0.02610 -0.05853
-0.05585 0.05134 -0.12801
-0.03210 0.03733 -0.08592
-0.09762 0.03281 -0.55263
-0.00280 0.01136 -0.02384
-0.11782 -0.07151 0.06013
-0.01101 0.00710 -0.01557
0.02409 -0.04863 0.08294
-0.04164 0.05663 -0.12965
0.01154 -0.06796 0.08118
-0.03293 0.00604 -0.02924
0.11088 -0.04697 0.06099
0.04651 -0.01577 0.05008
0.10091 -0.04073 0.05536
0.00075 0.00889 -0.02117
-0.10734 0.03549 -0.51415
-0.06472 -0.06647 0.02812
0.10289 -0.06259 0.06030
-0.07275 0.03396 -0.58766
0.11057 -0.05511 0.06476
0.04812 0.06644 -0.10155
-0.11352 0.02405 -0.06737
0.02746 -0.03764 0.08278
0.10657 -0.00015 0.03232
-0.09698 0.02686 -0.05912
0.08589 -0.01160 0.04117
0.05145 -0.03458 0.05737
-0.01117 0.05598 -0.12687
0.10942 0.00302 0.03342
-0.10922 -0.07286 0.05239
-0.06885 0.03229 -0.07862
-0.02848 -0.05451 0.02124
0.00869 -0.05802 0.06296
0.05579 -0.04049 0.05742
0.04468 -0.02345 0.05902
0.04451 -0.02349 0.05849
0.01792 0.02935 -0.05537
-0.12212 0.00206 -0.03971
0.02127 -0.00427 0.02230
0.09771 0.00906 0.03018
0.02894 -0.04578 0.08656
0.01235 0.03822 -0.06007
0.02997 -0.05942 0.08958
-0.05196 0.05733 -0.14214
-0.03713 0.02521 -0.06149
-0.06783 -0.09655 0.08916
-0.03755 -0.07596 0.02755
0.04126 -0.05210 0.09638
0.03997 -0.02067 0.06257
0.00539 -0.07544 0.07358
0.02090 -0.05236 0.08337
-0.12112 0.00267 -0.04022
-0.02640 0.04805 -0.11342
0.00328 0.02789 -0.06105
0.10038 -0.03793 0.05494
-0.03665 0.02620 -0.06008
0.05098 -0.02968 0.05628
-0.06047 0.04304 -0.45541
0.04755 -0.05072 0.06228
0.07136 0.05870 -0.06191
-0.03849 0.03245 -0.07629
0.04588 -0.02987 0.05583
-0.03357 0.04217 -0.09555
-0.05034 -0.03437 -0.21810
-0.00215 0.00018 0.00930
0.06773 0.06154 -0.07314
0.06923 -0.05546 0.06843
-0.00016 0.04832 -0.10302
0.04656 -0.02428 0.05601
-0.11436 0.01131 -0.05258
0.05567 -0.05749 0.06577
0.04622 -0.02121 0.05429
-0.01734 -0.06406 0.02611
-0.00659 0.01447 -0.03197
-0.00081 0.01032 -0.02021
-0.00069 -0.06708 0.06535
0.04214 -0.02125 0.05948
0.00978 0.00798 -0.01001
-0.11836 0.01006 -0.04894
0.06001 0.04255 -0.06962
-0.07827 -0.00203 -0.01389
-0.09902 -0.09225 0.06945
-0.07803 0.00014 -0.01552
-0.02707 -0.07418 0.02139
-0.11498 0.02440 -0.06608
-0.00969 0.00591 -0.00919
-0.03147 0.01887 -0.22903
0.01764 0.05659 -0.11133
0.01669 0.04029 -0.07888
0.04715 0.07240 -0.11416
-0.00727 0.00815 -0.01707
-0.01117 0.05801 -0.13298
0.06299 -0.02251 0.05142
0.08710 -0.00675 0.03936
0.09265 -0.00699 0.03909
0.02465 0.00840 -0.00092
-0.07874 -0.00099 -0.01646
-0.01105 -0.06590 0.03570
0.06837 -0.02348 0.05096
-0.03923 -0.07373 0.03036
0.02305 -0.04749 0.08407
-0.03226 -0.07794 0.03026
-0.03306 -0.06422 0.01726
0.01749 -0.05113 0.08349
-0.01810 -0.06042 0.02573
-0.00001 -0.05884 0.05856
0.09819 0.00578 0.03128
-0.00990 0.06138 -0.13892
0.01396 0.04414 -0.09176
0.02772 -0.03911 0.08440
-0.09308 0.03392 -0.58866
-0.03387 0.03493 -0.08433
0.09279 -0.00420 0.03852
0.03374 0.06945 -0.12020
-0.03481 0.05852 -0.13895
-0.00103 0.04751 -0.10156
-0.11658 0.00554 -0.04552
0.01701 0.06250 -0.12291
0.02953 -0.00946 0.05142
0.00791 0.06326 -0.13038
-0.10296 0.03629 -0.55287
0.01344 0.00154 0.00386
0.08495 -0.06243 0.07691
0.01784 -0.04646 0.08417
0.09442 -0.00231 0.03770
0.04363 -0.04474 0.06140
-0.01736 0.05523 -0.12902
-0.02974 0.02484 -0.05967
0.00541 0.06373 -0.13224
-0.03835 -0.05709 0.02603
-0.03516 0.05638 -0.13121
-0.10414 0.03104 -0.60513
0.03591 -0.01964 0.06079
0.03129 -0.01944 0.06520
0.03129 -0.01944 0.06520
0.01484 0.03902 -0.07407
0.06324 0.01676 0.01360
0.09542 -0.00683 0.03354
0.09356 -0.00930 0.03943
-0.03283 0.04373 -0.10348
0.00466 0.03684 -0.08005
-0.05041 0.02690 -0.05328
-0.03387 0.03493 -0.08433
-0.08329 0.04663 -0.09372
0.04900 -0.05217 0.06191
-0.03621 -0.00645 -0.00970
0.07127 0.05982 -0.06456
-0.04124 0.05193 -0.11893
-0.00553 -0.04346 0.03431
-0.00095 0.04750 -0.10129
-0.10305 0.02707 -0.06762
-0.03136 -0.06881 0.01864
0.03202 0.06053 -0.10661
0.10793 -0.04476 0.06107
-0.02469 -0.02109 -0.00011
0.04818 -0.04725 0.06232
0.04808 -0.04722 0.06155
0.00134 -0.05418 0.05554
-0.00100 -0.05727 0.05462
0.07125 -0.02611 0.05103
0.13461 0.02787 0.03755
-0.01138 -0.00565 0.00613
0.05039 -0.02401 0.05359
0.05039 -0.02401 0.05359
-0.07766 -0.00085 -0.01609
0.03172 -0.00890 0.04531
0.06670 -0.05517 0.07143
0.03176 -0.04548 0.08981
0.01329 0.05356 -0.10756
0.02686 -0.04379 0.08430
0.11818 0.01215 0.02963
0.05006 -0.02371 0.05753
0.00251 0.05634 -0.12228
-0.09646 -0.03072 0.01597
0.02993 0.04885 -0.08409
0.01806 -0.03357 0.08138
0.00783 -0.06786 0.06800
0.08553 -0.01700 0.04415
-0.01760 0.06028 -0.14184
-0.03466 -0.06360 0.01613
0.00096 -0.07276 0.07196
-0.00142 -0.05401 0.05083
-0.02933 0.06008 -0.14248
-0.02929 0.06006 -0.14245
0.06541 -0.02210 0.04824
0.03588 0.03040 -0.03986
-0.02586 -0.00986 -0.00198
0.10175 -0.00279 0.03321
-0.04834 0.03211 -0.07172
0.08335 -0.02251 0.04622
0.01006 0.00572 -0.00639
-0.06533 0.05287 -0.11588
0.04202 -0.04147 0.06154
0.01190 -0.07483 0.07452
0.09935 -0.00067 0.03349
0.03290 -0.01206 0.04614
-0.00547 0.00820 -0.01749
0.05126 0.04849 -0.06183
0.02261 0.06803 -0.12804
0.08676 -0.03531 0.05619
-0.10841 0.02017 -0.05878
0.02627 -0.02751 0.08535
0.02623 -0.02748 0.08513
-0.00622 -0.04647 0.04636
-0.02901 -0.01666 -0.00208
-0.04191 0.03418 -0.07969
0.00221 0.04917 -0.10244
0.09770 0.00836 0.02948
-0.03864 -0.06154 0.02861
-0.01254 -0.00627 0.00505
0.01386 0.03594 -0.07227
0.04217 -0.10467 0.44056
-0.03976 0.04433 -0.10480
-0.05432 -0.04608 0.01374
-0.02818 0.00392 -0.00653
0.04701 -0.02542 0.05519
-0.09273 0.04907 -0.11771
-0.09275 0.04904 -0.11799
0.05400 -0.02461 0.05448
-0.04232 0.02539 -0.05728
0.08503 -0.02347 0.04382
-0.10703 0.00768 -0.03965
0.02415 -0.03095 0.08152
-0.05474 0.03705 -0.08083
0.00216 0.06350 -0.13546
-0.01959 0.01734 -0.04090
-0.07657 0.03808 -0.55444
0.08815 -0.00478 0.03938
-0.00247 0.00332 0.00109
-0.04714 -0.06347 0.03238
-0.04714 -0.06347 0.03238
0.18706 -0.05303 0.20148
0.01039 0.00399 -0.00123
-0.03615 -0.07673 0.03470
0.03813 -0.00840 0.04417
0.01463 0.00004 0.00825
0.05438 -0.02576 0.05570
0.00978 0.00798 -0.01001
-0.03052 -0.05559 0.02184
0.09861 -0.04099 0.05159
-0.04536 -0.07404 0.03928
0.10558 0.00655 0.02830
-0.04735 -0.05402 0.02619
-0.06821 0.05350 -0.11631
0.05156 -0.02514 0.05347
-0.03262 -0.00426 -0.00948
0.03269 -0.05817 0.09037
-0.01048 0.04155 -0.09376
0.06265 -0.03314 0.05677
0.09220 -0.01274 0.03862
0.08932 -0.04148 0.04528
0.07815 -0.04027 0.06165
0.03340 0.07136 -0.12118
0.02101 -0.00835 0.03543
0.01429 0.00072 0.00803
-0.00531 0.02695 -0.06240
-0.04191 0.03418 -0.07969
0.09154 -0.01092 0.03935
-0.01169 -0.00432 0.00568
0.01366 -0.07105 0.07504
-0.09929 0.02206 -0.05739
-0.01867 0.03026 -0.07075
0.01154 -0.07403 0.07479
0.04359 0.04779 -0.06679
0.04488 -0.02573 0.06077
0.08157 -0.05648 0.06826
-0.02922 -0.00994 -0.00368
-0.11507 0.00425 -0.04002
-0.00436 -0.07454 0.05878
0.02784 0.02917 -0.04592
0.08129 -0.05545 0.06882
0.08607 -0.06082 0.06418
0.08064 0.01259 0.02527
-0.04373 0.05340 -0.12358
-0.04374 0.05341 -0.12366
0.13273 0.02268 0.03857
0.06177 -0.04037 0.05855
0.05283 -0.02926 0.05684
0.02530 -0.00745 0.04200
-0.00243 0.00822 -0.01658
0.04753 -0.05687 0.06385
0.10408 -0.04510 0.05590
-0.09424 -0.06542 0.04095
0.04879 -0.05422 0.06512
-0.04466 0.05618 -0.13019
0.10942 0.00302 0.03342
0.02187 0.04185 -0.07950
0.01570 -0.00458 0.02389
0.07956 -0.05040 0.06408
-0.00190 0.05688 -0.12611
-0.00445 -0.00214 -0.00516
0.11833 -0.00553 0.04181
0.10796 -0.04544 0.05938
0.05876 0.06671 -0.08840
0.04938 0.05726 -0.08423
0.08268 -0.02691 0.04968
0.00725 0.03766 -0.07866
-0.10240 0.01046 -0.04484
0.00301 -0.00762 0.00646
0.10971 -0.05147 0.06352
0.05269 0.00754 0.03139
0.04540 -0.02001 0.05325
0.00634 0.05590 -0.11614
-0.00795 0.00424 -0.00773
0.04508 -0.05353 0.09455
0.00912 0.06057 -0.12600
0.04804 -0.04685 0.06008
-0.02456 -0.01002 -0.00197
-0.07610 -0.10501 0.08879
0.05701 -0.04075 0.05632
0.10194 -0.05984 0.05791
0.07266 -0.01195 0.03508
-0.03081 -0.01248 -0.00424
0.01156 0.03346 -0.06853
-0.03447 -0.07679 0.02400
-0.02887 -0.01340 -0.00363
0.07815 -0.01691 0.04491
-0.05707 0.04199 -0.09224
0.01772 0.05651 -0.11098
-0.04566 -0.06992 0.03251
0.00969 0.04670 -0.09683
0.08777 -0.06480 0.06030
-0.00385 -0.04727 0.05023
0.06030 -0.05595 0.06397
-0.01048 0.04155 -0.09376
0.02599 -0.01590 0.05702
-0.02823 -0.01186 -0.00227
-0.10690 -0.10053 0.08608
0.00566 0.00787 -0.01324
-0.08053 0.03449 -0.44948
-0.05499 -0.03330 0.00014
0.04724 -0.03766 0.05383
0.00150 0.01010 -0.02123
-0.04375 0.02638 -0.05918
0.00034 0.03509 -0.04759
-0.05035 -0.02159 -0.01221
0.10228 0.01136 0.02738
0.00483 0.04491 -0.09261
-0.01153 -0.06547 0.03330
-0.03805 0.04016 -0.09155
0.01668 0.00187 0.00733
0.09452 -0.00479 0.03570
0.10128 -0.00143 0.03385
-0.01303 -0.00693 0.00501
-0.01273 -0.00697 0.00651
0.10845 -0.04480 0.06219
0.01317 0.00880 -0.01765
0.02332 -0.06097 0.08785
-0.01230 0.04908 -0.11063
0.01262 -0.07127 0.07705
-0.05468 0.04646 -0.10651
-0.03269 -0.05650 0.01776
0.00132 -0.04522 0.05031
-0.12319 0.03254 -0.58182
0.20204 -0.04623 0.18979
0.00628 -0.06305 0.06352
0.11129 0.00555 0.03317
-0.05109 0.02973 -0.05973
-0.00757 0.02609 -0.05768
0.19114 -0.04257 0.15941
-0.01579 -0.06109 0.03060
-0.03468 0.01379 -0.02001
0.04855 -0.02975 0.05422
0.04855 -0.02975 0.05422
-0.12333 0.03281 -0.58698
0.02996 -0.00719 0.04287
-0.00347 0.02955 -0.06736
-0.08435 -0.11225 0.10455
0.12901 -0.05085 0.11067
0.12790 -0.05045 0.10757
-0.08170 -0.11258 0.10752
0.03711 -0.05524 0.09177
-0.15780 -0.02703 -0.99499
-0.00476 0.04392 -0.09594
0.03565 -0.01943 0.05959
0.00575 -0.07507 0.07121
0.07173 -0.05828 0.06439
0.07904 -0.06346 0.07589
0.10652 -0.05570 0.06252
0.02559 -0.03811 0.08214
-0.10753 0.03360 -0.53970
-0.03853 -0.08271 0.04644
-0.12337 0.03157 -0.59078
0.00068 0.03018 -0.06659
-0.01853 -0.06192 0.02078
0.09235 -0.06504 0.07496
0.14235 -0.05297 0.12444
-0.06983 -0.04390 0.01801
-0.06983 -0.04390 0.01801
0.09128 -0.06517 0.07119
-0.05385 -0.11016 0.12126
0.00678 -0.07463 0.07632
0.10274 0.01143 0.02821
-0.04504 -0.09746 0.11668
-0.03970 -0.08130 0.05163
-0.07243 -0.11204 0.10075
-0.09136 -0.11256 0.09579
0.10899 -0.05383 0.06557
-0.09210 -0.11491 0.09640
-0.04922 -0.10090 0.11568
-0.01334 0.03314 -0.07605
0.11201 -0.05039 0.06524
0.10810 -0.05513 0.06189
0.03686 -0.04924 0.05351
-0.02520 0.03907 -0.09423
-0.02099 0.04699 -0.11214
-0.04457 -0.10126 0.12127
-0.12035 0.02888 -0.57162
-0.02845 -0.04450 0.01348
0.01589 0.03756 -0.07309
0.11563 -0.04275 0.00183
0.02222 -0.00582 0.02902
0.02105 -0.04745 0.08658
0.00628 0.01707 -0.03660
0.03535 -0.05414 0.08589
-0.02349 0.02331 -0.05582
-0.00026 0.02938 -0.06479
0.03094 0.02544 -0.03443
0.05254 -0.04153 0.05665
0.06787 0.04586 -0.04598
-0.10948 0.01401 -0.05016
-0.02050 0.02611 -0.06242
0.19355 -0.04464 0.19725
-0.00756 0.02095 -0.04871
0.09249 -0.00615 0.03501
-0.09033 -0.10234 0.07913
-0.00065 0.03537 -0.07571
-0.11340 0.02692 -0.06845
-0.01214 0.03908 -0.09070
-0.00418 0.02973 -0.06707
-0.00701 0.01869 -0.04390
-0.00292 0.01727 -0.04125
-0.00479 0.02503 -0.05672
0.04616 -0.03354 0.16367
-0.08806 0.04900 -0.09383
0.02066 0.02980 -0.05280
-0.11325 0.02694 -0.07228
-0.09075 0.02970 -0.55621
0.00710 0.01633 -0.03351
0.00710 0.01633 -0.03351
0.04913 -0.05172 0.06210
-0.09635 0.01539 -0.04907
0.00029 0.02841 -0.06253
-0.03989 0.03183 -0.07596
0.02084 0.06455 -0.12383
0.03002 0.01959 -0.02149
0.05633 -0.03356 0.05406
-0.03418 -0.07752 0.02816
0.03224 0.03005 -0.04261
0.06054 -0.04010 0.05750
0.01570 0.05699 -0.11242
-0.00488 0.01774 -0.04009
0.00123 0.04224 -0.09080
0.00132 0.03145 -0.06855
-0.00267 0.02881 -0.06418
-0.02982 0.05699 -0.13119
0.04996 0.04343 -0.05130
0.06141 -0.02959 0.05598
-0.03833 -0.07970 0.03054
-0.02766 0.02251 -0.05463
-0.12052 0.03382 -0.58691
0.01755 0.03414 -0.06537
0.00296 0.02566 -0.05544
-0.00405 -0.04714 0.04923
0.11111 0.04271 0.02250
0.01237 -0.06302 0.07376
0.00117 0.02819 -0.06419
0.02787 0.02921 -0.04605
-0.07818 0.03089 -0.06429
-0.07489 0.03644 -0.36343
-0.01878 0.00912 0.01285
0.00358 0.02911 -0.06958
0.00655 0.03047 -0.06553
-0.02775 0.06134 -0.14924
0.02316 0.03103 -0.05563
0.01095 -0.05333 0.07138
-0.03906 -0.04646 0.01426
0.02450 -0.00912 0.04161
-0.03438 -0.07547 0.02807
0.04417 -0.04485 0.06272
0.04956 -0.04757 0.06519
0.12961 0.04709 0.02568
-0.05058 0.04372 -0.10091
0.02075 -0.03499 0.08280
0.01927 -0.06449 0.08278
0.09871 0.00549 0.03455
-0.03169 -0.06878 0.02072
-0.07534 0.02996 -0.06508
-0.02929 0.02399 -0.05883
0.00438 0.01988 -0.04256
-0.02814 0.03495 -0.08160
-0.11327 0.01120 -0.05235
0.01207 -0.06935 0.07623
0.02314 -0.01574 0.05087
0.01383 -0.06851 0.07741
0.20517 -0.01891 0.18281
-0.00195 0.02520 -0.05627
-0.12353 0.03395 -0.59634
0.00340 0.03239 -0.07097
0.02773 0.05597 -0.10031
-0.05934 0.04513 -0.09618
0.00009 0.02492 -0.05609
0.02236 0.03196 -0.05712
0.17391 0.01716 0.11103
-0.00303 0.00220 -0.00030
0.00571 0.01284 -0.02700
-0.06492 -0.01042 -0.01747
-0.02291 0.01753 -0.04332
0.10352 0.01530 0.03463
-0.10234 0.01760 -0.52488
0.10645 -0.05373 0.05409
-0.05420 0.03687 -0.29414
-0.05189 0.02554 -0.05853
-0.12316 0.03088 -0.55468
-0.05426 0.02764 -0.05788
-0.00744 0.03253 -0.07197
-0.02539 -0.07008 0.02230
-0.10681 0.03377 -0.54690
-0.03205 0.02819 -0.06797
-0.04291 -0.05158 0.02287
-0.10894 -0.10393 0.09100
-0.12237 0.03412 -0.59711
0.05918 -0.05131 0.05879
-0.03598 0.04695 -0.10958
0.00357 0.02899 -0.06410
-0.02102 0.03828 -0.09016
0.00313 -0.06263 0.05754
-0.11110 0.00309 -0.03624
-0.04529 0.03380 -0.07953
-0.02663 0.02907 -0.06818
0.02546 -0.01414 0.05242
-0.01681 0.06300 -0.14325
-0.10021 0.03283 -0.60855
-0.06325 -0.05635 0.03585
0.09963 0.00000 0.02988
-0.11366 0.00684 -0.04428
-0.11757 0.00396 -0.04312
-0.01092 0.02869 -0.06674
0.04486 -0.05088 0.06381
-0.00375 -0.06119 0.05813
0.02216 0.01828 -0.02950
-0.02739 0.02308 -0.05696
0.02210 -0.02838 0.08203
-0.11253 -0.09082 0.05625
-0.12200 0.03269 -0.57604
0.04086 0.03080 -0.03614
-0.10221 0.02379 -0.05650
-0.02973 0.03309 -0.07941
0.00523 0.05154 -0.10921
-0.01119 -0.00329 0.00543
-0.03308 0.04246 -0.10407
-0.03782 -0.05967 0.02508
-0.00136 0.04060 -0.08914
-0.03509 -0.07509 0.02921
-0.08494 0.04926 -0.10601
0.00433 -0.04984 0.05685
0.01331 0.01083 -0.02327
0.08657 0.02787 0.02096
0.00943 -0.07387 0.07459
-0.11183 0.02557 -0.07063
0.01932 0.04373 -0.08039
-0.08995 -0.04655 0.02801
-0.12269 0.03407 -0.59782
-0.02090 0.04979 -0.11546
0.01705 0.04296 -0.08570
-0.04013 0.04029 -0.09518
-0.10855 0.03434 -0.55578
-0.12855 -0.05209 0.06645
0.02125 -0.01375 0.04322
-0.02779 0.02254 -0.05535
0.01498 0.03654 -0.07357
0.13921 -0.02512 0.10595
-0.12349 0.03349 -0.60301
-0.12335 0.03417 -0.60410
-0.12300 0.03413 -0.60150
-0.12361 0.03351 -0.60287
-0.12362 0.03413 -0.60584
-0.11933 -0.00261 -0.03268
-0.01828 0.03090 -0.07187
0.02309 -0.03548 0.08313
0.02891 -0.03297 0.08755
0.09366 -0.04355 0.04453
-0.01615 -0.00911 0.00058
0.00213 -0.00003 -0.00863
-0.03699 0.02220 -0.05073
-0.03699 0.02220 -0.05067
-0.02042 -0.05300 0.02654
-0.00473 -0.02454 0.01811
0.09050 -0.04445 0.04125
-0.04085 -0.08028 0.04444
0.00172 -0.05896 0.05631
-0.02152 0.02755 -0.06844
-0.11503 0.01014 -0.04806
-0.12212 0.00208 -0.03985
0.08798 -0.01361 0.03940
-0.08788 0.03517 -0.53596
0.04650 -0.03330 0.05453
-0.07688 0.03849 -0.50200
-0.06689 0.05906 -0.13779
-0.06656 0.05065 -0.10873
-0.00420 0.03758 -0.08298
0.09500 -0.03719 0.05287
-0.02722 -0.01468 -0.00277
-0.03478 0.02020 -0.04810
-0.09478 0.04785 -0.11942
0.02158 0.04353 -0.08167
-0.11176 0.00384 -0.03732
-0.00187 -0.06476 0.06429
-0.06310 0.05000 -0.10898
0.00692 0.04585 -0.09443
-0.03387 0.03493 -0.08433
-0.03732 0.04248 -0.09771
-0.00799 0.02193 -0.05155
-0.10920 -0.04748 0.03423
-0.12099 0.03567 -0.08903
0.02813 -0.04688 0.08705
-0.01552 0.03076 -0.07048
0.06365 0.01579 0.01698
-0.06174 -0.04191 0.01025
-0.14237 -0.02477 0.06304
-0.11443 0.02554 -0.06939
0.10208 -0.03658 0.05700
0.13235 -0.01801 0.08171
-0.01722 -0.06280 0.03000
0.04562 -0.04051 0.06350
0.01159 0.03349 -0.06839
0.05855 -0.05742 0.06820
-0.07498 0.03713 -0.07249
-0.00759 0.09930 -0.30376
-0.04822 0.02282 -0.05071
-0.04237 -0.08065 0.05568
-0.04397 0.04161 -0.09591
0.02825 0.07039 -0.12701
0.06689 -0.02397 0.05460
-0.00946 0.05223 -0.11856
-0.01543 -0.00971 0.00381
0.02700 0.04718 -0.08511
-0.00133 -0.04207 0.03770
0.00623 0.06499 -0.13251
-0.11938 0.05522 -0.09800
-0.09467 0.00169 -0.02582
-0.10020 0.03281 -0.60858
-0.03002 -0.07202 0.01369
0.00845 -0.06268 0.06852
0.02165 0.05275 -0.09917
-0.03112 0.03623 -0.08619
-0.11536 0.02183 -0.05613
-0.01648 0.02489 -0.05976
-0.04354 0.02787 -0.06590
-0.03657 0.04997 -0.11415
-0.00011 0.03655 -0.07848
-0.00438 0.02376 -0.05369
0.00764 -0.05960 0.06507
-0.00734 0.04721 -0.10750
-0.00100 0.05589 -0.12421
0.10718 0.01827 0.02767
-0.00839 -0.03765 0.02241
0.00650 0.06878 -0.23879
-0.03121 0.03070 -0.07245
0.05933 -0.00111 0.01935
0.02390 -0.04001 0.08393
0.02209 0.06543 -0.12263
-0.08153 -0.09826 0.07729
0.02521 -0.01234 0.04883
0.00946 0.03324 -0.06794
-0.04225 0.05193 -0.11844
-0.02419 -0.05670 0.02518
-0.10343 0.03573 -0.55890
0.01429 0.04155 -0.08003
-0.10169 0.02536 -0.56688
0.04842 -0.01856 0.05191
-0.01586 -0.05469 0.03007
-0.08584 0.04805 -0.09521
0.04828 -0.04084 0.05806
-0.10698 0.00767 -0.03860
0.05328 -0.02300 0.04979
-0.02647 0.04143 -0.09645
0.02113 -0.05871 0.08374
0.06458 -0.04780 0.05868
0.00957 0.03760 -0.07734
0.03423 0.07107 -0.12264
0.05373 0.00751 0.03108
0.00222 -0.00785 0.00748
0.01706 0.04095 -0.07979
-0.03880 0.02073 -0.05020
-0.02851 0.02339 -0.05751
0.08758 -0.00763 0.03956
-0.09362 -0.02379 0.00979
0.04550 -0.02002 0.05328
0.11816 0.01217 0.02962
0.04361 -0.05389 0.06638
-0.02548 0.02791 -0.06891
-0.01027 -0.05524 0.04466
-0.11086 0.02831 -0.07433
0.04885 -0.02008 0.04965
0.09108 -0.04163 0.04414
0.10575 -0.05687 0.06077
-0.00162 0.05265 -0.11473
0.03336 -0.05467 0.09328
0.01138 0.00551 -0.00530
0.00098 0.04714 -0.10005
0.05303 0.05157 -0.07578
0.02428 0.04366 -0.08290
0.00238 -0.05907 0.05785
-0.11400 0.02275 -0.06370
-0.03039 0.02870 -0.07030
0.01958 -0.00558 0.02544
0.01996 0.03457 -0.06360
0.04574 -0.02004 0.05503
-0.00958 0.03461 -0.08066
-0.06344 0.05472 -0.12795
0.01957 -0.00187 0.01496
-0.00523 0.05781 -0.26158
0.01934 -0.00646 0.02777
0.06096 0.03152 -0.01632
0.02249 0.01687 -0.02468
0.07230 -0.02066 0.04557
-0.11211 0.05515 -0.11023
-0.00257 0.00052 0.00915
-0.06696 -0.04222 0.00830
-0.11845 0.00283 -0.04073
-0.06719 0.05152 -0.11133
0.01479 0.03574 -0.07227
0.01664 0.03539 -0.06363
-0.03449 0.02173 -0.05202
0.05257 -0.04426 0.05441
-0.12660 0.06504 -0.13331
0.00918 0.02904 -0.06221
0.00014 -0.05639 0.05546
0.15240 0.01682 0.08268
0.09744 0.00784 0.03931
-0.04403 0.02230 -0.05222
-0.00898 -0.07592 0.03084
-0.06694 0.05460 -0.12392
0.01133 0.04839 -0.10010
-0.04469 0.02084 -0.04810
0.13058 0.02931 0.03212
-0.02552 0.03157 -0.07416
-0.00265 -0.05471 0.05799
0.00788 0.03735 -0.07912
-0.05236 -0.02926 -0.00394
-0.04696 -0.06760 0.03825
0.00033 0.00890 -0.02311
0.02834 0.01809 -0.02020
-0.00076 0.05606 -0.12280
-0.04131 0.02432 -0.05568
0.04493 -0.05406 0.09316
-0.02910 -0.06828 0.01856
-0.11264 0.00225 -0.03093
0.01190 0.01201 -0.02105
-0.01699 -0.06337 0.02607
0.09956 0.01506 0.03026
0.01282 -0.06901 0.07636
0.00783 0.06323 -0.13075
0.03203 0.06778 -0.11875
0.06912 0.03337 -0.00468
-0.12342 0.04072 -0.09042
-0.07653 0.03657 -0.58093
0.01426 -0.06532 0.07578
0.04636 -0.03034 0.05360
-0.03045 0.03041 -0.07450
-0.05027 0.02815 -0.06236
-0.03226 0.03120 -0.07541
-0.11761 0.02046 -0.50897
-0.04121 0.01965 -0.04689
0.04428 -0.01979 0.05502
0.03777 0.07270 -0.12374
-0.10399 -0.09292 0.06775
