# .PCD v.7 - Point Cloud Data file format
VERSION .7
FIELDS x y z
SIZE 4 4 4
TYPE F F F
COUNT 1 1 1
WIDTH 1877
HEIGHT 1
VIEWPOINT 0 0 0 1 0 0 0
POINTS 1877
DATA ascii
-0.05605 0.02224 -0.00301
-0.03775 0.01609 -0.04730
0.05175 0.02615 -0.02261
-0.07475 0.00107 0.00149
-0.02349 -0.00998 0.00414
0.01294 0.02143 -0.00731
0.03972 -0.00075 0.00430
0.00568 -0.00484 -0.00896
0.00722 0.01207 -0.07995
0.04211 -0.00077 0.00133
0.04755 0.02275 -0.00268
0.04702 0.00232 0.00237
0.08281 0.01304 0.00112
0.04777 -0.00073 0.00327
-0.07847 -0.02733 0.00764
-0.03728 -0.00559 0.00512
-0.06272 -0.01250 0.00727
-0.02221 0.02027 -0.01844
-0.03272 -0.00723 0.00369
-0.01981 -0.00817 -0.01000
-0.04026 0.02265 0.00105
0.03965 0.01089 0.00233
0.03765 0.02302 0.00422
0.01363 -0.01961 0.01116
-0.04506 -0.00124 0.00353
-0.03347 -0.01228 0.00452
-0.06384 -0.00941 0.00789
-0.06632 -0.01557 0.00775
-0.04352 -0.00113 0.00123
0.04428 0.00229 0.00263
-0.01370 -0.02712 0.05443
-0.06865 -0.01832 0.11424
-0.04226 0.01726 -0.02579
0.02946 0.00159 0.00359
0.06651 -0.00842 0.00627
-0.01203 -0.01893 0.01299
0.03635 0.01778 0.00021
0.09837 0.00252 0.00828
-0.07299 0.02318 0.01041
0.02450 0.01975 -0.00783
-0.03751 0.00992 0.00134
-0.00845 0.02318 0.08816
0.04311 -0.00256 -0.00010
-0.01863 0.01999 -0.02552
-0.03101 0.01503 -0.06801
-0.02677 0.00129 0.00238
-0.05731 -0.01362 0.00720
0.03091 0.00239 0.00403
-0.08113 0.00984 -0.00260
-0.01308 0.01091 -0.01069
0.04011 0.00671 0.00366
0.00411 -0.01780 -0.00369
0.01726 0.00341 -0.13358
-0.06263 0.00194 0.00300
0.01350 0.00635 -0.12418
-0.03052 -0.00185 0.00243
-0.04273 0.02317 -0.04077
0.04314 0.00160 0.00367
0.00568 0.01390 -0.08062
-0.01881 -0.01737 0.00357
0.01946 -0.00381 -0.00788
0.02064 -0.00516 -0.00541
0.02809 -0.01115 0.00471
0.00503 -0.02564 0.04903
-0.06024 -0.00986 0.00700
0.03805 0.00329 0.00342
-0.09093 0.03256 0.01218
-0.07937 -0.00787 0.00165
-0.06060 0.02615 -0.00349
0.04082 0.01094 0.00088
-0.03558 -0.00736 0.00372
0.00841 -0.01761 0.00660
0.05457 0.02171 -0.05328
0.04223 -0.00496 0.00213
-0.03611 0.01375 0.00297
-0.05275 0.02506 -0.00362
0.02880 -0.01959 -0.05679
0.02966 -0.01984 -0.05441
0.00427 0.00411 -0.16043
-0.03097 0.00919 0.00229
0.04963 0.02239 -0.00434
0.00538 0.02986 -0.01613
-0.02000 -0.01066 -0.00794
-0.03382 0.01807 -0.03036
-0.01987 -0.01080 -0.00749
0.03050 0.02405 -0.00256
-0.05756 0.00628 0.00700
0.05257 -0.01205 0.00576
-0.02766 0.02113 -0.00824
-0.03716 0.00601 -0.14136
0.01363 0.00660 -0.00751
-0.04953 -0.01256 0.00562
-0.04739 0.00596 0.00205
-0.03387 0.00370 0.00132
0.02829 0.01649 -0.05312
-0.02414 0.01355 0.09940
0.00298 0.01008 -0.11928
0.02193 -0.00008 -0.00592
0.00195 0.01279 -0.10693
-0.04468 0.00860 -0.00234
-0.02139 -0.01770 0.00354
-0.01258 0.02619 -0.03238
0.02989 0.00754 0.00273
-0.06280 -0.00957 0.04832
0.04248 0.00653 0.00355
0.02620 -0.00829 -0.08824
-0.00387 -0.00639 -0.21663
0.04403 0.02194 -0.00723
-0.00338 0.02998 0.09945
-0.03127 -0.00878 0.00576
-0.04032 -0.00814 -0.03794
-0.02427 -0.01491 0.00420
-0.01894 -0.01746 0.00484
-0.04694 -0.00744 0.00324
-0.07287 0.02033 -0.01441
-0.07318 -0.02007 0.00025
-0.01198 -0.00733 -0.00971
0.00917 -0.00714 -0.00994
0.04652 0.01420 0.00289
0.02725 0.01752 -0.06386
0.01450 -0.00253 -0.01004
-0.07416 -0.02168 0.00924
0.01711 -0.03137 0.14043
0.02066 -0.00279 -0.12873
-0.06715 -0.01961 0.01788
0.02585 -0.02120 0.00563
0.04931 0.02134 -0.00173
-0.03197 0.00729 0.00144
-0.02706 0.00284 0.00255
0.02915 -0.03117 0.26503
0.00348 0.01651 -0.08252
0.00028 0.00289 -0.15271
-0.00791 -0.00729 -0.00929
-0.07456 -0.01238 0.10688
0.03031 0.01430 0.00430
-0.07529 0.02149 -0.00994
-0.06871 -0.00631 -0.00601
0.06497 -0.00809 0.03188
-0.04499 0.01779 -0.04766
-0.00319 -0.01533 -0.08914
-0.00703 -0.00769 -0.00698
-0.06512 -0.01704 0.01606
0.01539 -0.01103 -0.00770
-0.06436 -0.01903 0.00560
-0.01045 0.01711 -0.01371
-0.05120 0.00710 0.00130
0.01043 -0.02517 0.02707
0.00160 -0.00737 -0.00892
-0.00087 0.00812 -0.12332
-0.06242 -0.00734 0.00010
-0.06838 -0.00818 -0.00240
0.00375 -0.02919 0.04758
0.05564 -0.00083 0.03795
-0.01397 0.00394 -0.00503
0.01229 0.02305 -0.03789
-0.04239 -0.01070 0.00560
0.03294 0.00746 0.00342
-0.00207 -0.03366 0.11762
-0.06281 0.00291 0.00321
0.00871 -0.01027 -0.00840
0.02637 -0.00351 -0.00226
0.00036 -0.00725 -0.01013
0.05253 0.00828 0.00137
-0.07703 -0.01826 0.00697
0.05153 0.02218 0.00063
-0.08038 -0.01724 0.00521
-0.02188 -0.01567 0.00227
-0.00042 0.02589 -0.01560
-0.05092 0.00096 0.00260
0.02895 0.02091 -0.00186
-0.01807 -0.00770 -0.00712
0.01109 -0.02168 0.01272
-0.03155 -0.00733 0.00413
0.01418 0.00989 -0.12568
-0.06113 0.02292 -0.00286
0.02644 0.01684 -0.06688
0.03441 0.01212 -0.04708
-0.03368 -0.00986 0.00424
0.03410 0.00417 0.00361
-0.00687 -0.01827 0.08944
-0.00109 -0.00744 -0.00867
0.00212 -0.02846 0.04758
-0.06431 -0.01980 0.01650
-0.06137 0.01149 0.00024
0.03438 0.02065 -0.00702
-0.03770 0.01973 -0.00137
-0.03448 0.00945 0.00048
0.01656 -0.03033 0.09116
-0.06783 0.01800 -0.00334
-0.01825 -0.01056 -0.01006
-0.02871 -0.00113 0.00313
0.03306 0.02459 -0.00135
-0.02598 -0.00015 0.00052
0.00943 -0.02253 0.03816
0.03217 0.02439 -0.00233
-0.04749 0.00381 0.00253
0.00617 0.02223 -0.05519
0.00449 -0.02823 0.04622
0.00446 -0.02880 0.05107
0.01257 0.00806 -0.13504
0.01490 -0.02368 0.02570
-0.06651 -0.02520 0.00641
-0.07527 -0.00068 -0.00000
0.01927 0.00812 -0.14971
0.01448 -0.00024 -0.11409
0.03077 0.00735 -0.13322
-0.03983 0.01967 0.00053
0.01610 -0.02703 0.04919
-0.03379 0.01268 0.00018
-0.01267 0.01432 -0.04043
0.02696 -0.01642 0.00280
-0.07456 -0.01746 0.00438
-0.01485 -0.00783 -0.00289
0.01184 0.01586 -0.00885
0.01533 -0.02639 0.07280
-0.01659 0.02992 0.05663
-0.01827 0.01869 -0.01308
-0.00090 0.03378 0.08662
-0.05945 -0.00986 0.00827
0.03470 0.02028 -0.00129
0.00359 0.00220 -0.09673
-0.03913 0.02257 -0.00327
0.00527 -0.02839 0.04657
0.00889 0.01999 -0.01476
0.00116 -0.02707 0.04960
0.05400 0.00773 0.00178
0.01199 -0.02547 0.02391
0.03876 -0.01351 -0.11943
-0.00968 -0.01969 -0.04515
-0.00911 0.04011 0.13924
-0.00445 -0.00417 -0.19935
0.01331 -0.01950 0.01341
-0.01376 0.00091 0.03099
-0.03680 0.02225 -0.00349
-0.05845 0.02315 0.00435
0.04123 -0.00945 -0.05772
-0.00578 0.00106 0.03521
0.04044 0.02224 -0.02741
0.04671 0.00687 0.00263
-0.06376 -0.01678 0.01779
0.00998 -0.02592 0.05597
0.01715 -0.02675 0.05108
0.01242 -0.01637 0.00610
-0.02907 0.02222 -0.00326
0.01411 -0.02740 0.04837
0.04248 0.02052 -0.02754
0.00608 0.01451 -0.05577
-0.02632 0.00050 -0.17243
-0.02347 0.01214 -0.06306
-0.04512 0.02352 0.04053
0.04410 -0.00087 -0.04654
-0.00353 0.03008 0.10112
0.03705 0.01369 -0.00358
-0.03930 0.00635 0.00261
-0.06732 -0.01963 0.00544
-0.00496 -0.00425 -0.20042
-0.00581 -0.00371 -0.19871
-0.06180 0.00065 0.00171
-0.00420 0.02144 -0.01560
0.09096 -0.01177 0.09720
-0.03321 -0.01161 0.00510
-0.03321 -0.01161 0.00510
0.05250 -0.01124 0.00528
-0.00380 -0.01708 -0.28143
-0.03096 0.02454 -0.00062
-0.04139 -0.01161 0.00519
-0.06298 0.02265 -0.00353
-0.01524 0.01529 -0.12869
-0.04142 -0.01252 0.00554
0.03613 -0.01212 0.00579
0.03619 -0.01219 0.00615
-0.06638 -0.02329 -0.02522
-0.06396 -0.01098 0.00771
-0.06727 -0.01592 0.00465
0.02422 -0.02915 0.00877
0.08148 0.04469 0.08602
-0.07947 0.02065 -0.01222
0.03693 -0.00930 0.00506
0.00772 0.01920 -0.00409
-0.02234 -0.00862 -0.01011
0.07722 -0.03984 0.00823
0.04555 -0.00954 0.00387
0.02090 -0.02493 0.06448
0.07003 -0.01290 0.01576
0.06638 -0.02201 0.00971
-0.06230 -0.00076 0.00090
-0.01873 -0.01958 0.00650
-0.02342 0.01414 -0.08273
-0.01954 -0.02642 0.00774
-0.02130 -0.02930 0.00873
-0.02120 -0.02911 0.00810
0.03575 -0.01151 0.00614
0.03575 -0.01151 0.00614
0.00982 -0.00641 -0.12285
0.00696 -0.02769 0.04357
0.08004 0.04657 0.08163
0.01381 0.01615 -0.08237
0.02271 -0.02627 0.00784
0.07256 -0.02001 0.03046
-0.02032 -0.02757 0.00815
-0.02345 -0.02237 0.00686
-0.00190 -0.03297 0.07907
-0.07229 -0.02819 0.00798
-0.09551 0.02465 0.08997
0.02171 -0.02214 0.00782
-0.06659 -0.01969 0.01693
-0.03325 -0.01249 0.00552
-0.05667 -0.01053 0.00670
-0.01972 -0.02366 0.00848
-0.03013 -0.00990 -0.02250
-0.04217 -0.00990 0.00511
-0.00580 0.02019 -0.01358
-0.06575 -0.02525 0.01212
0.02977 -0.00881 0.00655
0.01456 0.00491 -0.14493
0.00394 0.00837 -0.10264
0.05015 0.02094 0.00290
-0.01430 0.00547 -0.14715
0.04126 0.00900 -0.02532
-0.02327 -0.02461 0.00634
0.00056 0.00350 -0.15891
0.02850 -0.01277 0.00405
0.02216 -0.02572 0.00703
0.02242 -0.02620 0.00755
0.00526 0.01019 -0.13059
0.06816 -0.02377 0.01154
0.03607 -0.00735 0.00540
0.07158 -0.02619 0.00790
0.02188 -0.01996 0.00600
-0.08911 -0.01216 0.00537
-0.02600 -0.00946 0.00427
-0.01231 0.00858 -0.12957
-0.00333 0.00023 -0.00816
0.04266 -0.00993 0.00597
0.02407 0.03163 0.04405
0.02056 -0.01957 0.01037
-0.01966 -0.02633 0.00799
-0.07910 -0.02745 0.00736
-0.06798 -0.01995 0.08190
-0.00826 0.02376 0.01847
0.02518 -0.02240 0.00582
0.00897 0.02047 -0.01424
0.00542 0.00005 -0.00786
0.00537 0.00017 -0.00793
0.01046 0.02025 -0.00831
-0.07343 -0.01735 0.12047
0.02068 0.02069 -0.02202
-0.01154 0.01936 -0.01457
0.04397 -0.02133 0.01054
-0.04275 -0.02500 0.01030
-0.02694 0.02060 -0.02770
-0.00347 0.01581 -0.01051
-0.09936 -0.01150 0.03586
0.04851 -0.01243 -0.02744
0.07052 -0.02434 0.01744
-0.07442 -0.02761 0.01275
-0.05755 0.02224 0.00089
-0.02478 -0.01271 0.00334
-0.01258 -0.02249 0.03734
0.05243 -0.01227 0.00460
0.04496 -0.01019 0.00491
0.02808 -0.01210 0.00554
-0.00582 0.00075 -0.00442
0.08239 -0.01446 0.05509
-0.02161 -0.00937 -0.01012
-0.04070 -0.01051 0.00546
-0.03027 -0.01643 -0.00916
-0.00420 0.00054 -0.01468
0.13885 0.10314 0.53481
0.03995 0.02345 0.00035
0.03028 -0.00683 0.00036
0.00077 -0.02934 0.04927
0.02011 -0.00857 -0.00995
0.00869 -0.00478 -0.00922
-0.04473 0.01137 -0.00120
-0.00051 -0.02920 0.04826
-0.06338 -0.02371 0.00546
0.01231 -0.00059 -0.12498
0.01131 0.00139 -0.00658
-0.03383 0.01758 -0.00113
-0.00706 -0.02694 0.09395
0.01220 -0.02398 0.04972
-0.02084 -0.00490 -0.00892
0.07723 -0.02602 0.00879
0.01355 0.01801 -0.01222
-0.04678 0.00974 0.09313
0.00039 0.00286 0.00859
-0.08582 -0.01396 0.01085
-0.01241 0.01348 -0.03023
0.00458 0.01456 -0.02572
-0.01573 0.00869 -0.09773
-0.03493 0.00716 0.00092
-0.00080 -0.02760 0.04639
0.00617 -0.02323 -0.00448
0.05179 -0.01304 0.02121
-0.05592 0.02330 -0.00344
-0.00348 0.01512 -0.01261
-0.05811 0.02144 -0.00502
-0.06789 -0.01129 0.00361
-0.03825 -0.00732 0.00376
0.00549 0.00044 -0.00821
0.01330 0.00228 0.02739
-0.19504 0.05264 0.24535
0.00951 0.02151 -0.00769
-0.02938 0.00810 -0.09444
0.09125 -0.02147 0.00519
0.03496 -0.00341 -0.02139
-0.03798 0.01321 0.00746
0.01466 -0.01096 -0.00923
-0.04488 -0.00998 -0.04762
0.04455 -0.00946 0.00404
-0.04137 0.00674 -0.02407
-0.03557 0.02209 -0.00298
-0.00480 -0.00787 -0.00951
-0.00480 -0.00787 -0.00951
0.03909 0.00248 0.00358
0.08550 -0.02603 0.00845
0.02112 -0.02480 0.05868
-0.01940 0.01887 -0.01047
0.00236 -0.00718 -0.00997
0.01479 0.01498 -0.01035
0.00122 -0.02913 0.05084
-0.01197 0.01732 -0.01383
-0.03718 0.02330 0.00623
-0.09025 0.00101 0.00359
0.04812 0.00552 0.00332
0.00108 -0.00064 -0.00924
0.03721 -0.00484 0.00170
-0.02854 0.01581 -0.03090
0.05157 0.01981 0.00011
-0.00429 -0.03259 0.11777
0.03620 0.02204 -0.00708
-0.04531 0.01090 0.00043
0.00946 -0.00768 -0.01032
0.00913 0.01222 -0.05102
-0.04158 0.00189 0.00221
0.00410 -0.03467 0.06953
-0.02581 0.01468 -0.06842
0.01119 -0.00501 -0.00881
-0.02675 0.02179 -0.00637
0.01738 -0.00714 -0.00975
0.00780 -0.00715 -0.00993
0.05260 0.00232 0.00241
0.04432 0.00230 0.00290
0.02090 0.00551 -0.13703
0.00777 -0.02508 0.02734
-0.04662 0.00332 0.00210
0.07480 -0.00014 0.09975
0.03848 -0.00274 0.00199
0.01554 0.01071 -0.00355
-0.02061 -0.01255 0.00841
-0.03953 0.01984 -0.04502
-0.00624 -0.01596 0.00132
0.00523 0.01573 -0.01101
-0.04664 0.00884 0.00201
-0.02667 0.02102 -0.00546
-0.03614 0.00459 0.00190
0.05461 0.01649 0.00164
0.01084 -0.00513 -0.00776
-0.00133 0.01424 -0.05716
0.01470 0.01048 -0.06548
-0.01506 -0.00777 -0.01045
-0.00983 -0.01222 -0.00906
0.04054 0.00453 0.00267
0.00539 -0.02799 0.07173
-0.03713 0.00575 0.00006
-0.03967 0.00418 -0.05089
0.03443 0.02331 -0.00161
-0.01505 -0.00591 -0.15664
0.00510 -0.00723 -0.00960
-0.04643 0.00685 0.00259
-0.03544 0.00606 0.00330
0.00951 -0.01935 0.01151
0.03394 -0.00360 -0.04051
0.04419 0.00230 0.00237
0.01375 0.01150 -0.00820
-0.01369 0.00816 -0.12757
0.06363 0.00259 0.00319
0.06299 0.02290 -0.00186
-0.02895 0.00110 -0.14973
-0.03110 0.00255 -0.14625
-0.04601 0.01231 0.07595
0.08514 -0.01666 0.00751
-0.07692 -0.00006 0.00280
0.04658 0.01085 0.02248
0.01191 -0.00714 -0.00968
0.01191 -0.00714 -0.00968
-0.07040 -0.03669 0.01763
0.03649 -0.01170 0.00523
-0.04239 0.01836 -0.02740
-0.01122 -0.00724 -0.00990
0.01097 -0.02612 0.05918
-0.01795 -0.00772 -0.01103
0.00617 -0.00776 -0.00953
0.02644 -0.00504 -0.07272
-0.00821 -0.02721 0.04235
-0.01867 0.02155 -0.02287
-0.05281 0.00438 0.00320
0.00207 0.00188 -0.16231
0.00211 -0.00447 -0.01313
-0.00574 -0.00397 -0.19922
0.01328 -0.00712 -0.00968
0.01328 -0.00712 -0.00968
0.05034 0.02232 -0.00201
-0.03415 0.00951 -0.00105
-0.00384 -0.00741 -0.00932
0.01396 0.02301 0.00383
0.06683 -0.00048 0.00284
-0.00145 -0.00481 -0.00934
0.02388 -0.00762 -0.01062
-0.02707 0.01576 -0.05760
-0.00848 -0.00722 -0.00995
-0.07058 -0.01501 0.00007
0.00104 -0.00725 -0.00957
0.01978 -0.02039 0.00703
-0.00236 -0.01105 -0.00409
0.03000 0.02174 -0.01618
0.05829 0.03413 0.06804
-0.02705 0.01528 -0.02718
0.03019 -0.00691 0.00553
-0.03517 0.00059 0.00252
0.06224 0.02348 0.04675
-0.03501 0.01226 -0.07686
-0.04681 0.02197 -0.00321
-0.04983 0.00368 0.00174
-0.06683 0.00545 0.03770
-0.00317 -0.00433 -0.00884
0.02571 0.03067 0.04658
0.00964 -0.00139 -0.00823
0.05115 0.00160 0.00309
-0.03039 0.00206 0.00308
0.06494 0.00220 0.00489
-0.02330 0.00077 0.00123
-0.06469 -0.00060 0.00302
0.02987 0.00324 0.00402
0.09216 -0.02346 0.00573
-0.01827 0.00013 -0.16673
-0.02883 0.00376 -0.00573
0.01167 0.01991 -0.01410
-0.01009 0.01645 0.00970
-0.04939 0.01908 -0.00028
-0.04566 0.02290 -0.00370
0.03703 0.00344 -0.02774
-0.05386 0.02251 0.00370
0.00380 -0.02763 0.04000
-0.00675 -0.01418 -0.00708
0.04832 -0.00024 0.00308
-0.01571 -0.02230 0.05348
0.04907 -0.00143 0.00270
0.02012 0.01990 -0.02003
-0.02851 -0.00226 -0.13195
-0.04065 -0.00192 0.00189
-0.00993 -0.02408 0.05434
0.04036 0.00170 -0.02379
-0.04517 0.01040 0.00300
0.00181 -0.00776 -0.00994
0.01081 0.02050 -0.01136
-0.08304 -0.02753 0.00822
0.04666 0.00941 0.00192
-0.03779 0.01060 0.00480
0.04591 -0.00109 0.00102
0.08799 -0.02675 0.00865
0.02381 -0.02897 0.00869
0.03680 0.00986 0.00130
0.00909 -0.02597 0.04644
0.03740 0.00144 0.00339
0.03823 0.02344 -0.00194
-0.07587 -0.02757 0.00821
-0.00938 -0.02581 0.06639
0.00608 -0.02753 0.04116
0.05458 0.00337 0.00361
0.01115 -0.00956 -0.00841
0.01435 0.00595 -0.13002
0.04743 -0.00925 0.00182
0.01215 0.00416 -0.00312
-0.00376 -0.01393 -0.00198
0.02001 0.00075 -0.12987
0.00838 -0.01857 0.00654
-0.00612 -0.01666 -0.05917
0.05819 -0.00007 0.00578
0.05519 -0.00223 0.00445
0.01409 -0.00788 -0.00854
-0.10258 0.02726 -0.00855
-0.07109 -0.00653 -0.00322
0.08078 -0.02045 0.00687
0.03686 -0.00212 0.00280
0.03686 -0.00212 0.00280
0.04022 0.01259 0.00118
-0.02314 0.00945 -0.09128
0.02343 0.01755 -0.00888
0.01425 -0.00252 -0.00852
0.02198 -0.02542 0.00861
0.03816 0.01648 0.00199
-0.00691 0.02066 -0.00107
0.06642 0.00303 0.00334
-0.00957 -0.00076 -0.16557
0.02633 0.00355 -0.13757
0.06051 0.02441 -0.00195
-0.06875 -0.01350 0.11487
0.04171 0.02343 -0.00145
0.04172 0.02341 -0.00180
0.03382 0.00336 0.00287
-0.02408 -0.00578 -0.00129
0.04839 0.00846 -0.02504
-0.02253 0.00078 -0.17347
0.08708 0.03892 0.04279
0.03673 -0.00159 0.00304
-0.00363 0.00748 -0.12161
-0.00112 0.01895 0.00818
0.07050 -0.00932 0.00309
-0.05286 -0.00043 0.00288
-0.01749 -0.00342 -0.00930
0.06472 0.01044 0.00166
0.04677 -0.00483 0.00182
-0.01373 0.02058 -0.01263
0.03019 0.01659 0.00354
0.03019 0.01659 0.00354
0.00673 0.01811 -0.03634
-0.01066 0.01656 -0.01169
-0.03686 -0.00538 0.00229
-0.04193 0.00694 0.00071
-0.02426 -0.01756 0.00368
0.02790 0.01996 -0.03510
0.04070 -0.00811 -0.01771
0.03820 0.02572 -0.00704
-0.00400 -0.00002 -0.17818
-0.03959 0.01023 -0.10873
-0.01151 -0.02168 0.04561
-0.05051 -0.00785 0.00711
0.06099 -0.01174 0.00392
-0.06436 0.00096 0.00281
-0.06105 -0.02443 -0.00674
-0.00722 -0.00601 -0.15280
0.02145 -0.01039 -0.00841
-0.04541 0.00976 0.00081
-0.06174 0.00958 0.00135
0.00460 -0.00035 -0.00835
-0.07304 -0.02121 0.00721
-0.02153 0.02056 -0.02879
-0.06170 -0.00090 0.00277
-0.03059 0.02956 0.02731
-0.03249 0.02144 0.04078
0.01868 0.00051 -0.11906
0.00145 -0.03437 0.11457
0.01200 -0.02530 0.03873
0.02419 -0.02796 0.00812
0.02419 -0.02796 0.00812
-0.02584 0.04694 0.14847
0.00683 -0.02263 0.01829
-0.08599 -0.02923 0.02713
-0.04286 -0.01024 0.00503
0.00481 -0.02506 0.01974
-0.05117 -0.01037 0.00460
-0.04125 0.01646 -0.02856
-0.07683 -0.04019 0.02011
-0.00386 0.01046 -0.07126
-0.00842 -0.00008 -0.17315
0.01833 -0.01562 0.00118
0.00089 0.00741 -0.12474
-0.00491 -0.00444 -0.19840
0.02209 -0.02424 0.00649
-0.00126 -0.00270 -0.19746
-0.00423 -0.00423 -0.19825
0.00520 -0.02682 0.02266
0.08053 -0.02768 0.00747
0.00579 -0.02451 0.02664
-0.00480 -0.00447 -0.19757
-0.07100 -0.02744 0.00766
-0.02029 -0.02674 0.00746
-0.00249 0.00079 -0.16304
0.00100 0.01094 -0.09683
-0.04547 0.03004 0.06861
-0.07491 -0.02747 0.00822
0.02596 -0.02441 0.00556
-0.03345 0.01485 -0.05609
-0.01095 0.03128 0.07597
-0.04894 -0.01152 0.00596
-0.03561 0.01149 -0.06867
-0.05337 0.00654 -0.00983
0.06304 -0.00826 0.00420
0.00356 -0.01011 -0.11921
-0.04018 0.00594 0.00411
0.00731 0.01684 -0.03663
0.01299 -0.00030 -0.13615
0.00617 0.01071 -0.08975
-0.01764 0.02183 -0.02225
-0.06778 -0.02105 0.00891
-0.00524 -0.00400 -0.20075
0.05219 -0.00944 0.00604
-0.00480 -0.00403 -0.19811
-0.03545 0.01340 -0.07083
-0.03112 0.01233 -0.06797
0.02973 0.01620 -0.05230
-0.00134 -0.00155 -0.18057
-0.01630 -0.02984 0.19136
-0.07549 0.03048 0.16169
0.00109 0.00691 -0.13270
-0.00490 -0.00385 -0.19779
0.00953 0.00244 -0.16582
0.01928 0.02128 -0.03508
-0.00503 -0.00409 -0.20145
-0.04125 0.01847 -0.04353
-0.00483 -0.00404 -0.19827
-0.04822 0.02217 -0.00109
-0.05038 0.02477 0.05212
-0.03660 0.00275 0.00634
-0.02938 0.01351 -0.08038
-0.05532 0.00101 0.00326
0.03232 0.01816 -0.04942
0.00934 -0.00480 -0.00875
-0.03676 0.01505 -0.06968
-0.03605 0.01233 -0.06956
-0.04714 0.00111 0.00287
-0.07537 0.02215 -0.00799
-0.01610 0.03008 0.02830
-0.03334 0.01483 -0.04201
0.02994 -0.00130 0.00194
0.01014 0.02094 -0.02341
-0.01815 0.02370 -0.00538
-0.07645 0.00687 0.09296
0.02857 0.02361 0.00756
0.00319 0.01231 -0.05734
-0.00414 -0.00401 -0.19823
0.00846 0.02560 -0.03584
-0.04180 0.01875 -0.00166
-0.06233 0.02140 -0.00411
0.01780 0.00778 -0.12317
-0.00411 -0.00385 -0.19803
-0.05984 0.02308 0.04143
0.05712 0.01367 0.03688
0.05389 0.02331 -0.00239
-0.03940 0.01757 -0.05440
0.07206 -0.01438 0.02082
-0.05270 0.02048 0.04870
-0.01661 -0.00724 -0.01001
-0.03082 0.00081 0.00261
0.02203 0.02388 -0.04399
0.07646 0.02245 -0.00865
-0.03764 0.02289 -0.00415
0.08550 0.02543 0.00066
-0.06732 -0.01907 0.00783
-0.04014 0.02255 -0.00324
-0.06716 -0.01569 0.00679
0.09491 0.04034 0.09082
-0.00491 -0.01446 -0.00785
-0.04516 0.01362 -0.02997
-0.00497 -0.00413 -0.20045
0.04793 0.02618 -0.00695
0.08339 0.02240 -0.00884
-0.05307 0.00167 0.00443
-0.04570 -0.00033 0.00322
-0.05301 0.02188 -0.00456
-0.03060 0.01265 -0.06763
0.00354 -0.00123 -0.18441
0.01679 -0.00972 -0.15062
0.07893 0.02352 -0.00012
0.08301 0.00456 0.00304
0.01908 -0.02467 0.05329
-0.04970 0.02219 -0.00559
0.02879 -0.00894 0.00516
0.05428 0.01892 -0.02807
0.06320 0.02233 -0.00266
0.06748 0.02292 -0.04010
-0.00494 -0.00413 -0.19939
0.05843 0.00691 0.00324
-0.14674 0.05601 0.33698
-0.03255 0.00014 0.01023
0.03247 0.00442 -0.00087
0.01351 -0.01233 0.00390
0.01417 0.00473 -0.14685
0.01116 0.00690 -0.11993
0.04830 0.02283 0.01943
0.02808 0.00323 -0.06268
0.07442 -0.01088 0.00128
-0.04671 0.00617 0.00254
-0.01598 0.01416 -0.04310
0.07090 -0.01983 0.00698
-0.02234 -0.00862 -0.01011
0.03086 -0.00863 -0.11317
-0.06386 -0.01766 0.00128
-0.06721 -0.01813 0.01050
0.06340 0.01255 0.08633
0.04797 0.01574 -0.04782
0.04385 -0.00012 -0.04499
0.03497 0.02671 0.01700
0.03157 -0.00019 0.00406
0.07682 0.02323 -0.00227
-0.04644 -0.00601 0.00157
0.06430 0.02659 0.06430
-0.05225 0.02980 -0.00189
-0.07209 0.02029 -0.00954
-0.07965 0.01552 -0.00441
0.00768 0.01727 -0.03442
-0.06310 0.02304 -0.00339
0.06645 0.02857 0.03648
-0.05586 -0.00202 0.00405
0.03606 0.03235 0.04837
0.03573 0.02070 0.00351
0.06650 0.02076 0.00312
0.01367 0.00106 -0.12530
-0.06239 -0.00592 0.00164
0.02819 0.01370 -0.06638
0.01498 -0.01923 0.02321
0.04223 0.01728 -0.04853
-0.04497 -0.00330 0.00308
-0.00649 -0.01109 -0.11357
0.00991 0.02011 -0.03221
0.05996 -0.00737 0.00433
0.01162 -0.01821 0.00980
-0.04332 0.01617 -0.02685
0.05808 0.00170 0.00308
-0.06460 -0.01364 0.00672
-0.00382 -0.00397 -0.19813
0.04119 0.00451 0.00451
0.02614 -0.02036 0.00498
-0.05964 0.02150 -0.00365
-0.07914 0.00011 0.00402
-0.00542 -0.00427 -0.19355
-0.09069 -0.01409 0.00611
-0.07906 -0.02738 0.00707
0.08084 0.02195 -0.00840
0.07722 -0.03984 0.00823
-0.05782 -0.01182 0.00623
-0.09099 -0.01306 0.00731
0.04834 0.02298 0.00201
-0.08742 -0.02715 0.01146
0.07510 0.00204 -0.00015
-0.01859 -0.01918 0.01439
-0.01393 -0.00728 -0.00982
-0.07385 -0.02755 0.00818
-0.01433 -0.02058 0.02859
-0.07398 -0.03712 0.02873
-0.06507 -0.02081 0.02550
0.04919 0.00954 0.03762
0.00801 -0.00869 -0.00894
0.09034 -0.02613 0.00880
-0.09229 -0.00761 0.00524
-0.09345 -0.00611 0.00437
0.00376 -0.01027 -0.11958
0.09527 0.00072 0.00552
0.01271 -0.02901 0.06844
-0.05035 -0.01126 0.00313
-0.03295 0.02259 -0.00290
0.01964 -0.02270 0.05011
0.01896 -0.01993 0.01566
0.06481 -0.01026 0.00916
0.05324 -0.00809 0.04431
-0.03430 -0.00002 -0.08066
0.01651 0.00145 -0.15413
-0.01676 -0.01906 0.01089
-0.01396 -0.02441 0.05070
0.09337 -0.01683 0.00542
0.00955 -0.02669 0.04232
-0.03162 -0.01659 -0.00025
0.07036 -0.02369 0.02360
0.03680 -0.01795 -0.00580
0.09273 -0.00845 0.00258
-0.06698 -0.02339 0.02845
-0.06633 -0.02298 0.02613
-0.07310 -0.01571 0.00615
-0.08138 -0.02815 0.00754
-0.05050 -0.01193 -0.01679
-0.01255 -0.02461 0.04905
0.02985 0.02302 -0.00004
-0.08922 -0.01397 0.00544
-0.08869 -0.01564 0.00545
0.07119 -0.02359 -0.01038
-0.08734 -0.00868 0.00582
0.07131 -0.02240 0.02710
-0.01448 -0.02247 0.05160
0.09169 -0.00784 0.00759
0.08436 -0.00702 0.00353
0.00052 -0.02785 0.04627
-0.09163 -0.00835 0.00597
-0.06664 -0.02452 0.02423
0.09502 -0.01318 0.00953
-0.08945 -0.01799 0.00551
0.01044 0.01076 -0.09243
0.08294 -0.01433 0.00465
-0.00571 -0.00371 -0.19885
0.02051 -0.01949 0.00354
0.03538 0.01972 0.00180
-0.01629 -0.02627 0.07088
-0.06469 0.02168 -0.00497
0.01729 0.02843 0.29584
-0.00487 -0.02802 0.03328
-0.00560 -0.03025 0.06694
0.09876 -0.00812 0.00928
-0.00385 -0.00359 -0.19827
-0.08928 -0.00582 -0.00009
0.04005 0.02516 -0.00117
-0.06575 -0.01856 0.02611
0.01679 -0.00371 -0.01962
-0.06601 -0.02189 0.02778
0.07689 0.02982 -0.02030
0.07361 -0.00736 0.00255
0.01542 -0.01002 -0.14684
-0.00493 -0.00430 -0.19961
0.08339 0.02379 -0.00149
-0.09275 0.00121 0.00375
-0.00597 -0.02388 0.04263
0.08507 0.04591 0.13786
0.01503 -0.00003 -0.12431
-0.01443 -0.02535 0.04867
0.05751 0.00015 0.00310
0.05766 0.00862 0.03982
-0.00136 -0.02680 0.06588
-0.09310 -0.00524 0.00394
-0.01692 -0.01593 0.00397
-0.01684 -0.01794 0.00992
0.01199 -0.01597 0.00861
0.01064 -0.02190 0.04100
0.01295 -0.01758 -0.01990
-0.08434 0.01367 -0.02692
0.00310 0.02312 0.01391
-0.04291 0.01458 -0.06528
0.01416 -0.02833 0.05511
0.05529 0.01985 0.00213
-0.06603 -0.01580 0.01797
-0.02606 0.01375 -0.06633
0.01886 -0.02332 0.06486
-0.00496 -0.00429 -0.19967
0.07596 0.02867 -0.02152
-0.05122 0.02539 -0.00364
0.01490 -0.02742 0.05494
-0.07307 0.00973 -0.00147
0.06841 0.00864 0.03595
0.00533 -0.02053 0.00272
-0.06810 0.01280 -0.06184
-0.01724 -0.00027 0.02656
-0.09309 0.01063 0.00879
0.02206 -0.00712 -0.00999
-0.06132 0.01726 0.00007
-0.04073 0.02212 -0.00266
-0.06137 0.02179 -0.00297
-0.02931 0.00272 0.00234
-0.00942 -0.01909 -0.02026
0.01738 -0.02276 0.02560
-0.06648 -0.01890 0.02130
0.01113 -0.02382 0.05375
-0.06027 0.01000 -0.08220
-0.02416 0.01785 -0.04993
0.06596 0.00265 0.00361
0.01437 0.02447 -0.04316
0.04697 0.02416 0.00424
0.01313 0.01508 -0.01382
0.00658 -0.01894 0.00230
0.04099 0.02085 -0.01997
0.08211 0.02259 -0.00685
-0.00875 -0.00810 -0.00265
0.00316 -0.01886 -0.00352
0.00654 -0.00720 -0.00988
-0.06288 -0.00925 0.00177
0.01653 0.03164 -0.00288
0.01819 -0.02788 0.06568
-0.00574 -0.01786 0.00701
0.05489 0.02114 0.00009
0.04176 0.02847 0.03669
0.03037 0.01124 -0.08495
0.05779 0.00255 0.00380
0.03854 -0.00209 0.00231
0.03299 0.02214 -0.00444
0.01506 -0.00464 -0.01035
0.05236 0.02130 -0.00970
0.05662 0.02218 -0.00361
0.01853 -0.01247 0.00393
-0.00565 0.01421 -0.07402
-0.00789 -0.03173 0.05515
-0.00851 0.00095 0.01137
0.01881 0.02116 -0.02138
0.08909 -0.01471 0.00479
-0.06503 0.02611 0.02993
0.02021 0.01994 -0.01943
0.03337 0.00237 0.00517
0.02648 0.01559 -0.06798
-0.09989 0.03179 0.06273
-0.01331 -0.01950 0.03427
-0.06870 0.02707 0.03164
0.03236 0.00784 -0.03574
0.01367 -0.00358 -0.12681
0.04376 0.02303 -0.00007
-0.04222 0.02066 -0.02847
0.04432 0.02191 -0.05588
-0.00502 -0.00411 -0.20161
0.08164 0.02325 -0.00797
0.00602 -0.00025 -0.00946
0.08536 0.01880 0.00392
0.06872 -0.01195 0.01412
-0.05618 0.02233 -0.00377
0.06374 0.02294 -0.00166
-0.08394 -0.01420 0.00091
-0.03494 0.02282 0.00173
-0.06934 0.01794 -0.00572
-0.05901 0.02168 0.04062
-0.03399 0.01650 -0.00126
0.00136 -0.01782 -0.01100
-0.03536 -0.00258 -0.04158
0.02876 0.01488 -0.06197
0.04071 -0.00688 0.00342
-0.06836 -0.00374 -0.00627
0.05530 0.02311 0.00415
0.04581 0.02336 -0.00182
0.08737 -0.01560 0.00451
0.00710 -0.00004 -0.01717
0.05919 0.00773 0.00207
-0.03321 0.01833 -0.00686
0.03814 0.00331 0.00380
-0.06519 -0.01293 0.01253
-0.07342 -0.01312 0.04516
-0.05999 0.02516 -0.00375
0.09071 -0.01774 0.00690
-0.07618 0.02057 -0.00993
0.04482 -0.00152 0.00259
0.06492 -0.00019 0.00327
0.01086 -0.00683 -0.10030
0.07285 0.01746 -0.01353
0.05742 0.00690 -0.00066
0.04839 0.02365 -0.00304
0.02567 -0.01479 0.00689
0.06700 0.02761 -0.00007
-0.02124 -0.02531 0.00701
0.06843 -0.01084 0.00616
0.07956 0.01995 0.00029
-0.04518 0.02353 -0.00361
0.09771 0.01463 -0.00030
-0.02704 0.02326 -0.00488
-0.02534 0.02171 -0.01733
0.04274 0.00757 0.00210
0.04276 0.00759 0.00207
0.05154 0.02512 -0.03764
0.02811 -0.00732 0.00051
0.01425 -0.00645 -0.11806
-0.03379 0.02082 -0.00232
-0.08450 0.03534 0.09584
0.01122 -0.00727 -0.00962
0.04002 0.02366 -0.00224
0.01962 0.01929 -0.01312
0.09208 0.01677 0.00438
0.07764 0.02016 -0.00337
-0.00297 -0.00532 -0.00878
-0.07550 0.01141 -0.00121
-0.07964 0.01176 0.00071
-0.00297 -0.00532 -0.00878
-0.03566 -0.00955 -0.02117
0.07381 0.01912 -0.00473
0.02980 0.02089 -0.00068
0.05458 0.00337 0.00361
-0.02537 -0.01491 0.00156
0.07606 0.02287 -0.00040
0.00057 0.00177 -0.14543
0.09068 0.02563 0.00669
0.09068 0.02563 0.00669
0.06542 0.00018 0.00213
-0.02263 0.00350 -0.00322
0.04475 -0.00910 0.00307
-0.07562 0.02582 0.01084
-0.00568 -0.00490 -0.00929
0.01598 0.03126 0.08756
0.05703 0.01310 0.00241
0.06545 0.01294 0.00258
0.00908 -0.01453 -0.00521
0.08436 0.02065 0.00658
0.06849 0.02747 -0.00235
0.01599 0.00664 -0.00069
0.03108 0.01618 -0.06918
0.03406 0.00852 0.00145
-0.04557 -0.00080 0.00313
-0.06701 -0.01909 0.00643
-0.05736 0.01847 -0.06125
-0.07287 -0.00798 -0.00403
-0.06708 -0.02400 0.02369
0.07692 0.00779 0.00184
-0.07194 -0.01563 0.00590
-0.00884 0.01149 -0.07982
0.07502 0.02497 0.00113
0.06072 0.00841 0.00135
0.01003 0.01777 -0.00482
0.08292 0.00015 0.00300
0.04475 0.02337 -0.00186
-0.01172 -0.01145 -0.00942
0.01387 -0.01222 -0.00210
-0.04951 0.01729 -0.00191
0.01170 0.01957 -0.01112
-0.07109 0.02003 -0.00990
0.06919 0.02654 0.00048
0.01332 -0.01916 -0.00029
-0.02018 0.01648 -0.01162
0.01184 0.02370 -0.01771
-0.05154 0.00361 0.00202
0.02203 0.00208 -0.01044
-0.08446 -0.00423 -0.00139
0.06830 0.00220 0.00252
-0.05490 0.00011 0.00299
0.09494 0.04117 0.11620
0.00380 0.02078 -0.01329
-0.01972 0.02657 -0.02888
-0.01324 0.01244 -0.01007
-0.02393 -0.01862 0.00357
-0.02391 -0.01951 0.00392
-0.09245 -0.00196 0.00443
0.01789 -0.00069 -0.00661
0.04659 0.02522 -0.00207
0.08314 0.02666 -0.00055
0.07042 -0.02026 0.01866
0.07230 0.02752 -0.00395
-0.00684 -0.01455 -0.00684
0.04821 0.00547 0.00352
-0.06408 0.00700 0.00156
-0.01233 -0.00888 -0.00862
-0.05754 -0.01132 0.00354
-0.05724 0.02192 -0.00410
-0.03135 -0.00529 0.00170
-0.06982 -0.00330 -0.00259
-0.08668 -0.02552 0.00746
-0.01137 0.00016 -0.00920
0.01521 -0.01087 -0.00930
0.03804 0.02344 0.00017
-0.06805 -0.01989 0.01285
0.04973 0.00497 0.00395
-0.05405 -0.01169 0.01936
0.01964 -0.02294 0.05087
0.02185 -0.02340 0.05740
-0.01562 -0.02445 0.04267
-0.00987 -0.00726 -0.00977
0.07001 -0.01568 0.00468
0.01625 -0.00955 -0.15165
0.02108 -0.02632 0.05946
0.01959 0.01479 -0.09797
-0.08642 -0.01790 0.00549
-0.07035 -0.02746 0.00808
-0.06806 0.01233 -0.06260
0.02161 0.01879 -0.02038
-0.02086 0.02711 -0.02201
0.03915 0.00491 0.00406
0.01963 0.02390 -0.04016
-0.00526 -0.00405 -0.20067
0.06015 0.01819 -0.07651
0.08683 0.02031 -0.00607
0.03105 0.01491 -0.06709
0.04999 0.02464 -0.00669
0.08966 -0.01238 0.00592
-0.04433 0.01872 -0.02641
0.03758 -0.01090 -0.02888
0.06055 -0.01201 0.00461
0.05237 -0.01126 0.00433
-0.03686 -0.01078 -0.02119
0.02613 -0.01081 -0.02426
-0.06579 -0.02480 0.01705
0.07396 -0.02682 0.00801
-0.00815 0.00123 -0.16515
-0.03327 -0.01252 0.00555
-0.07110 -0.02594 0.00229
0.07220 -0.02454 0.02601
0.05338 -0.01038 0.00476
0.00563 0.01278 -0.08327
0.03237 0.01690 -0.05010
-0.04942 0.02246 -0.00283
-0.00405 0.02687 -0.01795
0.00154 -0.02646 0.04781
-0.03395 -0.01055 0.00499
0.06392 -0.00996 0.00962
-0.08129 -0.02427 -0.00132
-0.08759 0.04406 0.13379
0.06464 0.02603 -0.00217
0.00485 -0.02694 0.04537
0.00498 0.01946 -0.01511
0.02781 0.01161 -0.09334
-0.08407 -0.03719 0.02408
-0.00088 -0.00496 -0.00926
-0.04564 0.00619 0.00216
0.02404 0.01261 -0.10082
-0.02480 0.00432 -0.06610
0.00350 -0.03634 0.08840
0.07128 -0.02258 0.02943
0.08577 0.04138 0.07534
0.04451 0.03351 0.00916
-0.00531 -0.00418 -0.20023
0.06151 -0.00967 0.01193
-0.01726 -0.02295 0.04483
-0.01128 0.02429 0.01622
0.01759 -0.02953 0.06382
-0.00023 -0.00142 0.00013
-0.01009 -0.02723 0.05390
-0.03324 0.00078 -0.04580
0.07342 -0.00823 0.03348
-0.02164 0.01372 -0.07997
0.05788 0.00272 0.00342
0.06086 0.01673 0.00098
0.02673 0.01417 -0.06541
0.01030 -0.02608 0.05922
0.02789 -0.01689 0.00362
0.00750 -0.00482 -0.00908
-0.01437 -0.02657 0.05747
-0.04796 0.02037 -0.01447
0.09039 -0.01611 0.00569
0.04354 -0.01086 -0.00043
-0.01935 -0.02473 0.00969
0.00474 -0.03396 0.06144
-0.06180 -0.00904 0.01283
-0.03832 0.01255 -0.05539
-0.03904 0.01292 -0.05183
-0.00498 -0.00424 -0.20044
0.06718 0.03454 0.00917
-0.00383 -0.00209 -0.18841
0.01481 -0.02594 0.04448
0.09971 -0.00471 0.00793
-0.07513 -0.03928 0.01640
0.09535 0.01075 -0.00097
-0.03893 0.00058 0.00272
-0.00165 -0.02336 0.04194
0.00506 0.00990 -0.12020
-0.01355 -0.02000 0.02838
-0.05396 -0.00136 0.00194
-0.00539 -0.00394 -0.20018
0.06368 0.02795 -0.00479
-0.09234 -0.00728 0.00406
0.01026 -0.01787 0.00973
-0.00279 -0.00093 -0.18031
-0.00031 -0.02351 0.03588
0.01561 -0.00304 -0.00898
0.01451 0.02623 0.01285
-0.03665 0.01708 -0.03991
0.00636 0.01866 -0.01422
0.01449 0.00297 -0.15376
-0.00395 -0.00776 -0.01043
-0.05290 -0.00129 0.00255
0.06023 0.02459 -0.02470
-0.06391 0.00032 0.00257
0.00442 0.01354 -0.05804
-0.07380 -0.01708 0.00206
-0.06259 0.01065 0.00263
0.09594 0.02113 0.00032
-0.05505 0.00878 0.00246
0.00528 -0.02335 0.04034
0.09526 0.01109 0.00438
0.06803 0.02950 0.00284
0.03029 0.00900 -0.11884
-0.03484 0.01828 -0.04231
0.06303 0.02591 -0.00426
0.01996 0.02029 -0.01499
0.10077 0.02070 0.01300
0.06263 -0.00078 0.00207
0.01526 -0.01900 0.01159
0.01891 0.02233 -0.04749
-0.01162 -0.02877 0.06591
-0.05360 0.00265 0.00259
-0.07147 -0.01664 0.00484
0.01848 0.00860 -0.12721
-0.04946 -0.00310 0.00306
-0.06278 -0.01010 0.00733
0.01085 0.02024 -0.01428
0.08296 0.02886 0.00740
0.05700 0.01283 0.00208
0.07839 0.02629 0.16839
0.09518 0.03001 0.00321
-0.00069 -0.02828 0.05752
0.00385 0.01587 -0.00697
0.01502 -0.01774 0.00646
0.08915 0.01954 -0.00234
0.02764 0.02251 -0.02337
-0.03512 0.01073 -0.02942
-0.01606 0.00584 -0.13251
0.04180 0.00993 -0.03092
-0.01859 -0.00873 -0.00952
0.05083 0.00768 0.00153
-0.00955 0.01958 -0.01867
-0.06888 -0.01904 0.00647
-0.01015 -0.00446 -0.00933
-0.05863 0.03287 0.00405
0.00587 -0.00448 -0.00886
0.02469 -0.01762 0.00397
-0.01015 0.01418 0.01056
-0.08780 -0.00829 0.00169
-0.04249 0.01693 -0.02289
0.00428 0.01784 -0.00938
-0.00200 0.01668 -0.00289
-0.00719 0.00615 -0.13003
-0.02389 0.01639 -0.05944
-0.25301 0.07946 0.43960
0.06840 0.02076 -0.01648
0.00721 -0.01707 0.00523
0.03236 0.01315 -0.04153
0.00449 -0.00671 -0.04808
0.03302 0.00935 0.00235
-0.03382 0.02438 0.01906
-0.07422 0.04327 0.14864
-0.06978 0.01801 -0.00542
0.00795 0.01953 -0.04187
0.05023 0.02441 -0.00024
-0.00556 -0.00380 -0.19953
0.05065 0.02058 -0.00245
0.08750 -0.00372 -0.00225
-0.06320 0.01935 0.00160
-0.04464 0.02155 -0.00574
-0.05757 0.00380 0.00288
-0.05953 0.00672 -0.14717
0.02958 -0.00624 -0.00338
-0.03788 0.02077 -0.01797
-0.04803 0.02007 -0.01945
0.04263 0.00107 0.00362
-0.04512 0.02479 0.03026
-0.00555 -0.00387 -0.20021
-0.02223 -0.02756 0.00767
-0.07524 0.02284 -0.00983
-0.07304 0.02229 -0.01293
0.08939 0.01994 0.00303
0.04905 0.01316 -0.09002
0.08868 0.02795 0.00139
0.02314 0.02131 -0.01870
0.07219 -0.01433 0.01180
0.06910 -0.01799 0.01326
-0.03641 0.01829 0.00329
-0.01303 0.01496 -0.01050
0.03147 0.00918 -0.12437
0.00666 -0.01923 -0.00380
-0.05280 -0.00734 0.00401
0.08319 0.02869 0.00099
-0.00094 -0.02270 0.03311
0.05776 0.02320 -0.00312
0.03265 -0.00007 0.00359
0.00582 0.00091 0.03168
0.05759 0.00951 0.00152
0.07084 -0.02096 0.00969
0.08542 -0.02035 0.00609
0.04316 -0.00997 0.00664
0.04712 -0.00675 0.00400
-0.00134 0.01570 -0.05219
0.08393 0.01027 -0.00218
0.05261 0.00989 0.00087
-0.05894 -0.01082 0.00497
0.00073 0.01203 -0.06449
0.07166 0.02279 -0.00277
-0.02785 0.02258 -0.00356
-0.01782 0.00094 -0.16598
0.05426 0.00102 0.00270
0.10423 0.01764 0.01105
0.00847 -0.00730 -0.00956
0.08901 -0.02401 0.00914
0.02566 -0.02612 0.00689
0.07114 -0.02621 0.01030
0.02705 -0.01721 0.00460
0.09206 -0.01223 0.00416
0.07294 -0.02685 0.00769
0.02147 -0.01883 0.00571
0.03622 0.00213 0.00198
0.02832 -0.00965 0.00393
0.06880 0.02347 -0.00151
0.09132 -0.02196 0.00771
0.06851 0.01883 0.00070
0.06821 0.02305 -0.00080
0.07847 0.02305 -0.00896
0.07375 0.02629 -0.00276
0.00513 0.00263 -0.15760
-0.07559 -0.00000 -0.00145
-0.04659 0.00456 0.00292
0.05920 0.00140 0.00306
0.05128 0.02344 -0.00130
-0.06233 -0.01995 0.01901
-0.03154 0.02203 -0.00271
0.08227 0.02245 -0.00891
0.01159 -0.02827 0.05334
-0.00604 -0.02501 0.03953
0.05785 -0.01828 0.02539
0.02424 -0.02058 0.00655
0.07902 -0.03681 0.01814
-0.01821 0.01985 -0.03842
0.03611 -0.01123 0.00548
0.03987 -0.00147 0.00054
0.00627 -0.02897 0.04129
0.07145 -0.02124 0.03035
-0.00107 -0.02503 0.03065
-0.03898 0.01244 -0.05563
0.02559 -0.00492 -0.07630
0.08093 -0.03738 0.01996
-0.07954 -0.03861 0.02080
-0.00394 -0.02444 0.06006
0.02318 0.02148 -0.00966
-0.01102 -0.02815 0.05799
-0.06072 0.00184 0.00292
0.00878 0.00827 -0.03763
0.03510 -0.00157 0.00197
-0.03754 -0.00076 0.00306
-0.08548 0.03380 0.10808
0.07314 -0.01953 0.02458
-0.05036 0.04773 0.09153
-0.00341 -0.03513 0.12748
0.01205 0.01465 0.00143
0.09601 -0.01309 0.00903
-0.06664 -0.00784 0.00151
-0.05779 -0.01183 0.00600
-0.04141 -0.01253 0.00549
-0.01664 0.04455 0.09064
0.02851 -0.01869 -0.05499
0.00582 -0.03026 0.05020
-0.06964 -0.00093 -0.00074
-0.02589 0.01481 -0.06879
0.01007 0.01184 -0.08384
-0.04740 -0.00895 0.00528
-0.03482 0.01913 -0.04252
-0.04323 0.02259 -0.00298
0.02832 0.00995 -0.12740
-0.02520 -0.01157 0.00444
-0.00758 -0.00954 -0.20055
-0.00758 -0.00955 -0.20053
-0.04325 -0.00900 0.00393
-0.06190 0.02531 -0.00264
-0.01301 0.03135 0.00389
0.02922 0.00953 -0.12700
-0.00528 -0.00463 -0.20759
-0.07608 -0.01510 0.00601
-0.00679 0.00192 -0.15787
-0.00984 -0.00206 -0.19362
0.03690 -0.01114 -0.01094
0.01248 0.00739 -0.12366
-0.07339 -0.02821 0.03098
-0.07271 -0.01699 0.00838
0.00102 0.00323 -0.16026
-0.07710 0.00506 0.00181
-0.07503 -0.02652 0.00887
-0.10174 0.02053 0.02709
-0.09028 0.01666 -0.00798
0.08403 -0.02678 0.00815
-0.00873 0.02449 -0.04605
-0.09408 -0.02037 0.08099
0.05329 0.03478 0.02410
-0.01979 -0.02390 0.00581
0.03326 -0.01497 0.00109
0.03266 0.00062 -0.04635
-0.01224 -0.00239 -0.19581
-0.01733 -0.02183 0.05606
-0.03094 0.01130 -0.08360
0.03402 0.01358 -0.08883
0.02215 0.00820 -0.12404
-0.00360 0.00163 -0.17361
-0.01463 0.02160 0.02500
0.05959 -0.01042 0.01057
-0.02520 -0.01289 0.00486
0.00596 0.01030 -0.11055
0.00437 0.01895 -0.07397
0.00408 0.00097 -0.17035
-0.01597 -0.00368 -0.18892
-0.09281 -0.00367 0.00424
-0.00565 -0.00459 -0.20716
-0.03317 0.01590 -0.06442
0.03575 0.01802 -0.07696
-0.06422 -0.02454 0.00811
-0.03406 0.01809 -0.04237
0.01312 0.02032 -0.06147
-0.01412 0.00491 -0.16332
-0.03754 0.01628 -0.04829
0.03452 -0.00859 -0.04563
-0.00068 -0.00115 -0.18235
0.00032 -0.01124 0.03526
-0.03025 0.01431 -0.07643
-0.03687 0.02566 0.00079
0.01478 -0.02481 0.04818
0.03000 0.01964 -0.06630
-0.00632 -0.00516 -0.21174
-0.07550 0.02604 -0.00860
-0.02173 0.02031 -0.02807
-0.00582 -0.00408 -0.19882
0.00990 0.01099 -0.11245
-0.00407 -0.01608 -0.11570
-0.00610 0.00187 -0.15901
0.01829 -0.02459 0.05586
0.00491 0.00429 0.08684
-0.01527 -0.02232 0.06900
-0.02566 -0.01194 0.00674
0.04265 0.02238 -0.02106
0.00239 0.01446 -0.02278
-0.00402 -0.02376 -0.02152
-0.02522 -0.01369 0.00521
-0.08590 0.03033 0.00972
-0.01960 0.02102 -0.01782
0.09784 -0.00253 0.00736
0.00218 -0.02803 0.04683
0.00168 -0.02791 0.04710
-0.00515 -0.02939 0.07452
-0.02308 -0.02328 0.00585
-0.00979 -0.00309 -0.19956
-0.03717 0.00762 -0.02553
-0.04058 -0.00132 0.00833
0.00668 0.00284 -0.09531
0.07568 -0.00572 0.00080
0.02949 0.01955 -0.07322
-0.00027 -0.02703 0.04566
0.02018 -0.02603 0.07487
0.02582 -0.02319 0.00622
-0.08827 -0.01401 0.00552
-0.04910 -0.00995 0.00518
-0.08990 -0.00034 0.00413
0.03144 0.01596 -0.07384
0.00303 -0.03026 0.04414
-0.00752 -0.00511 -0.20959
0.00531 0.02141 0.03042
0.09206 0.01315 -0.01472
-0.00217 0.00032 -0.18015
-0.00532 -0.00392 -0.20777
-0.01057 -0.00473 -0.20796
0.01124 -0.01274 -0.00669
0.00023 -0.03239 0.09650
-0.03385 -0.01166 0.00528
0.03559 -0.00972 0.00552
-0.00197 -0.02331 0.02848
0.00738 -0.02975 0.06103
-0.02246 0.02332 -0.04375
0.01968 -0.02364 0.04765
-0.05741 0.00371 0.00040
-0.01188 0.02723 -0.01822
0.00377 0.00123 0.01777
-0.11034 0.01169 0.17309
0.00880 -0.02117 0.02715
-0.01305 -0.02483 0.02785
0.04571 0.03073 0.00575
0.04273 -0.00083 0.00414
0.03718 0.02753 -0.02031
-0.07604 0.02321 -0.00587
0.01013 -0.02950 0.05588
-0.03544 -0.00122 0.00302
0.01741 0.00391 -0.16049
0.03846 -0.01120 0.01179
-0.03218 0.00990 -0.10333
-0.00525 -0.00403 -0.20068
-0.00010 -0.00613 -0.08788
-0.10330 0.04574 0.22888
0.01938 -0.00251 -0.00704
-0.04106 0.01319 -0.07867
-0.00405 -0.01936 -0.01677
-0.00486 -0.02738 0.05268
0.03000 0.01097 -0.12064
0.02236 0.02347 -0.01360
0.00083 -0.02946 0.04369
-0.06627 0.02381 0.15814
0.00361 -0.02929 0.04656
0.02866 -0.00610 -0.00216
-0.05347 0.03595 0.10061
0.01182 0.01544 -0.00054
0.02281 0.02010 -0.02105
0.03149 0.02202 -0.00677
0.01107 -0.01996 0.00795
-0.03518 0.01713 -0.02496
-0.09406 -0.00596 0.00379
0.06667 0.02540 -0.00163
0.06685 -0.00093 0.00236
-0.05190 0.02215 -0.00133
-0.04459 0.00192 0.00373
0.02095 -0.00687 -0.09269
-0.08760 -0.01535 0.00625
0.04010 0.01034 0.00204
-0.06879 0.02592 -0.00722
-0.00196 0.01303 0.00640
-0.02743 0.01444 -0.05405
-0.00873 -0.02287 0.04114
-0.07252 0.02142 -0.00432
-0.01319 -0.01971 0.01336
-0.00654 -0.02349 0.04785
-0.07006 0.02079 -0.00818
-0.04722 0.00625 0.00234
-0.00456 -0.00402 -0.20077
0.00861 0.01221 -0.10772
-0.06324 0.01940 0.00188
-0.05654 0.00089 0.00313
-0.06522 -0.00999 0.00320
-0.01173 -0.01754 0.00714
0.02041 -0.01565 0.00200
-0.00652 -0.02278 0.02868
-0.01201 0.05386 -0.02770
-0.01820 -0.01609 0.00291
0.01316 0.00646 -0.01136
-0.00936 -0.02857 0.05787
-0.01306 -0.02640 0.02502
0.07088 -0.01832 0.02263
0.02307 -0.02236 0.00590
-0.03912 0.01117 -0.02448
-0.06496 -0.01153 0.00565
-0.00693 0.00072 -0.17963
0.04094 0.01128 0.00357
-0.03198 0.00478 -0.07189
-0.02732 0.00712 -0.11304
0.00872 -0.03340 0.05154
-0.09197 0.01226 0.00103
0.00575 -0.03271 0.05097
-0.02413 0.02411 -0.04245
0.03136 0.01527 -0.05442
0.05215 0.02307 0.00054
0.05430 -0.00084 0.00178
0.01862 0.00532 -0.13176
0.03301 0.00247 0.00333
0.03352 0.00655 -0.04798
0.00028 0.01686 0.00453
-0.00840 -0.00177 -0.18607
-0.06369 0.02525 -0.00265
-0.03583 0.00130 -0.01265
0.02717 -0.01517 0.00256
-0.03710 -0.00736 0.00357
0.04727 0.06400 0.25566
-0.00618 0.00303 -0.15116
0.10947 0.06000 0.25369
0.06490 0.00396 0.00022
0.05945 0.02791 -0.02277
-0.06703 -0.01869 0.01949
-0.08383 -0.01536 0.00066
0.03032 -0.00989 -0.05280
-0.05402 0.00983 0.00315
0.05956 0.01982 -0.00025
0.09664 0.00916 0.00612
0.05866 0.03850 0.10703
0.02055 -0.02459 0.05615
0.01571 -0.01486 0.00140
0.07030 -0.02124 0.02919
-0.05618 0.02199 -0.00202
0.00674 -0.02995 0.01114
-0.01197 0.00406 -0.15409
-0.03330 0.01869 -0.02561
-0.03896 -0.00240 -0.06501
-0.01631 -0.00638 -0.21743
-0.01951 -0.02148 0.02985
0.01356 -0.00702 -0.03580
-0.02771 -0.00114 -0.11565
-0.00203 -0.02981 0.04347
0.05860 0.03873 0.08120
-0.02162 0.01999 -0.01750
-0.01516 0.00007 -0.17729
-0.00771 -0.03006 0.05734
0.01430 0.01773 -0.00969
-0.01485 -0.02789 0.05844
0.03108 0.00415 -0.13978
-0.06444 0.00642 0.00780
-0.01822 0.02020 -0.02697
0.00851 -0.02113 0.00917
-0.06883 0.02771 0.03693
-0.01150 0.01498 -0.01334
0.01113 -0.00035 -0.03292
-0.03559 0.02123 -0.00652
-0.10615 0.02374 0.03337
0.06611 0.02332 -0.00269
-0.01677 0.00659 -0.15123
-0.01177 0.03007 -0.00650
0.00382 -0.02677 0.04405
-0.08120 -0.01106 0.00213
-0.04218 0.01504 -0.05228
-0.02870 0.02366 0.00157
0.01662 -0.00715 -0.01018
0.07842 0.02352 -0.00692
-0.06018 0.01576 0.00267
0.00027 -0.02029 0.03198
-0.03239 0.02209 -0.00326
0.08284 -0.00517 0.00243
-0.03959 0.02063 0.00031
0.06375 0.02723 -0.00211
-0.06166 -0.00736 0.01050
-0.01941 -0.02543 0.00794
0.01888 0.02084 -0.02891
-0.06325 0.02227 -0.00330
-0.02730 -0.00151 0.00181
-0.00384 -0.02254 0.01124
-0.05298 0.02405 -0.00240
-0.05509 0.02356 -0.00241
0.02816 0.02278 -0.00443
-0.06380 -0.00174 0.00295
0.03303 0.02260 -0.00133
0.05991 0.01653 0.09025
0.06127 -0.01029 0.01066
0.07401 -0.01566 0.00487
0.00170 -0.00724 -0.00998
0.00296 -0.00734 -0.00961
-0.08810 -0.01308 0.00377
-0.01712 -0.02105 0.03202
-0.01074 -0.02802 0.06154
0.01738 -0.02595 0.05374
-0.06295 -0.01031 0.01427
0.01806 -0.01792 0.01137
-0.00927 -0.02578 0.06211
-0.01432 0.01550 -0.08952
0.04429 0.03266 0.01327
-0.05748 -0.01260 0.00470
-0.06011 -0.01463 0.00992
-0.05214 -0.01382 -0.08038
-0.00470 -0.00118 -0.18831
0.02006 0.01206 -0.10623
0.08109 -0.01076 0.14315
-0.00302 -0.01793 -0.09408
0.08469 0.00594 -0.00103
-0.06354 -0.01733 0.00882
0.02350 0.02414 -0.00527
-0.08269 -0.00322 -0.00503
0.01639 -0.02765 0.17112
-0.04068 -0.01149 0.00505
-0.00066 -0.02945 0.06679
-0.06880 -0.02678 0.00758
-0.03340 0.01492 -0.05355
0.01552 0.02608 -0.01522
-0.01370 -0.02197 0.08906
0.01808 -0.02216 0.06216
-0.09313 0.04099 0.17565
-0.09228 0.05109 0.16540
-0.00399 -0.01857 -0.10716
-0.00194 -0.02058 0.01735
-0.01878 0.02137 -0.03781
0.08558 -0.02756 0.00850
0.00787 -0.02323 0.04180
-0.01898 0.01868 -0.07254
-0.01866 0.02616 0.00801
0.06987 0.02331 0.00076
-0.05151 0.00055 0.00297
-0.03584 0.02264 -0.00394
0.00565 -0.01482 -0.00857
0.00076 0.01295 -0.08191
0.04441 -0.01218 0.00633
0.05268 -0.01208 0.00577
-0.01630 0.02495 -0.03305
0.01646 0.01242 -0.08832
-0.00632 0.01176 -0.08991
-0.02562 0.02751 -0.02020
0.05616 -0.01082 0.08551
-0.07078 -0.02708 0.01447
-0.04014 -0.01031 0.00585
0.06611 0.02332 -0.00269
0.03796 -0.00846 0.00299
-0.07252 0.03359 0.05083
-0.03791 0.01619 -0.05889
-0.01663 -0.00876 -0.23202
-0.00813 -0.02070 0.05180
0.00061 -0.00247 -0.19521
-0.00442 0.00477 -0.15130
0.07032 -0.02497 0.01519
-0.00735 0.00651 -0.12740
0.19189 0.10211 0.28584
-0.00725 -0.00296 -0.19795
0.02136 0.01480 -0.09481
0.03072 0.01334 -0.08313
-0.08223 -0.02968 0.03965
0.12861 -0.03519 0.12051
-0.00603 -0.02857 0.05809
0.05289 -0.01096 0.00466
0.04998 -0.00810 -0.01888
0.06456 0.02605 -0.01353
-0.01676 -0.00874 -0.23192
0.01008 -0.01360 -0.00018
-0.06539 0.03825 0.07549
-0.01228 0.00341 -0.17841
-0.00713 -0.00337 -0.19891
-0.03619 0.01874 -0.02795
-0.00561 0.01140 -0.10980
-0.08157 -0.02141 0.00657
-0.01652 -0.00868 -0.23177
-0.01287 -0.02718 0.05796
-0.05221 0.02596 -0.00428
-0.12121 0.02706 0.04965
-0.14961 0.03713 0.12637
-0.00310 -0.00116 -0.17875
0.08692 0.03362 0.03379
-0.01765 0.01330 -0.07730
0.03162 0.02076 -0.05572
0.17289 0.06811 0.20574
-0.08001 0.01644 -0.05228
-0.00329 -0.03439 0.06474
0.01626 -0.00520 -0.11826
-0.06234 0.02589 -0.00446
-0.00893 0.00357 -0.14754
-0.00974 -0.02592 0.02439
0.06586 0.00513 0.00301
-0.00785 -0.00325 -0.20063
0.00214 -0.02791 0.05643
-0.05656 0.03434 0.01817
0.00380 -0.02678 0.03087
0.02094 -0.02087 0.06498
0.06202 0.02275 -0.00270
-0.03842 0.01485 -0.05589
0.02993 -0.00854 0.00314
-0.00610 0.01030 -0.10525
-0.04391 -0.02363 0.00960
-0.12428 0.02322 0.06380
-0.00392 -0.02484 -0.01237
-0.00371 0.02048 -0.00754
-0.01336 -0.00111 -0.17310
0.01046 -0.03197 0.11240
0.13260 0.08688 0.40231
0.05562 0.00252 0.00376
-0.00965 0.00495 -0.13843
-0.01653 -0.00872 -0.23176
-0.05119 -0.01047 0.00335
-0.12107 0.02666 0.05070
0.00930 0.02357 -0.04796
-0.00635 -0.00230 -0.18866
-0.00589 -0.02564 0.02300
0.06152 0.04141 0.03895
0.06152 0.04141 0.03895
-0.05953 0.03474 0.03237
-0.02528 0.01038 -0.08844
-0.02748 0.01498 -0.05466
-0.01745 -0.02223 0.05853
-0.06625 -0.01278 0.02414
0.00458 -0.02198 0.03488
-0.00827 0.00571 -0.04654
-0.01050 0.02351 -0.04045
-0.02983 0.01375 -0.07718
0.02152 0.00991 -0.09550
-0.00774 -0.00345 -0.20188
0.06265 0.01440 0.00152
0.01598 -0.02218 0.04460
0.00043 0.00169 -0.17196
0.01963 -0.02664 0.06578
0.01767 -0.02608 0.05134
0.00781 -0.03197 0.05869
-0.01677 -0.00872 -0.23184
-0.01548 0.01451 -0.09677
-0.00334 -0.03090 0.03805
-0.00302 0.00644 -0.13943
0.00310 0.00101 0.01135
-0.01678 -0.00874 -0.23182
0.00409 -0.02151 0.03881
0.01409 -0.01785 0.00940
-0.01119 -0.01790 0.00908
-0.05965 -0.00915 0.00732
-0.02409 0.00901 -0.11319
-0.00501 0.01502 -0.01246
-0.00760 -0.02798 0.05351
0.01149 0.00829 -0.00380
0.01213 0.00913 0.00230
0.07943 0.04017 0.09765
-0.05212 0.02528 -0.00335
-0.00574 -0.00501 -0.21093
0.03909 -0.01176 -0.01695
-0.00879 -0.00261 -0.19153
0.00428 0.00111 0.00160
-0.00278 0.00388 -0.15610
-0.07920 0.02289 -0.00796
-0.00767 0.01983 -0.01210
-0.09238 0.04865 0.16633
0.15161 0.01653 0.17200
-0.03051 0.00209 0.00450
-0.01662 -0.00884 -0.23173
-0.05516 -0.01041 0.00813
-0.12627 0.02888 0.06965
-0.00150 0.00060 -0.00685
0.06246 0.00111 0.00270
-0.00005 -0.02611 0.05479
0.00076 0.00607 -0.14225
0.02151 -0.01727 0.00391
-0.00101 -0.01665 -0.07085
0.04651 0.02557 -0.00891
0.00966 -0.03366 0.06676
-0.08387 -0.01061 0.00189
-0.00847 -0.02291 -0.00362
0.01511 -0.02590 0.03164
-0.05260 0.00187 0.00285
-0.09347 0.01428 0.00374
-0.10555 0.01664 0.03473
-0.10940 0.01836 0.02948
0.00437 0.00879 -0.13214
-0.00514 -0.00410 -0.20162
0.00769 0.00530 -0.14367
-0.00546 -0.00527 -0.20938
-0.07825 -0.01661 0.01278
-0.00744 -0.02285 0.02439
-0.03890 0.01446 -0.09730
-0.00635 0.01410 -0.08066
-0.00584 0.01970 0.03164
0.04543 -0.00159 0.00647
-0.00759 -0.00501 -0.20767
0.00126 -0.02178 -0.00515
-0.00476 -0.00457 -0.19737
0.02916 -0.00308 -0.05330
-0.08798 -0.02410 0.00475
0.01804 -0.02974 0.06140
0.00498 0.00962 -0.12740
-0.02270 0.01465 -0.07140
-0.00297 -0.02048 -0.08943
0.03224 0.02111 -0.05546
0.07725 -0.02088 0.00623
-0.00697 -0.00278 -0.19281
-0.05391 -0.00080 0.00412
0.00829 0.01759 -0.01737
-0.00641 0.02225 -0.01839
-0.06162 0.02186 0.02546
0.05540 0.01247 -0.07170
