# .PCD v.7 - Point Cloud Data file format
VERSION .7
FIELDS x y z
SIZE 4 4 4
TYPE F F F
COUNT 1 1 1
WIDTH 1877
HEIGHT 1
VIEWPOINT 0 0 0 1 0 0 0
POINTS 1877
DATA ascii
-0.04369 -0.01765 0.00140
0.01925 -0.00190 -0.07171
-0.00188 0.00335 -0.05320
0.00921 0.01263 -0.02116
0.00357 0.00127 -0.06185
0.01504 0.00417 -0.05528
0.00103 0.00902 -0.03198
-0.00621 -0.00387 -0.08193
0.01465 -0.00112 -0.04386
-0.00088 -0.05788 0.01904
0.00529 0.00107 -0.06488
0.02082 0.01677 0.00393
0.01125 0.00335 -0.05750
-0.05273 0.04545 0.06912
0.00966 0.00271 -0.05817
-0.00119 -0.00024 -0.07001
0.05131 -0.02235 0.08829
0.00989 -0.00274 -0.06301
-0.01046 -0.02630 0.01864
-0.03511 0.00018 -0.02195
0.03536 0.01600 0.00153
-0.00776 0.01084 -0.02644
-0.05489 -0.01279 -0.01799
0.02971 -0.01342 0.00599
-0.04495 -0.02371 -0.01432
0.00093 -0.00183 -0.07435
0.00051 0.00649 -0.04290
-0.05646 -0.00971 -0.01797
0.00018 -0.02900 0.00653
-0.05960 -0.01126 0.00280
0.00103 -0.02813 0.00817
-0.00373 0.00311 -0.05598
-0.00530 0.02399 0.01791
0.01917 0.01489 0.00196
-0.00785 0.00793 -0.03611
0.03850 -0.01033 0.01392
-0.03540 -0.02392 0.00222
-0.03257 -0.02687 0.01238
0.01834 -0.00381 -0.07917
-0.15935 0.05036 0.11203
0.01655 -0.01350 0.00575
0.04092 -0.01185 0.00492
0.04586 0.01514 -0.01590
0.00193 -0.00638 -0.06842
0.04944 0.00250 0.02258
0.01323 0.00589 -0.04360
0.00120 -0.02305 0.00500
0.01687 0.02424 0.02687
-0.03210 0.01896 0.00337
0.00798 -0.00012 -0.04011
0.00783 0.00143 -0.06510
-0.03408 0.00336 0.00030
-0.04728 -0.00864 -0.00234
0.00539 -0.00145 -0.07122
0.01964 0.04216 0.09142
0.01073 -0.00085 -0.06810
0.03823 0.01782 0.00685
0.00153 0.00326 -0.06058
0.02453 0.01646 0.00325
0.00827 0.01459 0.03020
0.00396 -0.00125 -0.06713
0.01060 0.01340 -0.02340
0.00116 0.00275 -0.06351
-0.02841 0.00004 -0.04425
0.00837 0.00450 -0.04699
0.00088 -0.01015 -0.04943
-0.00013 0.01639 -0.00805
-0.00081 0.00280 -0.05650
-0.00221 0.02034 0.01038
0.02091 -0.02420 0.00900
-0.05533 -0.00915 -0.00668
0.00742 0.01093 -0.02196
0.00930 0.00827 -0.03557
0.03191 0.01326 -0.01072
0.00271 0.00194 -0.06179
-0.00057 0.01423 -0.01831
0.02845 0.01663 0.00152
0.01382 0.01147 -0.03469
-0.04649 -0.02807 0.21044
-0.01963 -0.01383 0.00540
-0.01920 -0.01366 0.00330
-0.04842 -0.00963 -0.00162
0.01730 0.01672 0.00157
-0.00648 0.00764 -0.03721
-0.07195 -0.02053 0.00204
0.00277 0.00225 -0.05519
-0.03142 -0.00766 -0.04400
-0.00653 -0.00452 -0.08288
-0.05250 -0.01415 0.01320
0.01576 -0.02373 0.00567
0.03572 0.01710 0.00034
-0.02801 -0.02138 -0.01209
-0.00446 0.00814 -0.03953
-0.01659 0.04282 0.07572
0.01213 -0.02991 0.00904
0.03943 0.02094 0.00266
0.01053 0.01178 -0.03268
0.01153 0.00272 -0.05888
-0.03217 0.01655 -0.00490
0.00435 -0.00372 -0.08115
-0.01917 -0.03072 0.00853
-0.00587 0.00772 -0.03733
0.00095 0.02290 0.01547
-0.02051 -0.01336 0.00266
-0.06828 0.01528 0.06445
-0.02448 0.00603 -0.04656
-0.14467 0.05380 0.11732
-0.05528 0.01044 -0.00092
0.05376 -0.00928 0.02330
-0.00786 -0.00772 -0.04407
-0.00875 0.00749 -0.04267
-0.00392 0.00165 -0.06183
-0.00105 -0.00213 -0.07452
-0.08077 -0.02374 0.01917
0.05540 -0.00807 0.00393
-0.02175 -0.01197 0.00259
-0.00121 -0.00278 -0.07472
-0.00123 -0.00267 -0.07474
0.01263 0.00316 -0.05294
-0.00594 -0.00764 -0.04797
-0.00317 0.00409 -0.05566
0.03977 0.02033 0.01447
0.01452 0.00063 -0.06311
0.00594 -0.01576 0.03214
-0.00789 -0.00733 -0.07346
-0.02445 0.00674 -0.04335
0.01493 -0.00028 -0.06613
0.00033 -0.00106 -0.07095
-0.01946 0.01768 -0.00412
0.00030 -0.00541 -0.07398
-0.00936 0.01680 0.00058
-0.03526 -0.01664 0.04590
0.01678 -0.00214 -0.07407
0.00614 0.00079 0.00364
0.03775 -0.00835 -0.01865
-0.00666 -0.01429 0.08423
0.00545 -0.00019 -0.06546
0.01165 0.01550 -0.02226
0.01819 -0.00462 -0.08238
0.00936 -0.00275 -0.07309
0.03888 -0.01376 0.00789
-0.07948 0.04375 0.09787
-0.03786 0.08384 0.20678
0.01115 -0.01951 -0.00591
0.00814 0.01653 -0.01569
-0.00575 0.01654 0.00447
0.01527 -0.02258 0.00431
0.01449 0.00760 -0.03624
-0.00646 -0.00455 -0.08313
-0.00538 0.00684 -0.03659
0.01179 0.00854 -0.04086
0.01560 0.00642 -0.04148
-0.03308 -0.02181 -0.00502
0.04247 0.01693 0.00511
-0.00297 0.08264 0.23549
0.00749 0.00134 -0.06530
-0.00962 0.00813 -0.05033
0.00705 0.00132 -0.06697
0.00993 -0.00110 -0.07028
-0.00261 -0.06341 0.02846
0.01923 0.01919 0.00347
-0.05779 0.02853 0.02580
-0.00110 -0.00033 -0.06887
0.01077 0.00189 -0.05485
0.01343 0.00233 -0.05588
-0.01346 -0.02368 0.00422
0.00494 0.01531 -0.00498
0.03049 0.00924 -0.02525
-0.00675 0.00075 -0.07071
-0.00656 -0.00450 -0.08278
0.01397 -0.01211 0.00733
0.00980 0.00260 -0.05826
-0.03611 0.00241 -0.02042
-0.03849 0.00110 -0.02444
0.01963 0.01339 -0.00648
0.00477 0.00636 -0.04889
0.00570 0.00000 -0.06789
0.01414 0.10209 0.24887
0.01029 0.00713 -0.04499
0.00588 0.00520 -0.04684
0.00358 -0.01412 0.00742
0.03658 0.01664 0.00198
-0.00440 0.02002 0.00401
0.01460 -0.02658 0.00747
-0.01095 -0.03090 0.01119
-0.00105 0.00171 -0.06456
0.00536 0.00717 -0.04456
0.01125 0.00000 -0.06773
0.00091 0.00040 -0.06854
0.01170 0.00880 -0.04084
-0.04711 0.00315 -0.00409
-0.00646 -0.03364 0.01179
-0.03996 -0.02407 0.00521
0.01951 -0.01916 0.02658
0.00995 0.00356 -0.05376
-0.04964 -0.01934 -0.00212
-0.03332 0.08179 0.18311
-0.04597 -0.01706 -0.01489
-0.00462 -0.00418 -0.08307
-0.00488 0.00337 -0.05588
0.00182 0.00125 -0.06565
-0.00309 0.01286 -0.00799
-0.04849 -0.01900 -0.00368
-0.05751 -0.01813 -0.01508
0.00031 -0.00122 -0.07081
-0.01081 0.00181 -0.06023
0.00630 0.00099 -0.06831
0.02350 -0.00257 -0.05479
0.01910 -0.00270 -0.07593
-0.00255 -0.01856 -0.03299
0.00163 0.00183 0.00675
0.01833 -0.00423 -0.08093
0.03794 0.03043 0.04996
-0.03617 -0.00085 -0.02975
-0.05010 -0.01931 0.00199
0.01818 0.02498 0.01557
0.04683 -0.02229 0.00802
0.03419 0.01708 -0.01338
0.00521 0.00733 -0.04967
-0.03918 -0.01480 0.00068
-0.03263 -0.01342 0.00133
0.04067 0.00484 0.01857
0.00022 -0.00171 -0.07263
0.00802 0.00147 -0.06243
0.03983 0.01725 -0.00024
0.01004 0.03961 0.06509
0.05498 0.04086 0.11337
0.05670 -0.02137 0.02342
0.03689 0.01586 -0.00307
0.01666 -0.01208 0.00698
-0.00536 -0.00447 -0.08437
0.04968 0.01928 0.01639
0.02835 0.03998 0.06602
0.01241 0.00345 -0.05892
0.00764 0.00071 -0.06245
0.02663 0.00872 0.00179
-0.00573 0.00131 0.00112
0.00608 0.01597 0.00606
0.01436 -0.01238 0.00641
-0.00100 0.02050 0.00530
-0.02046 -0.01357 0.00173
-0.04618 -0.02119 -0.00153
0.00715 0.00135 -0.06458
-0.00178 0.00156 -0.06162
-0.00197 0.02088 0.02249
-0.03029 0.03463 0.03835
-0.00543 -0.00940 -0.03832
-0.00674 0.00792 -0.03698
0.01365 -0.02594 0.00657
-0.00492 0.02395 0.01581
0.04610 -0.01899 0.01108
0.01585 0.01394 -0.01625
-0.00399 0.00054 -0.06581
0.01074 0.01075 -0.02634
-0.01995 0.06072 0.18180
-0.00249 -0.00085 -0.07004
0.05204 -0.00887 0.00658
-0.07278 0.01977 0.00404
0.05028 -0.00967 0.02234
0.05025 -0.00965 0.02227
-0.00664 -0.00665 -0.07659
-0.05397 -0.01860 -0.00627
-0.03687 -0.02355 0.00252
0.01057 -0.00878 -0.03805
-0.05041 -0.02657 0.01112
-0.00606 0.01368 -0.01954
0.00645 0.03320 0.05621
0.02738 0.02204 0.01584
0.02611 -0.02268 0.00651
-0.00437 -0.02808 0.00629
-0.00640 -0.02499 0.00623
-0.03089 -0.02459 0.00308
-0.01615 -0.02134 0.00368
-0.00200 -0.02311 0.00488
0.00985 -0.02773 0.00773
0.00347 -0.01345 0.00637
-0.00867 -0.02880 0.00756
-0.00297 -0.03099 0.00544
-0.02634 -0.02440 0.00315
-0.03895 -0.02320 0.00072
-0.04629 0.01863 0.00396
0.05261 0.00271 0.01932
0.00457 -0.00051 -0.07075
-0.05271 -0.01199 -0.01847
-0.02227 0.01065 -0.01049
-0.08590 0.01443 0.05917
-0.18243 0.05538 0.12452
0.00906 0.00250 -0.05985
0.00372 0.00326 -0.06058
-0.03617 0.00094 -0.01990
0.00333 -0.03221 0.00882
0.05929 0.05371 0.12034
-0.02050 0.00805 -0.01164
-0.01872 -0.00250 -0.05347
-0.00104 0.00004 -0.06923
0.02205 0.00532 0.00904
0.00848 0.02228 -0.00121
0.00655 0.00228 0.00877
0.00854 0.00302 -0.05359
-0.00322 0.00578 -0.04992
-0.00734 0.00099 -0.06326
0.01790 -0.00474 -0.08265
-0.01909 -0.00382 -0.05315
0.00391 0.00750 -0.04551
-0.00152 0.00038 -0.06622
-0.00383 -0.00665 -0.06532
-0.00658 0.01516 0.04442
-0.00363 0.01152 -0.02614
-0.04105 0.09953 0.24317
0.00101 0.00325 -0.05792
-0.00578 0.00380 -0.05753
0.00745 0.00331 -0.05489
0.00349 0.00000 -0.06705
0.00462 0.00251 -0.05920
0.00658 0.03579 0.07185
-0.00637 0.00089 -0.06364
0.00016 -0.00212 -0.07686
0.02167 0.02830 0.02705
0.04128 -0.01965 0.00792
-0.00060 0.01220 -0.02375
0.02037 0.00670 0.00449
0.01765 -0.00440 -0.08164
0.00686 0.00276 -0.05898
-0.05899 0.02922 0.02579
-0.01074 0.00666 -0.04869
-0.01635 0.00434 -0.05252
0.01181 0.00905 -0.03195
-0.00254 0.01082 -0.02746
0.00364 -0.00305 0.00362
0.00177 0.00202 -0.06246
-0.01604 -0.02518 0.00415
-0.00077 0.02310 0.00351
0.00158 -0.09242 0.35927
0.00071 0.00037 -0.06659
0.02681 -0.00131 -0.04479
-0.00311 0.00331 -0.05409
-0.00086 -0.00071 -0.07190
-0.00259 0.00173 -0.06843
-0.00931 0.01646 -0.01138
-0.03817 0.01405 -0.01516
-0.01107 0.01182 -0.02747
0.00642 0.01461 -0.02542
-0.01251 0.04582 0.09164
0.01793 -0.00456 -0.08216
0.04230 0.00422 0.01341
0.04786 0.02318 0.00594
0.01372 0.00884 -0.02977
0.00653 -0.02504 0.01901
0.02777 0.02579 0.02111
0.00851 0.02415 0.02718
-0.00794 0.00656 -0.05589
-0.01784 0.00701 -0.04402
0.02432 0.00803 -0.04182
0.02441 0.01144 0.00593
0.00585 0.00254 -0.05447
0.00093 0.00169 -0.06095
0.00498 0.00458 -0.04850
0.00518 0.00205 -0.05699
-0.02374 0.01736 0.00105
-0.00390 0.00208 -0.06684
-0.00083 0.00939 -0.04528
-0.00051 0.01189 -0.03815
0.00243 0.00390 -0.05540
-0.00981 -0.00041 -0.06869
0.01958 0.00967 0.00396
-0.01953 0.00302 -0.00047
0.02833 0.00693 -0.04402
0.03839 0.02426 -0.00472
-0.00286 -0.00232 -0.07592
-0.01484 0.01012 -0.04881
-0.05898 -0.02022 0.00910
-0.02583 0.01228 0.00478
0.03116 0.02292 0.01443
-0.01574 0.00844 -0.03708
-0.00419 -0.00114 -0.06950
0.00886 0.00740 -0.05083
0.00353 0.00051 -0.06952
0.01241 -0.02503 0.01533
-0.01398 0.02445 0.00616
-0.01631 -0.02320 0.00385
-0.04726 -0.01904 -0.00054
-0.01727 -0.02868 0.00437
0.00931 0.00165 -0.05696
0.01150 0.00659 -0.03708
0.00154 0.00486 -0.06301
0.00324 0.00937 -0.02988
0.00168 0.00199 -0.06246
0.00286 0.00241 -0.06555
0.00616 0.00238 -0.05635
-0.00957 -0.00178 -0.06338
0.00235 0.02368 0.01801
0.04022 0.02055 0.01314
-0.00349 0.00246 -0.06699
0.01255 -0.01989 -0.01173
-0.03698 -0.00736 -0.01690
-0.03197 -0.03114 0.03168
-0.09323 0.05094 0.11787
-0.01254 -0.02320 0.00445
-0.00078 -0.01058 -0.05646
0.01235 -0.01431 -0.03834
-0.01585 0.01888 0.01584
-0.06891 -0.02286 0.01514
0.02158 0.00087 0.00777
0.01796 0.00114 -0.01866
0.04343 -0.02100 0.00820
0.00667 0.00855 -0.04234
0.04363 -0.01429 0.01244
-0.00820 0.01380 -0.02811
-0.01477 -0.00162 -0.05533
0.00381 0.01057 -0.02204
-0.01138 0.01431 -0.00684
0.00716 0.00196 -0.05871
0.02460 0.02214 0.02288
-0.00214 -0.00101 -0.07268
-0.03360 -0.02391 0.00254
-0.00681 0.00430 -0.06225
0.00098 0.00799 -0.05050
-0.03392 -0.02335 0.00214
-0.00146 0.00647 -0.04522
0.00880 0.00547 -0.05303
-0.02581 0.00635 -0.04602
0.00066 0.00531 -0.05931
0.00106 0.02181 0.00993
0.00568 0.00226 -0.05467
-0.01112 0.01794 -0.02452
-0.02245 0.03522 0.06227
0.04110 -0.02459 0.00947
-0.01443 0.00368 -0.05154
0.02320 0.02703 0.00463
0.04197 0.01165 0.01139
0.00907 0.00762 -0.05132
-0.00565 -0.03489 0.00688
0.04734 0.00522 0.01078
-0.06085 0.04958 0.11719
-0.04348 -0.02498 0.00093
0.06001 0.03885 0.10195
-0.00055 0.00762 -0.04152
0.00248 0.02178 0.01123
0.00314 0.00312 -0.06278
0.00862 -0.00144 -0.07096
0.00472 0.01793 -0.00263
0.00940 -0.01665 -0.02673
0.00984 0.00557 -0.04550
0.03615 0.01527 -0.00259
-0.02431 0.00887 -0.00415
0.01388 -0.00178 -0.05882
0.04830 -0.01093 0.01588
0.12032 0.07103 0.22243
-0.00541 -0.01616 -0.04360
0.01072 -0.02298 -0.00538
-0.01506 0.00683 -0.04232
0.01369 0.01452 0.00428
0.02194 0.00354 -0.05379
-0.00248 0.01723 -0.00729
-0.00847 0.00766 -0.03154
-0.01552 0.02660 -0.00546
0.02831 0.00693 -0.04536
-0.00848 0.00680 -0.05627
-0.00229 -0.00182 -0.07448
0.05638 -0.02081 0.01998
0.00471 -0.00312 -0.07850
-0.04075 0.01004 -0.00314
-0.05709 0.08949 0.22792
0.01879 0.00759 -0.03626
-0.01414 0.00477 -0.04878
0.01571 0.00265 -0.05470
-0.00486 -0.03562 0.00865
0.01750 -0.00417 -0.08119
0.01833 -0.00082 -0.01697
-0.01044 0.01539 -0.03490
-0.06078 -0.01917 0.01321
-0.01905 0.03652 0.06847
-0.00252 0.00661 -0.04977
-0.00614 -0.02211 -0.01541
0.04534 0.01990 0.01137
0.00475 0.00324 -0.05959
0.00736 0.00340 -0.05516
0.02118 0.00361 -0.05442
-0.00306 0.00859 -0.04453
0.07090 -0.01068 0.01891
0.01497 0.00839 -0.03299
0.01785 -0.00408 -0.08032
0.01934 -0.00212 -0.04308
0.04167 -0.02480 0.00816
-0.02524 0.00575 -0.02946
0.00212 0.03420 0.07143
0.01326 -0.02052 -0.01145
-0.00358 0.00476 -0.06178
-0.01251 0.01598 -0.02527
0.02967 0.01422 0.01790
0.01334 -0.01508 0.00647
-0.07774 0.04368 0.08084
-0.01352 0.03776 0.02330
0.02017 0.00503 -0.00030
-0.02675 0.03379 0.05130
-0.07669 0.04080 0.07800
-0.01594 0.00012 -0.06608
0.00527 0.00287 -0.05913
0.00310 0.00150 -0.06516
0.02250 0.00992 0.00457
0.01665 0.00964 -0.03484
-0.01173 0.03663 0.03047
-0.04096 0.12647 0.26093
0.06034 -0.01877 0.01901
-0.00297 -0.04178 0.01636
0.02234 0.00798 0.01716
0.00682 -0.00178 -0.07237
-0.00032 0.02445 0.04311
0.00202 0.00193 -0.06217
0.00524 0.00680 -0.04585
0.01972 0.00522 -0.04429
-0.01694 0.00224 -0.05801
-0.05316 0.21331 0.78908
-0.04769 -0.01122 -0.00014
0.02293 0.01025 -0.02469
0.01776 0.01744 -0.00071
0.00837 0.00318 -0.05285
-0.03989 0.01460 -0.01457
0.02566 0.01310 0.02398
0.02173 -0.00297 -0.05274
0.00083 0.00608 -0.05216
0.01036 0.00332 0.03657
-0.00368 -0.03304 0.00830
0.01540 0.01752 0.00879
0.00234 0.00115 -0.05979
0.00550 0.00682 -0.04938
0.00777 0.00469 -0.05543
-0.13221 0.11491 0.37816
-0.00622 0.01386 -0.02547
-0.03726 0.01426 -0.02867
-0.00679 0.00475 -0.06164
0.02147 -0.02328 0.00516
0.04364 -0.02208 0.00684
0.00269 0.00188 -0.06696
-0.02230 0.00330 -0.00932
0.00234 0.01720 -0.00309
-0.00107 0.00861 -0.03297
-0.07596 -0.02237 0.03639
0.07412 -0.02070 0.04274
-0.02023 0.00890 -0.03432
-0.00796 0.00868 0.00069
-0.01056 0.00048 -0.06508
0.00491 -0.00400 -0.07745
-0.05878 0.00632 0.00509
-0.00690 0.01563 -0.01753
0.02211 0.00583 0.00597
0.07673 0.10090 0.33831
0.03938 -0.01669 0.00461
-0.01547 0.02037 -0.01221
-0.00220 0.00438 -0.06152
-0.05451 0.02787 0.03531
0.01876 0.02525 0.02316
0.00387 0.01124 -0.02848
0.00855 -0.00072 -0.07058
0.00355 0.00044 -0.05648
-0.04725 -0.01754 0.04149
-0.00277 0.00543 -0.05985
-0.00351 0.06634 0.13498
0.02262 0.02653 0.03931
0.02060 0.00962 0.00700
0.00033 0.00187 -0.06115
0.00879 0.00560 -0.03451
-0.00487 0.00391 -0.05255
0.02274 0.00347 -0.05304
0.01792 -0.00484 -0.08212
-0.00435 0.01036 -0.03779
-0.00443 0.00294 -0.04260
0.01492 -0.01478 -0.00955
0.03903 0.01879 0.00390
0.00347 -0.02124 0.00595
-0.05905 0.08868 0.22414
0.00008 0.02135 0.00852
0.04897 0.00635 0.03641
0.00262 0.00502 -0.05466
0.01818 -0.00479 -0.08229
0.02136 0.00412 0.02255
-0.04357 0.01244 0.10157
0.00896 0.00363 -0.05320
-0.00291 0.00891 -0.04444
0.01352 0.01614 -0.00713
0.00133 0.01098 -0.03918
0.01786 -0.00341 -0.07831
0.00698 -0.02121 0.00585
-0.00443 0.00032 -0.06748
-0.03419 0.02475 0.02036
0.02579 -0.00104 -0.04503
0.00104 0.01000 -0.04266
0.01919 0.00852 0.00335
0.00255 0.00576 -0.04703
0.01444 0.00700 -0.05523
-0.04397 -0.03680 0.08406
0.02585 0.03642 0.03326
0.03528 0.01818 0.00579
-0.01959 0.00965 -0.01062
-0.00380 0.02433 0.00056
-0.01277 -0.02137 0.00447
0.01503 -0.01345 0.00587
-0.00280 -0.02122 0.00483
0.03782 -0.01196 0.01085
0.02623 0.01331 0.00172
-0.03325 -0.02147 0.00266
0.03921 -0.01656 0.00408
0.01515 -0.02665 0.00730
0.03813 -0.01317 0.00728
-0.05637 -0.01837 0.00445
0.05278 -0.01056 0.02010
-0.04768 -0.02202 0.00428
-0.02804 -0.02605 0.00325
0.03951 0.01760 0.00120
-0.01283 -0.02542 0.00814
0.06896 0.05640 0.05678
-0.00015 0.00133 -0.06005
0.00658 0.02657 0.02410
-0.04132 0.02188 -0.00365
0.00333 0.00059 -0.06952
0.00064 0.00140 -0.06427
0.00514 -0.00014 -0.05815
0.01259 0.00460 -0.03164
-0.06502 0.02031 0.00271
-0.00307 0.00299 -0.06472
-0.00171 0.00175 -0.06520
0.00194 0.00251 -0.06258
0.02530 0.01201 0.02178
0.00525 -0.00035 -0.05836
-0.04817 -0.02653 0.00541
-0.04068 0.00577 -0.00542
-0.01114 -0.00015 -0.06931
-0.00934 0.00028 -0.06718
-0.04735 0.01809 -0.00549
-0.00905 0.03879 0.02887
-0.04816 0.02816 0.03493
-0.04209 -0.01392 0.00137
-0.01094 -0.02679 0.00482
0.01192 0.00542 -0.04297
-0.02279 0.01400 -0.00436
0.00583 -0.00351 -0.07982
-0.02191 0.00476 -0.01000
-0.02482 0.01355 -0.00634
0.01452 0.03819 0.09024
0.02169 -0.02578 0.00716
-0.01800 -0.02238 0.00191
0.01781 -0.00488 -0.08198
0.00563 0.00333 -0.05533
0.00964 -0.00971 0.00471
-0.00454 0.01807 -0.01602
0.02074 0.01560 0.00531
-0.11382 -0.02368 0.21120
-0.01404 -0.01021 0.00443
0.01054 -0.02923 0.00818
-0.01678 -0.02404 0.00813
-0.00306 0.00706 -0.03944
0.08332 0.03845 0.06833
0.01953 -0.02217 0.00563
0.01958 -0.02218 0.00615
0.01840 0.00354 -0.05399
0.03421 -0.04487 0.11541
-0.00188 0.00432 -0.05600
0.01815 -0.00460 -0.08236
0.01623 -0.02636 0.01031
0.01281 0.00010 -0.05460
-0.02104 0.01055 -0.03356
-0.00717 0.01010 -0.02740
0.00369 0.03707 0.10027
0.00312 0.00672 -0.04465
0.03119 -0.02258 0.00670
0.03868 0.02175 0.00391
0.00015 -0.02479 0.00481
-0.00348 0.01747 0.01144
0.06232 0.02471 0.03156
0.01935 0.04293 0.11871
-0.02315 -0.02288 0.00127
-0.03335 -0.02321 0.00141
0.00169 -0.02309 0.00510
-0.08494 0.08042 0.18901
0.04291 -0.01834 0.01060
0.02991 -0.02051 -0.00376
0.01744 -0.00425 -0.08133
0.00474 -0.02089 0.00413
0.02034 0.01422 0.00153
0.01274 0.03612 0.07363
-0.01839 -0.02457 0.00317
-0.07628 0.02739 0.03270
0.01218 0.00856 -0.03868
-0.00978 0.01925 -0.00377
0.01260 -0.01500 0.00502
-0.00855 -0.02308 0.00392
0.00069 -0.02117 0.00483
0.00082 0.01850 -0.02404
0.02324 -0.02378 0.00428
0.00409 -0.02350 0.00539
0.01257 0.00793 -0.04151
0.03314 0.03965 0.03145
-0.00648 -0.02898 0.00407
0.00959 0.00795 -0.04331
-0.05736 -0.03225 0.04338
0.01340 0.00894 -0.03179
0.01477 -0.02133 -0.00409
-0.00148 -0.02091 0.00350
-0.00018 0.02253 0.02870
0.00688 0.00897 0.01129
-0.03419 -0.01493 -0.00121
0.00794 -0.02472 0.00488
0.00216 -0.02080 0.00366
-0.01108 0.00149 -0.04869
-0.00226 -0.00180 -0.07386
0.00710 0.00322 -0.05439
0.01163 0.00013 -0.06722
0.02196 0.03468 0.03287
-0.01260 0.01147 -0.02509
-0.02409 0.00841 -0.03085
0.00675 -0.02093 0.00430
-0.03864 -0.00178 -0.01041
0.03087 -0.02461 0.00086
-0.01496 -0.02864 0.00325
-0.00499 0.01141 -0.02246
-0.01048 -0.01603 0.00404
0.01159 -0.02054 0.00303
-0.01411 0.01497 -0.01194
-0.00453 -0.00421 -0.08316
0.01119 0.00620 -0.04439
0.07881 0.04493 0.08723
-0.03720 0.01246 -0.01889
-0.00051 0.01127 -0.02348
-0.03589 0.01424 -0.01487
-0.00983 -0.02171 0.00627
0.02083 0.01382 0.00129
0.01775 -0.00373 -0.08015
-0.01374 -0.02139 -0.00717
0.01789 -0.00461 -0.08246
-0.00044 0.00941 -0.03348
0.00633 -0.00331 -0.07961
-0.01346 -0.02363 0.00326
0.05371 0.03710 0.07528
0.01701 0.01200 -0.00329
0.00417 0.01030 -0.02890
0.04067 -0.02133 0.01140
0.02226 -0.02550 0.01500
-0.01971 -0.02055 -0.00093
0.00626 0.00128 -0.04693
0.05420 0.03624 0.05407
-0.05582 0.02234 0.01219
0.04318 0.02557 0.01852
0.02453 0.01970 -0.00174
0.02549 0.00060 -0.02817
0.00399 -0.03258 0.00315
0.02352 0.01435 0.00431
-0.00106 -0.00122 -0.07342
0.01798 -0.00440 -0.08173
-0.00191 -0.03344 0.01609
0.01824 -0.00461 -0.08215
-0.01238 0.00107 -0.06562
0.02932 -0.02214 0.01386
0.02363 -0.01820 -0.00848
-0.00606 -0.03507 0.00890
0.00715 0.01076 -0.03129
-0.00259 0.00668 -0.04498
0.00509 0.00665 -0.04454
0.00337 0.00188 -0.05606
-0.01440 -0.02384 0.00223
-0.02254 0.01818 -0.00144
0.08937 0.04437 0.10005
0.07026 -0.01285 0.04838
-0.02180 0.01108 -0.00428
-0.00857 0.00605 -0.00309
-0.01041 -0.01716 0.00514
0.03254 -0.02077 0.00718
0.01625 0.01483 -0.00906
0.03957 -0.01842 0.00583
-0.02835 -0.01530 0.00182
0.03563 -0.02009 0.00465
0.08347 0.11024 0.28191
0.02465 -0.00263 -0.01009
0.07536 0.03381 0.06783
0.00128 0.02234 0.01571
-0.00548 0.01493 -0.00791
0.03181 0.00877 -0.03063
0.01341 0.00656 -0.04035
-0.08676 0.27298 1.00000
0.00568 -0.00411 -0.08183
0.10712 0.05092 0.23088
0.03618 -0.02659 0.01081
0.02533 -0.01499 0.00690
-0.01043 -0.01953 -0.01565
-0.00360 -0.03546 0.00650
-0.00497 -0.02769 0.00613
-0.00940 0.00293 -0.06024
-0.00587 0.00969 0.00810
0.01904 0.01094 -0.02395
0.03652 0.05014 0.12481
0.03783 0.01443 -0.01876
0.00246 0.00120 -0.02546
0.04168 -0.02551 0.00909
0.06914 0.04715 0.40807
-0.00636 -0.00040 -0.06961
0.05398 0.02819 0.02258
-0.02378 -0.01701 -0.01944
-0.00482 -0.03619 0.01629
-0.00482 -0.03619 0.01629
0.03290 -0.02210 0.01532
0.03323 0.01615 0.04974
0.00365 -0.00151 -0.07103
0.01563 0.01448 -0.00810
0.01731 -0.00398 -0.08074
-0.04100 0.00087 -0.00077
-0.06193 0.01477 -0.01998
0.02892 -0.02067 0.00617
-0.00563 -0.00450 -0.08443
0.00347 0.01759 -0.00304
-0.27382 0.02504 0.40419
-0.00027 -0.00075 -0.06825
-0.03560 0.02468 0.02824
-0.01498 0.01215 0.01082
-0.00165 -0.03807 0.01405
0.00892 0.00184 -0.06219
-0.00435 0.01754 -0.00026
0.01534 0.01962 0.00365
0.02297 0.01354 0.00436
0.00941 -0.02054 0.00633
-0.00524 -0.02305 0.00145
0.07241 0.10796 0.34095
-0.01083 0.00068 -0.04961
0.00228 -0.02380 0.02407
0.00810 0.02522 0.04693
-0.00936 0.00059 -0.06475
-0.00619 0.00546 0.01486
0.03689 -0.01478 -0.00765
0.03689 -0.01478 -0.00765
-0.01229 0.00091 0.01141
0.02086 -0.01909 -0.00100
0.01434 -0.02860 0.00896
-0.00082 -0.00079 -0.07327
0.07056 -0.01903 0.04836
-0.01975 0.00324 -0.03934
-0.00920 -0.02167 -0.01773
0.00188 -0.01488 0.00175
-0.03610 0.06918 0.20543
-0.05912 0.02360 0.02137
0.00169 0.00202 -0.06381
0.02983 -0.02364 0.00647
-0.00282 -0.02331 0.00362
0.00008 -0.03606 0.01079
0.04099 0.00248 0.01687
-0.01760 -0.01366 0.00324
0.00603 -0.01353 0.00692
0.00412 -0.02370 0.00590
0.03488 -0.02088 0.00810
-0.01115 -0.02120 0.00351
-0.00874 -0.02713 0.00540
0.02171 -0.02415 0.00734
0.02942 -0.02056 0.00588
-0.04537 -0.01624 0.00180
-0.00026 -0.02955 0.00530
-0.02029 -0.02128 0.00312
0.01702 -0.02145 0.00871
-0.02178 0.00807 -0.03621
-0.02576 -0.01035 0.00247
-0.00031 0.01216 -0.02335
-0.00821 0.01293 -0.02593
0.00259 0.00770 -0.05036
-0.00429 0.00249 -0.05913
-0.01876 0.00379 -0.02185
0.01805 -0.00452 -0.08228
-0.02358 0.00927 -0.00286
-0.00414 0.02246 -0.00131
-0.00240 0.01183 -0.02679
-0.00133 0.01476 -0.02103
-0.00475 -0.00053 -0.07020
0.00123 0.00355 -0.05572
-0.00430 0.00474 -0.05349
-0.00772 0.00713 -0.04594
-0.00449 0.01138 -0.01844
-0.00345 0.01582 0.00013
0.00315 0.01410 -0.01668
0.00839 0.00285 -0.06018
0.00181 0.00155 -0.06465
0.01928 0.01763 -0.00951
-0.04360 -0.02139 -0.00645
-0.01920 -0.02518 0.00373
-0.00314 -0.00256 -0.07714
-0.02401 0.00700 -0.01156
-0.00106 0.01003 -0.02217
0.00514 0.01735 0.00199
0.04524 -0.02219 0.01657
0.00609 0.01169 -0.02666
-0.00391 0.00556 -0.04334
0.00596 0.01724 -0.01978
-0.00554 0.00491 -0.05798
-0.00181 0.00423 -0.04619
-0.02483 0.01274 -0.02007
0.00353 0.01571 -0.00403
-0.00039 0.00219 -0.06803
0.03335 0.03085 0.01830
-0.00203 0.00009 -0.06848
-0.01561 -0.02501 0.00454
-0.01489 0.03148 0.04296
0.00274 0.00370 -0.05569
0.00291 0.01498 -0.01578
-0.04524 -0.02133 -0.00133
0.00332 0.01899 0.00903
-0.08914 -0.02583 0.02256
-0.02793 -0.01476 -0.04177
0.02372 -0.00658 -0.04877
0.01078 0.00827 -0.03777
0.00700 -0.00369 -0.07018
-0.02589 0.01310 -0.00431
0.00173 0.00301 -0.06553
0.01710 0.04455 0.10076
0.01347 0.01456 -0.02323
-0.00546 0.01165 -0.02111
-0.01121 0.03921 0.07922
0.06869 -0.01409 0.02404
-0.01099 0.04653 0.11541
0.02771 0.01480 -0.00699
0.00055 0.00301 -0.06693
-0.00869 0.00902 -0.03598
0.07225 0.02127 0.01749
0.00844 0.00801 -0.04130
-0.00184 -0.00988 0.00328
0.00866 0.00742 -0.03977
0.02555 0.02468 0.02246
-0.01361 0.00323 -0.05620
-0.00425 -0.02090 -0.00729
-0.00158 0.00460 -0.05620
0.04013 0.02463 0.03258
-0.00738 0.00087 -0.06994
-0.01434 0.02287 -0.00499
0.00073 0.01479 -0.02952
-0.00168 0.01265 -0.03638
0.00486 0.01403 -0.03155
-0.00898 -0.00162 -0.07454
-0.01808 -0.02431 0.00345
0.03712 0.01275 -0.02422
-0.01687 0.01371 0.02005
0.00706 0.01213 -0.02451
0.00324 0.00703 -0.04398
0.00158 -0.00551 -0.07794
0.04955 0.01709 -0.00634
0.00406 0.00719 -0.04869
0.00091 0.00244 -0.05767
-0.03417 -0.02455 -0.00177
0.01576 0.00727 -0.04453
0.01180 -0.00192 -0.07417
0.01080 0.00243 -0.05553
-0.05375 -0.02076 -0.00821
-0.00125 0.00181 -0.06606
0.00420 0.00753 -0.04878
0.00241 0.00600 -0.04672
0.00692 -0.00334 -0.07022
0.00581 0.01710 0.00180
-0.00619 -0.00564 -0.08105
-0.00064 0.01537 0.00080
0.01802 0.00673 -0.04056
0.00453 0.01549 -0.02226
-0.01188 -0.00129 -0.06220
-0.00905 0.00170 -0.06079
-0.01168 0.00398 -0.05698
-0.00624 0.00607 -0.04291
-0.00998 0.00680 -0.04546
0.06903 -0.01882 0.01176
0.00726 -0.02229 0.00173
0.02181 0.02296 0.02438
-0.03063 -0.02616 -0.02637
-0.00497 -0.00119 -0.07089
-0.00286 -0.03275 0.01318
0.01074 0.00785 -0.04049
0.01175 0.02626 0.01199
0.00498 0.00385 -0.05689
-0.00623 0.00519 -0.04968
0.06160 0.02620 0.04323
-0.00252 0.00800 -0.03851
-0.01379 -0.05793 0.09849
0.01287 -0.00200 -0.07575
-0.00051 -0.00257 -0.07274
0.00197 0.00697 -0.04205
0.01064 0.00269 -0.04710
-0.01554 0.00230 -0.04518
0.02557 0.00955 -0.02583
0.01447 0.00131 -0.06376
0.03568 0.00059 0.00284
0.01266 -0.01430 0.00828
-0.01145 0.01540 -0.01951
-0.00375 0.00129 -0.06617
-0.00252 0.00578 -0.04669
0.00469 0.02036 0.00887
-0.01835 -0.02291 0.00219
0.00691 -0.00304 -0.07025
-0.05432 -0.00696 -0.00962
0.00656 0.00951 -0.04174
0.00161 0.00113 -0.06697
-0.00916 -0.00016 -0.06699
-0.01580 0.01511 -0.01295
0.02256 -0.02262 0.00532
0.02399 -0.01924 -0.01105
0.01538 0.00207 -0.05875
-0.02516 0.00862 -0.03598
-0.01009 0.00288 -0.05714
0.00442 0.02106 -0.00614
-0.00019 0.01993 0.00522
-0.00339 0.00489 -0.04989
0.04723 -0.01015 0.01211
-0.01940 0.03404 0.04934
-0.06933 -0.00935 0.01739
0.01385 0.00459 -0.04667
0.00983 0.00155 -0.06431
0.04079 -0.00018 -0.02924
-0.07948 -0.02093 0.00960
-0.00613 0.01030 -0.03783
-0.03630 -0.00999 -0.00195
-0.07041 0.02272 -0.01216
-0.01137 -0.00110 -0.06317
0.00275 0.00763 -0.04293
0.05506 0.02226 0.01960
0.02698 0.02085 -0.00577
0.00685 0.00471 -0.05641
0.02953 0.00143 -0.03456
-0.00181 0.01756 0.00562
0.01636 0.00388 -0.05061
0.05194 0.01280 -0.01317
-0.00206 0.00759 -0.04805
0.01324 0.00205 -0.05889
-0.04401 -0.01371 0.00020
-0.00055 -0.02351 0.00459
-0.00781 0.01878 0.00173
-0.00959 0.00915 -0.03157
0.07580 0.03414 0.07023
-0.01235 0.01586 -0.01469
-0.02037 0.00549 -0.02505
-0.00427 0.01556 -0.02642
-0.00249 -0.01966 -0.00413
-0.03504 -0.05995 0.22886
0.00728 -0.00143 -0.07069
-0.00173 -0.03168 0.00795
-0.00624 -0.00458 -0.08424
-0.01678 0.00075 -0.04507
-0.02026 0.00933 -0.03125
0.02542 0.01112 -0.02094
-0.00377 -0.00367 -0.08098
0.06156 0.02054 0.01780
-0.00563 -0.02118 0.00411
-0.04541 -0.01301 0.00011
-0.04133 -0.01040 -0.01603
0.04471 0.01777 0.00988
0.00464 0.00001 -0.06626
-0.00258 -0.00422 -0.08261
0.02498 0.03455 0.07955
-0.03468 0.01195 0.01971
0.00787 0.00992 -0.02604
0.01054 0.00400 -0.05859
-0.01125 -0.02832 0.00635
0.01836 -0.00443 -0.08061
0.02474 0.00692 -0.04515
0.04063 0.00888 -0.03082
-0.00388 0.00048 -0.06637
0.04373 0.02147 0.02345
0.00775 -0.00285 -0.07039
0.00422 0.00440 -0.05129
-0.01250 0.00667 -0.05251
0.01597 -0.00301 -0.07787
-0.08308 -0.02661 0.03941
0.00644 0.01394 -0.03287
-0.01079 -0.00113 -0.07259
-0.00175 0.01135 -0.02407
-0.01709 0.00556 -0.02954
0.00818 -0.01197 -0.02336
0.01697 0.04238 0.07799
0.05638 -0.00934 0.21315
0.00102 -0.00414 -0.07292
0.07195 0.02186 0.01800
-0.14932 0.07324 0.13739
0.02929 0.02316 -0.01019
0.01370 -0.02167 0.00953
-0.00105 0.02612 0.00889
0.00243 -0.01712 -0.03976
-0.06209 -0.01202 0.00620
-0.00700 0.00155 -0.06070
0.00951 0.00599 -0.04767
-0.00697 -0.00537 -0.08230
0.00106 -0.01275 -0.04158
0.00591 -0.01722 -0.01574
-0.02623 0.01999 0.00154
-0.00644 -0.00276 -0.07852
-0.01221 0.02190 0.02326
0.05246 0.01758 0.01807
0.03080 0.00261 0.00702
0.00504 0.02465 0.02671
0.03575 -0.01088 -0.02685
-0.01100 0.00842 -0.04559
0.00430 -0.00018 -0.06658
-0.01543 0.00116 -0.04498
0.00267 0.00253 -0.05712
-0.00173 0.00035 -0.07441
0.00848 -0.02132 0.00682
-0.01368 0.00151 -0.04475
0.00878 0.00694 -0.04999
0.06308 -0.01048 0.02060
0.01855 0.00487 -0.05135
0.02247 0.00568 -0.04266
0.05816 -0.02004 0.00738
0.00669 0.00599 -0.05738
-0.00430 -0.02743 0.00607
0.03841 0.01749 0.00520
0.01298 -0.02655 0.00730
0.05455 0.02108 0.01744
-0.01854 -0.02671 0.00388
0.02662 -0.02331 0.00660
-0.00905 -0.02122 0.00396
-0.00643 -0.02075 0.00201
0.05457 0.02020 0.01785
0.00139 -0.02126 0.00575
-0.01925 -0.01414 0.00294
-0.00266 -0.00269 -0.08016
0.00534 -0.00024 -0.07220
0.00978 -0.02116 0.00615
0.04290 -0.00948 0.01024
0.02820 0.00453 0.00360
-0.00145 -0.02125 0.00538
-0.05083 -0.02034 0.00579
0.01823 -0.00414 -0.08102
-0.01589 0.00175 -0.04575
-0.03773 -0.02979 0.02604
-0.00389 0.00225 -0.06490
0.00035 0.00027 -0.06731
-0.01126 0.00503 -0.05681
0.00287 0.00511 -0.05597
0.01745 -0.00385 -0.08021
0.00365 0.00248 -0.06423
0.00705 0.01290 -0.03302
0.00716 -0.00315 -0.07025
0.03344 0.01820 0.05449
-0.00208 -0.00039 -0.07506
-0.00190 -0.00017 -0.07213
-0.00378 0.01031 -0.04047
0.00124 -0.00188 -0.07885
0.02625 -0.02270 0.00663
0.01839 -0.02322 0.00606
0.01885 -0.01418 0.00625
-0.04262 -0.01735 0.00014
0.03802 -0.01206 0.01142
-0.00053 -0.02499 0.00476
0.00452 -0.01625 0.00445
0.00704 -0.02845 0.00732
-0.00617 0.00501 0.01202
-0.01468 -0.02123 0.00348
0.05334 -0.01166 0.02031
-0.00016 -0.00028 -0.06859
0.00530 -0.00384 -0.08152
0.00020 0.00074 -0.06633
-0.01384 -0.00244 -0.05737
-0.01059 0.00173 -0.06691
-0.09317 -0.03418 0.06228
-0.02271 0.01082 -0.02505
-0.01292 -0.00397 -0.06042
-0.01872 0.01030 -0.04578
-0.02663 0.11078 0.30309
0.01462 0.01457 -0.00819
-0.20349 0.20335 0.48226
-0.19406 0.01362 0.59573
-0.01316 0.00335 -0.06734
-0.08924 -0.02590 0.02469
-0.00422 -0.02733 0.00723
0.00468 -0.00044 -0.07031
0.00372 -0.00323 0.00411
-0.01264 -0.02229 0.00182
-0.09648 -0.02816 0.03493
-0.00647 0.00717 -0.05097
-0.00401 0.00944 -0.03364
-0.02258 -0.00290 -0.02605
-0.02023 0.00422 -0.01708
-0.02875 0.00811 -0.05537
-0.00256 0.00512 -0.05747
0.00008 -0.00948 -0.06257
-0.02415 0.01117 -0.00271
-0.01672 0.00736 -0.05363
-0.08403 -0.02960 0.00166
-0.00022 -0.00235 -0.07597
0.00052 0.00580 -0.04342
0.01931 0.02196 0.00544
0.01342 -0.00273 -0.07649
-0.08620 -0.02872 0.01140
0.00398 0.00114 0.00090
0.01362 0.00600 0.06949
-0.00365 0.00028 -0.06820
-0.09411 -0.02700 0.02906
-0.01376 -0.00208 -0.06122
-0.01070 -0.00241 -0.06248
0.01687 0.00603 -0.04211
-0.01163 0.02908 0.02557
-0.03084 -0.02596 0.01112
-0.01199 0.00593 -0.04695
-0.03029 -0.03200 0.04560
-0.01430 -0.01754 -0.03034
0.00094 0.01000 -0.03361
-0.08609 -0.02514 0.02936
-0.01360 -0.00402 -0.05726
-0.00839 -0.01114 -0.05598
-0.01078 0.00513 -0.05844
-0.00967 0.00043 -0.06984
-0.10421 -0.02875 0.04858
0.01972 0.03713 0.07530
0.00318 0.00452 -0.05041
-0.00410 0.02314 0.01783
-0.04880 -0.02599 0.00426
-0.00071 0.00775 -0.04395
0.00411 0.00019 0.00124
-0.00379 -0.00218 -0.06717
-0.01095 0.00087 -0.07041
0.01779 -0.00440 -0.08172
0.07600 0.07503 0.21059
-0.03051 0.03202 0.02351
0.00437 0.00481 0.00058
-0.08556 0.10950 0.25395
-0.06690 -0.02129 0.01563
-0.00490 -0.03222 0.00038
-0.02238 0.00543 -0.00515
-0.00768 0.00218 -0.00027
-0.01033 -0.02139 -0.01879
-0.01480 0.03859 0.08162
-0.00004 -0.00194 -0.07491
-0.17444 0.15641 0.63626
-0.00956 -0.03160 0.00151
-0.00147 0.00039 -0.06784
0.00955 -0.02629 0.00913
-0.00071 0.00369 -0.04243
0.00751 -0.01526 -0.02634
-0.01486 -0.00174 -0.05713
-0.04659 -0.02346 0.00237
0.03026 -0.06085 0.22637
0.01015 0.02627 0.02266
-0.01230 -0.01163 -0.04894
0.00808 0.01969 0.00822
0.02301 0.00418 -0.05035
-0.00905 -0.03071 -0.00127
0.01732 -0.00261 -0.07606
-0.00674 0.00329 -0.03970
0.02678 -0.02115 0.00870
-0.03069 0.02102 0.00566
-0.00713 -0.02138 0.00541
0.00658 -0.02451 0.00614
-0.01759 -0.01081 -0.02724
-0.00662 -0.01291 -0.05543
-0.00915 -0.00262 -0.06070
0.00559 -0.02042 -0.00768
-0.01736 -0.02269 0.00107
-0.02664 0.00192 -0.01909
0.03313 0.01589 -0.00048
-0.01425 0.00392 -0.05819
-0.03416 -0.02452 0.00303
0.03146 -0.01381 0.00867
-0.01878 -0.01439 -0.03450
-0.02011 0.01028 -0.04753
-0.03266 0.02125 0.01528
-0.01726 -0.01514 -0.03022
-0.01663 -0.02156 0.00428
-0.01859 -0.02394 0.00436
-0.00753 -0.00988 -0.04185
-0.17896 0.10841 0.29488
-0.00661 0.00691 -0.02389
-0.00522 -0.02539 0.00578
-0.01171 -0.03313 0.00706
0.01097 -0.01272 0.06668
-0.07442 0.03978 0.06263
-0.00829 -0.00216 -0.06041
-0.00686 0.00374 -0.03878
0.00862 0.00157 -0.02631
0.00723 -0.02397 0.00735
-0.02957 -0.02146 0.00269
-0.00681 -0.01621 -0.00103
-0.00048 0.00948 -0.04542
-0.00590 -0.02127 0.00405
-0.00590 -0.02127 0.00405
-0.02106 0.00414 -0.00785
0.00156 0.02268 -0.00345
-0.00846 -0.01064 -0.05422
0.01664 0.02575 0.01460
-0.02503 -0.01793 -0.00565
-0.01959 0.00652 -0.00539
0.02374 0.00804 -0.03180
-0.01552 0.05742 0.18690
-0.00600 -0.00138 -0.03654
-0.00626 -0.01591 0.01010
-0.01262 -0.00421 -0.06095
-0.01579 -0.00164 -0.05538
-0.00585 -0.00882 -0.06981
-0.01052 0.02462 0.02934
-0.01063 0.00996 -0.03123
-0.01046 -0.01014 -0.05728
-0.01063 -0.00989 -0.05733
-0.22604 0.22536 0.89317
0.07689 0.03830 0.45991
-0.04169 -0.01052 -0.00287
0.00738 -0.02139 0.00630
0.00086 -0.02226 0.01022
-0.00707 0.03215 0.01978
-0.01893 0.00643 -0.04505
-0.02003 -0.02150 0.00355
0.00771 0.00216 -0.06122
-0.11731 0.06381 0.15923
-0.00848 -0.00943 -0.06088
-0.00249 -0.02144 0.00548
0.00004 0.00296 -0.03158
-0.04473 -0.02883 0.01304
0.01830 -0.00438 -0.08157
-0.01083 0.00416 -0.05432
-0.05790 0.00532 0.02417
0.01114 -0.02351 0.00622
-0.01841 -0.01497 -0.03200
0.02503 -0.02350 0.02650
-0.06487 -0.02056 0.00668
-0.03521 0.00173 -0.02114
-0.01395 -0.00173 -0.06106
-0.06383 -0.01831 0.01759
-0.04210 0.01775 -0.03560
-0.12214 0.16990 0.33374
-0.00712 0.00498 -0.04004
-0.01448 0.00061 -0.04534
0.00821 -0.02526 0.09410
-0.04873 -0.01558 -0.02561
-0.01410 0.03088 0.01909
-0.01427 -0.01329 -0.04064
-0.01377 -0.01276 -0.04344
-0.00427 -0.02067 0.07567
-0.03622 0.02462 0.00946
0.00843 0.00942 -0.02722
-0.01379 -0.00239 -0.06116
-0.02767 -0.02154 0.00263
-0.00032 0.00141 -0.02671
-0.01047 0.00002 -0.07052
0.01732 -0.00442 -0.08185
-0.01214 -0.00183 -0.05796
-0.01025 -0.02146 0.00473
0.00952 -0.02920 0.00817
-0.02823 0.00204 -0.01769
-0.04373 -0.02154 0.00120
-0.01007 -0.02790 0.00565
-0.00011 -0.02141 0.00602
0.00516 -0.02426 0.00631
-0.01115 -0.02989 0.00618
-0.01655 -0.01065 -0.02659
-0.02503 -0.02132 0.00250
-0.00158 -0.02544 0.00684
-0.09042 -0.02698 0.02093
-0.02155 -0.02156 0.00453
0.00671 -0.02943 0.00806
-0.00497 -0.02128 0.00499
-0.00359 -0.02914 0.00742
-0.01411 -0.00302 -0.05651
-0.02078 -0.02833 0.01654
0.00726 0.00342 -0.05490
0.01906 -0.00417 -0.07740
0.00346 0.00680 -0.05013
0.01276 0.00367 -0.06044
-0.00001 0.00239 -0.03793
-0.01271 -0.00324 -0.06102
-0.00699 0.00342 -0.03993
-0.03522 0.10295 0.34180
0.00382 0.00509 -0.00017
-0.00793 0.00765 -0.05136
-0.00825 0.01237 -0.00164
-0.00242 0.00616 -0.05490
-0.09562 -0.02418 0.01075
0.00983 0.02691 0.03861
-0.01461 0.01547 -0.01366
0.02858 0.03484 0.08130
-0.00056 0.01031 -0.04092
-0.02687 0.04170 0.06213
-0.00287 0.02422 0.01308
0.01267 0.01799 0.00497
0.00319 0.02076 0.00357
0.01379 0.02469 0.00994
-0.00846 0.00184 -0.06004
-0.02126 0.06525 0.14174
-0.01696 0.01411 -0.01876
-0.02520 -0.02677 0.00689
0.00439 0.00611 -0.04791
0.01403 0.02350 0.00834
-0.00220 0.00271 -0.06230
-0.01539 0.01434 -0.01750
0.00982 0.01436 -0.01679
0.00307 0.00367 0.00143
0.00316 0.00945 -0.03701
0.00454 0.00659 -0.04349
0.00394 0.00564 -0.04765
0.01068 -0.00288 -0.07668
0.01816 -0.00387 -0.07946
0.00174 0.00762 -0.04246
0.01067 0.00173 -0.06112
-0.01681 0.04271 0.07280
0.00810 0.01850 -0.00122
0.01202 0.01057 -0.02775
0.00214 0.01718 0.00958
0.01295 -0.00088 -0.06908
-0.00045 0.00729 -0.03994
0.00226 0.01089 -0.03435
-0.00322 0.00611 -0.05140
0.03139 -0.02412 0.00733
0.00933 0.02123 0.00590
-0.00519 0.00762 -0.00730
-0.02411 0.06725 0.16076
-0.02411 0.06725 0.16076
-0.00300 -0.00930 -0.06524
0.01798 -0.02174 0.00331
0.00052 0.02134 0.00687
0.01478 -0.02216 0.00457
0.00492 0.00938 -0.03119
-0.01772 -0.02900 0.00384
0.00183 0.01578 0.00144
0.01549 -0.00670 0.00311
-0.00642 -0.02997 0.00885
-0.01313 0.01222 -0.02659
0.02441 -0.02152 0.00303
-0.00919 -0.02235 0.00296
0.01975 -0.02550 0.01499
-0.01371 -0.02484 0.00693
-0.00325 0.01492 -0.01461
0.00648 0.00750 0.00131
0.00453 0.00228 -0.00011
0.00784 0.01150 -0.02477
-0.00699 0.00740 -0.00883
0.00429 0.00989 0.00188
0.00385 -0.00621 0.00434
0.01603 -0.00752 0.00533
0.00474 0.00116 0.00409
-0.00237 -0.00147 -0.07349
0.02764 -0.02622 0.00657
-0.00179 -0.03136 0.00691
0.01533 -0.00609 0.00189
-0.00738 0.00119 -0.00456
0.00448 -0.02409 0.00577
0.00398 0.00005 0.00067
0.00398 0.00005 0.00067
-0.02269 -0.02879 0.00306
-0.00838 -0.02422 -0.00012
-0.02413 -0.02229 0.00046
-0.02415 -0.02314 0.00027
-0.00160 -0.07706 0.05570
0.01963 0.00712 -0.01169
0.01540 0.02339 0.05839
-0.00338 -0.00694 -0.07171
0.01612 -0.00839 0.00810
-0.00691 0.00823 -0.00942
0.00347 -0.00757 0.00176
0.00750 0.00989 -0.02636
0.01893 -0.02379 0.00644
-0.00722 -0.00414 -0.00126
-0.01261 -0.02692 0.00463
0.00449 -0.00027 0.00753
0.01464 0.02685 0.02407
-0.00626 0.00096 -0.00436
-0.00684 0.00115 0.00043
0.00515 -0.01589 0.00520
-0.00812 -0.02551 0.00414
0.00669 -0.03165 0.00845
0.01527 -0.00688 0.00320
0.01676 -0.00742 0.00536
-0.00052 -0.00954 -0.06712
0.00802 0.02176 0.08547
-0.00933 -0.01373 0.00326
-0.01290 0.01338 -0.01488
-0.00819 0.01059 -0.00121
-0.00795 -0.00957 0.00156
-0.01788 -0.02880 0.00421
-0.00909 0.01383 0.01106
-0.00075 0.00263 -0.06164
0.00755 -0.02884 0.00810
0.01960 -0.02341 0.00605
-0.00573 -0.02456 0.00525
-0.01865 -0.02759 0.00384
0.01819 -0.02463 0.00639
0.00120 0.00732 -0.03832
0.00060 0.02104 0.00400
0.02504 -0.02700 0.00696
0.00635 -0.03187 0.00772
0.01320 0.01479 -0.00757
0.00473 0.00526 -0.00282
0.00483 0.00088 -0.00001
0.00457 -0.00751 -0.03906
0.00498 0.01531 0.01228
0.00406 -0.00864 0.00217
-0.03124 0.00867 0.01994
-0.00732 0.00108 0.00026
0.00387 -0.00852 0.00246
0.01235 0.02117 0.01000
0.00451 -0.00988 0.00289
0.00451 -0.00988 0.00289
-0.00745 -0.02671 0.00496
-0.00245 0.01452 -0.00855
-0.00649 0.00429 -0.00674
-0.01343 -0.02973 0.00310
0.01361 0.02871 0.02267
-0.00501 -0.00267 -0.07763
0.02152 0.01023 -0.00400
0.03319 -0.02338 0.01120
-0.00651 -0.00346 -0.00145
-0.01854 0.01169 -0.00911
-0.01760 0.00084 0.00018
0.00521 0.01823 -0.00613
-0.00771 0.00078 0.00196
-0.01564 -0.02409 0.00495
-0.00687 0.00865 -0.00991
-0.00724 -0.02493 0.00416
-0.00664 0.00158 -0.00496
-0.00723 0.00811 -0.00032
-0.02001 0.00142 -0.00347
0.00389 0.00470 -0.00058
0.00751 0.01997 0.03927
-0.00820 0.00223 0.00006
0.00548 0.00202 0.00430
0.01564 0.00181 -0.06096
0.00610 0.00407 0.00348
-0.01817 0.00087 -0.00374
0.01683 -0.02222 0.00625
0.00260 -0.01369 0.00425
0.00401 0.00102 0.00436
-0.01017 -0.02607 0.00396
-0.01712 -0.02468 0.00439
-0.00729 -0.02741 0.00538
-0.02501 -0.01475 0.00045
0.02180 -0.02671 0.00629
0.00667 -0.02571 0.00619
0.00143 0.00453 -0.05323
0.01605 -0.02670 0.00688
0.00893 0.02378 0.02474
-0.00547 -0.02719 0.00590
-0.00383 -0.02242 0.00367
-0.00522 -0.02942 0.00588
-0.01814 -0.02559 0.00453
-0.01830 -0.02560 0.00432
-0.00079 -0.02961 0.00724
-0.00251 0.00350 -0.05831
0.02768 0.05728 0.11297
-0.03058 0.04854 0.09215
-0.02454 0.01095 -0.00451
0.01043 0.01392 -0.01200
0.00202 0.01051 -0.03793
0.01075 0.04265 0.07284
0.00385 -0.00621 0.00434
0.00478 0.00178 0.00538
0.03329 0.03019 0.05720
-0.02938 -0.02758 0.00252
0.01466 -0.02581 0.00735
0.02361 -0.02333 0.00754
-0.00502 -0.02181 0.00786
-0.01452 -0.02618 0.00410
-0.00079 -0.02586 0.00617
-0.02644 -0.02515 0.00361
-0.01949 -0.02652 0.00429
-0.00780 -0.02793 0.00565
0.03951 -0.03214 0.06599
0.00269 -0.03002 0.00665
-0.00739 0.00792 -0.04842
-0.00739 0.00792 -0.04842
0.00664 0.00367 -0.06625
-0.02630 0.03246 -0.00186
0.01907 0.00663 -0.04526
0.00319 0.00141 -0.06390
-0.00710 0.00687 -0.04923
0.00235 0.00151 -0.06460
-0.03164 0.01813 -0.01518
-0.00656 0.00636 -0.04717
0.00962 0.00077 -0.06624
-0.05024 0.03678 0.07490
0.00168 0.00863 -0.05523
-0.00508 0.00929 -0.04705
-0.01276 0.00005 -0.04918
-0.00819 0.00655 -0.04831
-0.02781 -0.02637 0.00294
-0.01043 0.01111 -0.02336
-0.00791 0.00888 -0.03302
0.00140 -0.00062 -0.07091
-0.01067 0.01315 -0.01412
-0.07974 -0.02734 0.00033
0.00188 0.00010 -0.06646
0.00605 0.00666 -0.04199
-0.00581 -0.00344 -0.08006
-0.02513 0.01157 0.00063
0.00078 0.00166 -0.06283
0.00175 0.00503 -0.05064
0.00381 0.00347 -0.05439
0.00259 0.00586 -0.04966
-0.01719 0.01793 -0.00112
0.03660 0.02229 0.02043
-0.04489 0.01738 -0.01961
0.00289 0.00072 -0.07243
-0.03305 0.05929 0.13070
-0.00723 0.00576 -0.05006
-0.00111 0.00581 -0.05053
0.02162 -0.01850 0.01158
-0.01497 0.00708 -0.05180
0.01249 0.00838 -0.03772
-0.03417 0.01709 -0.02107
-0.00201 0.00372 -0.05813
0.01162 0.00608 -0.04268
-0.01106 0.01348 -0.01583
-0.00260 0.00432 -0.05631
-0.09990 -0.02573 0.03002
0.00442 -0.02991 0.00720
-0.00909 0.01208 -0.05038
0.02715 0.03098 0.05266
-0.00701 0.00735 -0.05215
-0.00950 0.01299 -0.02495
-0.05047 -0.01829 -0.00325
-0.00037 0.01878 0.01150
0.01720 0.00632 -0.05407
-0.03859 0.01712 -0.00754
-0.00685 -0.00011 -0.06661
0.05117 0.03250 0.05487
0.00316 0.02842 0.03609
0.05117 0.03250 0.05487
-0.01199 -0.00360 -0.06224
-0.04010 0.01594 -0.00914
-0.02685 0.02387 0.00212
0.00144 0.01018 -0.02136
-0.00436 -0.02891 0.00694
0.00410 -0.02283 0.00398
0.00095 0.02553 0.01754
-0.00365 0.03429 0.04551
-0.04755 0.01352 -0.02394
0.00597 0.02766 0.00284
-0.00396 -0.02879 0.00685
-0.00687 0.00482 -0.05108
0.00758 0.01357 -0.02074
0.01383 0.00741 -0.04657
0.00309 0.00086 -0.07242
-0.00616 0.00314 -0.06360
-0.00290 0.00222 -0.05967
-0.01063 0.02620 0.00413
-0.06712 0.02092 0.00372
0.00051 0.05107 0.08977
-0.02855 0.02458 0.00706
0.01699 -0.00427 -0.08128
-0.16073 0.07271 0.14680
0.00618 0.00422 -0.05486
-0.01253 -0.00197 -0.06227
-0.08570 0.02216 0.00940
-0.00329 0.00415 -0.05238
-0.04876 0.02171 0.00893
-0.02219 -0.02300 0.00196
0.00093 0.02631 0.01677
-0.02764 -0.02391 -0.00224
0.00328 0.00111 -0.06537
0.00783 -0.02649 0.00877
0.00196 0.00233 -0.05903
-0.00267 0.00241 -0.05941
0.01595 0.01409 -0.02014
-0.01766 0.02460 0.00783
-0.08728 0.02248 0.00670
-0.01259 -0.00120 -0.06279
-0.07927 -0.00649 0.00603
0.01347 0.00452 -0.05831
-0.00508 0.00523 -0.04466
0.00455 0.02204 -0.00854
-0.00771 0.00085 -0.06598
-0.00665 0.00574 -0.05332
0.01211 -0.00153 -0.07222
-0.04059 -0.01618 -0.00857
-0.00560 0.05685 0.14387
0.00900 0.00340 -0.05682
-0.08998 0.07570 0.17868
-0.01251 -0.00193 -0.06257
-0.01157 0.00335 -0.05617
-0.05204 0.01728 -0.01201
0.01017 0.01536 -0.01075
-0.04583 -0.02094 -0.00009
-0.01248 -0.00231 -0.06259
-0.00673 0.01365 -0.03755
-0.07675 -0.02057 0.00229
-0.17316 0.15578 0.46723
0.01668 -0.00885 0.00343
0.00416 -0.01286 -0.01197
-0.08495 -0.02177 0.01281
0.00464 0.06539 0.18140
-0.00556 0.01826 -0.01233
0.02636 0.01805 -0.01039
0.00988 0.01217 -0.04769
0.02635 0.01551 -0.01012
-0.01984 0.01710 0.00402
-0.00933 -0.02860 0.00623
0.01890 0.02413 0.02425
0.00380 0.00554 -0.04201
-0.01894 0.06576 0.10634
-0.00587 -0.00513 -0.08507
0.00864 0.00306 -0.05980
-0.01979 0.01300 -0.03593
-0.00511 0.00500 -0.06054
-0.00304 0.01836 0.01016
-0.03092 0.01864 0.00088
-0.00452 0.01389 -0.01371
-0.00729 0.00491 -0.05440
-0.00291 0.00460 -0.05671
-0.03023 0.00936 -0.03713
-0.00245 0.00676 -0.04285
0.00199 -0.01491 0.00540
0.02070 -0.02339 0.09669
0.00357 0.00549 -0.05470
0.00393 0.01560 -0.00759
-0.08151 0.04631 0.07770
-0.01741 0.06050 0.12330
0.00080 0.02661 0.01527
-0.08769 0.02262 0.00635
0.02249 0.00696 0.00244
-0.00819 0.01383 -0.03176
0.04084 -0.01657 0.00726
-0.07281 0.02267 0.00593
-0.07181 0.02040 0.00269
-0.00217 0.01276 -0.03299
0.00772 -0.01386 0.00461
-0.08352 -0.02413 0.01785
-0.00706 -0.00553 -0.08178
-0.01236 -0.00136 -0.06283
-0.01288 -0.00233 -0.06241
0.00735 -0.00182 -0.07464
-0.00760 0.03242 0.05197
-0.00249 0.01116 -0.02397
-0.08505 -0.02323 0.03643
-0.05591 -0.03498 0.23799
-0.07607 -0.02053 0.01872
-0.00019 0.00117 -0.06350
0.01438 0.00583 -0.05011
-0.08391 -0.02020 0.00370
-0.02353 0.01217 -0.00270
0.00491 0.01771 0.00488
0.00163 0.00931 -0.03062
-0.01106 -0.00158 -0.06330
-0.01695 0.00104 -0.06302
-0.00919 0.00935 -0.04645
-0.00239 0.00559 -0.05687
-0.00046 -0.00210 -0.07410
-0.08806 0.02172 0.00778
-0.04352 -0.02055 -0.00060
-0.00501 0.00557 -0.06211
-0.02625 0.02334 0.02263
-0.00158 0.00961 0.01178
0.07107 -0.02283 0.05708
0.01797 -0.00447 -0.08199
0.00114 0.00991 -0.02217
-0.03073 0.01339 0.00570
-0.01349 0.00079 -0.04863
0.00055 0.01524 -0.00025
0.00346 -0.00099 -0.06902
-0.00050 0.00024 -0.06380
0.01183 0.01001 -0.04231
-0.00385 0.00438 -0.06046
-0.01554 0.00928 -0.03077
-0.01083 0.00272 -0.05704
-0.00078 0.00655 -0.04814
-0.00037 -0.00663 -0.06621
-0.02421 0.00734 -0.04184
-0.00872 0.03214 0.05954
-0.01184 -0.00362 -0.06204
-0.01154 -0.00364 -0.06231
-0.03155 0.02350 -0.01608
-0.01676 0.01735 -0.00103
-0.00802 -0.02694 0.00475
-0.01251 -0.00200 -0.06296
0.00128 0.01496 -0.04075
-0.00906 0.00787 -0.04862
0.01311 0.00364 -0.05225
0.00634 0.01526 -0.02594
-0.04057 -0.02559 -0.00044
0.00266 0.00740 -0.03638
-0.01045 -0.00209 -0.06233
-0.04857 0.02154 0.01045
-0.01930 0.00652 0.04629
0.06110 0.01007 0.08203
0.02413 -0.03258 0.03384
0.05528 0.10236 0.29801
-0.06429 0.00626 0.08909
-0.09215 -0.02585 0.03448
0.00866 0.02179 -0.00538
-0.03809 0.04424 0.06226
0.08031 0.07046 0.18999
-0.09070 -0.01761 0.00624
-0.01160 -0.00378 -0.06195
0.00568 -0.00411 -0.08206
0.01794 -0.00457 -0.08221
-0.03442 0.01409 -0.01336
0.00114 -0.00282 -0.05361
-0.04994 0.00883 0.00701
0.00898 0.01247 -0.04277
0.00447 0.00279 -0.05702
-0.08113 -0.02885 0.00131
-0.06741 -0.02215 0.01111
-0.02294 -0.01371 0.00327
-0.07013 0.02069 0.00816
-0.00053 -0.02194 0.00869
-0.04199 0.02994 0.03150
-0.01044 0.01032 -0.03219
0.00702 -0.03325 0.07738
-0.00091 -0.03073 0.00788
-0.02961 0.00946 -0.04052
0.01116 0.00865 -0.03518
0.01967 -0.00021 -0.06806
-0.02780 0.02214 0.00660
-0.00126 0.00517 -0.05514
-0.03020 -0.00996 0.00186
-0.02487 0.01289 -0.00402
-0.30937 0.12226 0.36397
-0.02964 -0.01977 -0.00650
-0.00141 0.02352 0.00024
0.00467 0.01449 -0.00641
0.00381 0.00999 -0.02766
-0.01302 -0.02389 0.00367
-0.00227 0.00545 -0.05400
-0.03660 0.01007 -0.03565
-0.08500 -0.02482 0.02579
0.00235 0.00053 -0.07333
0.03773 -0.01467 0.00793
-0.01760 -0.02644 0.00512
-0.01680 -0.02664 0.00564
0.02187 -0.02266 0.00515
-0.00977 -0.02785 0.00487
-0.08361 -0.02169 0.00744
-0.00076 -0.03049 0.00645
-0.10702 -0.02872 0.03787
-0.04796 -0.01845 0.00316
0.03818 -0.02237 0.00604
-0.00218 -0.01016 0.00659
0.03821 -0.02237 0.00610
-0.00353 0.00382 -0.05613
0.00225 0.00064 -0.06876
-0.00124 0.03687 0.02050
-0.00153 0.00236 -0.06480
0.01746 0.00112 -0.06618
0.00380 -0.04332 -0.01001
-0.02320 0.00977 -0.00682
-0.00150 0.00084 -0.06642
-0.01619 0.06331 0.10300
-0.03395 0.00982 -0.03165
-0.00011 0.00164 -0.06863
0.00275 0.00331 -0.05423
0.02078 -0.00148 -0.05318
-0.01152 0.04264 0.05802
-0.07621 -0.02453 -0.00788
-0.00095 0.00381 -0.06553
-0.00040 0.02175 0.00753
-0.00011 0.00346 -0.05234
-0.01277 0.00590 -0.03855
-0.08897 -0.03249 0.00349
0.01282 0.04784 0.09935
0.01496 0.01058 -0.03287
0.00689 -0.00208 -0.07543
-0.01288 0.00779 -0.02753
0.01747 -0.00379 -0.08015
0.01224 0.00406 -0.05932
0.01302 0.01604 -0.01662
0.00298 0.01000 -0.03540
-0.03880 0.01821 -0.01188
-0.01066 0.01330 -0.02248
0.05552 -0.01419 0.08388
-0.00328 0.02007 0.02219
0.00525 0.01290 -0.01731
-0.03093 0.01557 -0.02318
-0.03037 -0.02473 -0.00039
-0.01072 0.01272 -0.03613
-0.00494 0.01901 0.01536
0.01071 0.01687 -0.00995
0.00511 0.00358 -0.05997
0.00511 0.00358 -0.05997
0.01827 0.05841 0.15326
-0.01643 0.00801 -0.04787
-0.00177 0.01379 -0.00858
-0.00933 0.00074 -0.06495
0.03312 -0.01043 0.00783
0.00846 -0.00236 -0.04305
0.01213 0.00019 -0.06748
0.01049 0.03822 0.07710
-0.02304 0.00520 -0.00384
-0.01134 -0.00215 -0.06015
0.02341 0.00599 0.00324
0.01168 0.00660 -0.04117
-0.04143 -0.01982 -0.00799
0.02463 0.01075 -0.03326
-0.00342 0.07262 0.21569
-0.04395 0.02233 -0.00488
-0.00878 0.01326 -0.01850
-0.02943 0.00899 0.00704
-0.13638 -0.02331 0.23463
