# .PCD v.7 - Point Cloud Data file format
VERSION .7
FIELDS x y z
SIZE 4 4 4
TYPE F F F
COUNT 1 1 1
WIDTH 263
HEIGHT 1
VIEWPOINT 0 0 0 1 0 0 0
POINTS 263
DATA ascii
0.04886 0.00517 0.22127
0.01656 -0.00001 0.18320
0.08285 0.03061 -0.04900
0.01988 0.00098 0.05175
0.00586 0.00230 0.21710
-0.04169 0.00072 0.18547
-0.06623 0.00110 -0.07840
-0.02184 0.00401 0.01805
0.05017 0.01039 0.04373
-0.01035 -0.00439 -0.09163
-0.00981 -0.00204 -0.07880
-0.02580 -0.00642 -0.05277
0.08903 0.02019 0.19532
-0.01807 0.00155 -0.11866
-0.03005 -0.03376 -0.17822
-0.01306 -0.00074 -0.15486
0.00476 -0.00407 -0.10328
-0.05994 0.00766 0.23399
-0.00700 -0.00394 -0.08514
-0.04214 -0.09233 -0.58441
0.05275 0.00864 0.30905
-0.02032 -0.00461 -0.02106
-0.02098 -0.00508 -0.13060
0.09177 0.03777 -0.06334
-0.02165 -0.00309 0.10416
0.04564 0.00627 0.23762
-0.03988 -0.00845 -0.09226
-0.01772 -0.06230 -0.43102
0.09553 0.02399 0.20806
-0.02229 -0.05461 -0.34151
-0.03117 -0.08548 -0.50066
0.00295 -0.04522 -0.27911
-0.00459 -0.02875 -0.07216
0.00733 -0.00116 -0.05194
0.02535 0.00488 0.05436
-0.05350 0.00125 0.15657
0.00434 -0.00104 0.01730
-0.00822 -0.00311 0.00209
-0.03839 -0.08825 -0.56323
-0.03978 -0.08812 -0.55851
0.03241 0.00823 -0.01859
-0.03165 -0.06024 -0.42305
-0.03506 -0.08056 -0.49743
0.12068 0.04176 0.13060
-0.04217 -0.09055 -0.57548
0.02903 0.00317 0.21209
-0.04659 -0.08254 -0.51539
0.27825 0.08219 1.00000
-0.03218 -0.00319 -0.04180
-0.03189 -0.00247 -0.03708
-0.03566 -0.07561 -0.43139
0.07074 0.01747 0.12349
-0.06140 0.00267 0.05009
-0.06220 0.00382 0.05412
-0.05120 -0.00083 0.06488
0.01805 0.00345 0.11353
0.17436 0.05492 0.29419
-0.01435 -0.00198 0.07438
0.01169 -0.00030 -0.05449
-0.00939 -0.00206 -0.02716
-0.04426 -0.08321 -0.54568
-0.02783 -0.00111 -0.03023
-0.02752 0.00016 -0.02330
0.03341 0.01503 -0.09507
0.09362 0.03881 -0.05837
0.00455 -0.00078 0.00000
0.05639 0.01048 0.08622
-0.03414 -0.00814 -0.00934
-0.05622 0.00013 0.04261
-0.02999 -0.08075 -0.55898
-0.00500 -0.00086 0.09177
0.05718 0.02219 0.09364
0.01736 0.00368 -0.05198
0.03974 0.00991 0.01606
-0.04640 -0.00492 -0.03753
-0.00939 -0.00333 -0.07272
0.00926 -0.00090 -0.04871
0.03659 0.00671 0.27542
-0.05600 0.00186 -0.14856
-0.03734 -0.08541 -0.55535
-0.05000 -0.00485 -0.02004
0.02570 0.00500 0.03202
0.04512 0.01171 -0.01034
-0.03179 -0.00427 -0.02032
0.09850 0.03274 0.09666
-0.01321 -0.00252 0.01529
-0.02276 -0.00174 0.03559
-0.03082 -0.00130 0.15400
0.09723 0.02405 0.16887
-0.03745 -0.08886 -0.56715
0.08924 0.02039 0.19694
-0.02864 -0.00212 0.09538
-0.04009 -0.10227 -0.36786
-0.07560 0.00301 -0.15051
0.05631 0.01140 0.31152
0.07345 0.01885 0.12408
-0.03403 -0.10358 -0.37808
0.06219 0.01237 0.13797
-0.03415 -0.08335 -0.52019
0.00472 -0.00420 -0.10401
-0.01195 -0.00161 -0.03782
-0.00920 -0.00175 -0.02494
0.01384 0.00254 -0.03306
0.10021 0.04070 -0.04389
-0.04144 0.00127 0.12523
-0.03064 -0.10429 -0.36911
-0.03686 -0.10232 -0.36759
-0.03012 -0.07580 -0.45374
-0.03437 -0.08744 -0.56333
0.01062 0.00169 0.07239
0.00099 -0.05988 -0.41743
0.04574 0.00720 0.02560
-0.03784 -0.08835 -0.56143
0.01421 -0.03133 -0.17387
0.09908 0.03815 -0.04110
-0.01815 -0.07394 -0.46036
-0.02074 -0.07132 -0.50717
-0.05181 -0.00041 -0.15435
0.03156 0.00754 0.00550
0.00806 -0.06890 -0.17651
-0.05767 0.00216 -0.14231
0.05426 0.01265 0.30637
-0.04617 -0.00066 -0.07971
-0.02773 -0.00020 0.01214
-0.01835 -0.07498 -0.47254
-0.05171 -0.00048 0.03107
0.05145 0.01525 -0.00856
0.10122 0.02742 0.17740
-0.00454 -0.00428 -0.06464
0.01203 0.00270 0.00282
-0.00282 -0.00311 -0.07494
-0.01012 -0.00387 -0.07753
0.00217 -0.00160 -0.03396
0.08977 0.03260 -0.04020
0.03341 0.00379 0.04005
0.04119 0.01163 -0.07401
-0.01768 -0.00192 0.11023
-0.03261 0.00379 0.24339
0.05181 0.00279 0.34071
0.07080 0.01243 0.30558
0.04704 0.01164 0.01229
-0.02943 -0.00266 0.10237
0.09068 0.01495 0.31779
0.08845 -0.00110 0.42875
0.05844 0.00658 0.32441
0.05938 0.00823 0.33944
0.09621 0.01459 0.31561
0.06621 -0.00199 0.37017
-0.06491 0.00244 -0.11603
0.03478 0.00916 0.28778
0.02185 -0.05407 -0.41419
0.02581 0.00219 0.12398
0.08157 -0.00270 0.41345
0.09920 0.01226 0.35633
0.08242 0.01693 0.28457
0.00000 -0.06872 -0.46297
0.05034 0.00562 0.27219
0.00324 -0.00106 0.05385
-0.03661 -0.08923 -0.57050
0.08228 0.01335 0.30698
-0.03838 -0.08778 -0.56122
0.00199 -0.00060 0.05848
0.03668 0.01112 -0.05164
0.02425 0.00433 0.31272
0.02970 0.00474 0.04444
0.01821 0.00202 -0.00234
-0.03612 -0.08598 -0.54713
-0.01440 -0.07636 -0.53701
0.08460 0.00254 0.39598
0.08015 0.00760 0.35384
-0.04430 -0.03228 -0.16921
-0.06121 0.00533 -0.13919
0.00713 0.00905 0.30215
-0.04798 -0.08050 -0.53363
-0.05854 0.00213 -0.19110
-0.05873 0.00273 -0.18854
-0.00154 -0.00422 -0.11792
-0.03538 -0.08851 -0.56720
0.02782 0.00355 0.05733
0.04641 0.01317 -0.00233
-0.03773 -0.08635 -0.55549
-0.03735 -0.09015 -0.56880
0.00461 -0.00070 0.00043
0.07927 0.02244 0.14822
0.04397 0.01201 0.00994
-0.02885 -0.08231 -0.52098
-0.03788 -0.08416 -0.54184
-0.01989 -0.00244 -0.02984
0.04520 -0.00682 0.36382
0.08135 0.01114 0.32937
0.01045 0.00439 0.03389
0.04017 0.00382 0.23946
0.04127 0.01233 -0.07307
-0.06561 -0.04140 -0.38357
0.01771 0.00097 0.28500
-0.04391 0.00175 0.27697
0.07802 0.02421 0.07355
-0.02826 -0.07631 -0.52245
0.03133 0.00192 0.21100
-0.04475 0.00020 0.09584
0.04596 0.00878 0.03174
-0.01144 -0.00098 -0.13424
0.03304 0.00217 0.08839
0.05580 0.01388 0.10116
0.12685 0.04382 0.15010
-0.06097 0.00429 0.16518
0.09464 0.02970 0.06997
-0.03662 -0.08924 -0.57040
0.06782 0.01683 0.10373
0.02428 0.00328 0.06003
0.00138 -0.00348 0.07000
-0.02395 -0.00150 -0.15499
-0.02392 -0.00139 -0.15447
-0.02399 -0.00129 -0.15402
-0.07064 0.00310 -0.15352
-0.06981 0.00571 0.02899
-0.02133 -0.00217 0.07961
-0.00127 -0.00157 -0.03114
-0.05200 -0.00151 0.07409
0.07941 0.02418 0.09901
0.03944 0.01398 -0.07703
0.02192 0.00218 0.04591
-0.06478 0.00213 -0.02357
0.09172 0.00352 0.41110
0.03226 -0.04021 -0.37744
0.02133 0.00338 0.02528
0.06095 0.00861 0.17894
0.00040 0.00371 0.29682
0.02327 0.00524 0.14364
-0.06837 0.00273 -0.15399
-0.01684 -0.00228 0.05837
0.00760 0.00657 -0.03198
-0.00528 -0.00221 -0.09693
-0.06660 -0.00025 0.00621
0.06233 0.01544 0.32876
-0.03117 -0.08548 -0.50066
0.01038 0.00000 -0.06147
-0.03560 -0.00318 0.10138
0.04233 0.01701 -0.07471
-0.01760 -0.00324 -0.10889
0.04117 -0.00551 0.21617
0.03183 0.00627 0.00547
-0.00581 -0.00187 0.03214
0.15770 0.05257 0.22829
-0.00171 -0.00121 0.12701
-0.02897 -0.00125 0.07191
-0.06369 0.00467 -0.13235
-0.02643 -0.00228 0.00503
0.02633 -0.05143 -0.40410
0.06629 0.00906 0.18363
-0.01902 -0.00286 -0.10614
-0.01117 -0.00177 -0.00080
0.01757 0.00183 0.12474
0.06476 0.01590 0.06637
-0.00604 -0.00338 -0.06768
0.02950 0.00774 -0.01738
0.02633 0.00289 0.12906
-0.01100 -0.00072 0.07631
-0.07147 -0.00875 -0.20839
0.07909 0.02498 0.06900
0.01402 -0.00085 0.14431
-0.01117 -0.00177 -0.00080
0.05062 0.00854 0.11470
